VERSION 0.7
FIELDS x y z lapdistance
SIZE 4 4 4 4
TYPE F F F F
COUNT 1 1 1 1
WIDTH 1062
HEIGHT 1
VIEWPOINT 0.000 0.000 0.000 1.000 0.000 0.000 0.000
POINTS 1062
DATA ascii
-2.5674 33.3862 -261.3375 0.0000
-2.5593 32.3851 -261.3374 1.0012
-2.5510 31.3839 -261.3374 2.0023
-2.5427 30.3828 -261.3374 3.0035
-2.5343 29.3817 -261.3374 4.0047
-2.5256 28.3805 -261.3374 5.0059
-2.5166 27.3794 -261.3374 6.0070
-2.5073 26.3783 -261.3375 7.0082
-2.4976 25.3772 -261.3374 8.0094
-2.4875 24.3760 -261.3374 9.0105
-2.4770 23.3749 -261.3374 10.0117
-2.4659 22.3738 -261.3374 11.0129
-2.4542 21.3727 -261.3375 12.0141
-2.4419 20.3716 -261.3374 13.0152
-2.4290 19.3705 -261.3374 14.0164
-2.4154 18.3694 -261.3374 15.0176
-2.4011 17.3684 -261.3374 16.0187
-2.3859 16.3673 -261.3374 17.0199
-2.3700 15.3663 -261.3374 18.0211
-2.3532 14.3652 -261.3373 19.0223
-2.3355 13.3642 -261.3374 20.0234
-2.3168 12.3632 -261.3374 21.0246
-2.2972 11.3623 -261.3374 22.0258
-2.2765 10.3613 -261.3374 23.0269
-2.2548 9.3604 -261.3374 24.0281
-2.2321 8.3594 -261.3374 25.0293
-2.2083 7.3586 -261.3374 26.0304
-2.1835 6.3577 -261.3374 27.0316
-2.1576 5.3569 -261.3374 28.0328
-2.1308 4.3561 -261.3374 29.0340
-2.1030 3.3553 -261.3374 30.0351
-2.0745 2.3545 -261.3374 31.0363
-2.0452 1.3538 -261.3374 32.0375
-2.0153 0.3530 -261.3374 33.0386
-1.9850 -0.6477 -261.3373 34.0398
-1.9545 -1.6484 -261.3374 35.0410
-1.9239 -2.6491 -261.3374 36.0422
-1.8934 -3.6498 -261.3374 37.0433
-1.8634 -4.6505 -261.3374 38.0445
-1.8340 -5.6513 -261.3373 39.0457
-1.8056 -6.6520 -261.3373 40.0468
-1.7782 -7.6528 -261.3374 41.0480
-1.7523 -8.6537 -261.3374 42.0492
-1.7278 -9.6545 -261.3374 43.0504
-1.7051 -10.6554 -261.3374 44.0515
-1.6841 -11.6564 -261.3373 45.0527
-1.6650 -12.6574 -261.3374 46.0539
-1.6477 -13.6584 -261.3374 47.0550
-1.6322 -14.6595 -261.3374 48.0562
-1.6182 -15.6605 -261.3374 49.0574
-1.6057 -16.6616 -261.3374 50.0586
-1.5945 -17.6627 -261.3374 51.0597
-1.5843 -18.6638 -261.3374 52.0609
-1.5750 -19.6650 -261.3374 53.0621
-1.5663 -20.6661 -261.3374 54.0632
-1.5581 -21.6672 -261.3374 55.0644
-1.5500 -22.6684 -261.3374 56.0656
-1.5421 -23.6695 -261.3374 57.0668
-1.5340 -24.6707 -261.3374 58.0679
-1.5257 -25.6718 -261.3374 59.0691
-1.5170 -26.6729 -261.3374 60.0703
-1.5078 -27.6741 -261.3374 61.0714
-1.4982 -28.6752 -261.3375 62.0726
-1.4879 -29.6763 -261.3375 63.0738
-1.4769 -30.6774 -261.3374 64.0750
-1.4653 -31.6785 -261.3375 65.0761
-1.4531 -32.6796 -261.3375 66.0773
-1.4403 -33.6807 -261.3374 67.0785
-1.4268 -34.6818 -261.3375 68.0796
-1.4128 -35.6829 -261.3375 69.0808
-1.3983 -36.6839 -261.3375 70.0820
-1.3833 -37.6850 -261.3375 71.0831
-1.3680 -38.6860 -261.3375 72.0843
-1.3523 -39.6871 -261.3375 73.0855
-1.3363 -40.6881 -261.3375 74.0867
-1.3201 -41.6892 -261.3376 75.0878
-1.3037 -42.6902 -261.3375 76.0890
-1.2871 -43.6912 -261.3375 77.0902
-1.2705 -44.6923 -261.3376 78.0913
-1.2538 -45.6933 -261.3375 79.0925
-1.2370 -46.6943 -261.3376 80.0937
-1.2202 -47.6954 -261.3376 81.0949
-1.2035 -48.6964 -261.3376 82.0960
-1.1868 -49.6974 -261.3376 83.0972
-1.1702 -50.6985 -261.3376 84.0984
-1.1536 -51.6995 -261.3376 85.0995
-1.1372 -52.7005 -261.3376 86.1007
-1.1208 -53.7016 -261.3376 87.1019
-1.1046 -54.7026 -261.3376 88.1031
-1.0884 -55.7037 -261.3376 89.1042
-1.0724 -56.7047 -261.3376 90.1054
-1.0564 -57.7057 -261.3376 91.1066
-1.0405 -58.7068 -261.3377 92.1077
-1.0246 -59.7078 -261.3377 93.1089
-1.0088 -60.7089 -261.3377 94.1101
-0.9929 -61.7099 -261.3376 95.1113
-0.9770 -62.7110 -261.3377 96.1124
-0.9610 -63.7120 -261.3377 97.1136
-0.9449 -64.7130 -261.3377 98.1148
-0.9287 -65.7141 -261.3377 99.1159
-0.9123 -66.7151 -261.3377 100.1171
-0.8958 -67.7162 -261.3378 101.1183
-0.8791 -68.7172 -261.3377 102.1195
-0.8622 -69.7182 -261.3378 103.1206
-0.8451 -70.7192 -261.3378 104.1218
-0.8279 -71.7203 -261.3378 105.1230
-0.8104 -72.7213 -261.3378 106.1241
-0.7927 -73.7223 -261.3378 107.1253
-0.7748 -74.7233 -261.3378 108.1265
-0.7567 -75.7243 -261.3378 109.1277
-0.7383 -76.7253 -261.3378 110.1288
-0.7196 -77.7263 -261.3378 111.1300
-0.7006 -78.7273 -261.3379 112.1312
-0.6812 -79.7283 -261.3379 113.1323
-0.6614 -80.7293 -261.3379 114.1335
-0.6413 -81.7302 -261.3379 115.1347
-0.6206 -82.7312 -261.3379 116.1358
-0.5994 -83.7321 -261.3379 117.1370
-0.5775 -84.7331 -261.3380 118.1382
-0.5549 -85.7340 -261.3380 119.1394
-0.5315 -86.7349 -261.3379 120.1405
-0.5071 -87.7358 -261.3380 121.1417
-0.4817 -88.7366 -261.3380 122.1429
-0.4552 -89.7374 -261.3380 123.1440
-0.4273 -90.7382 -261.3380 124.1452
-0.3979 -91.7389 -261.3380 125.1464
-0.3670 -92.7396 -261.3380 126.1476
-0.3343 -93.7403 -261.3380 127.1487
-0.2996 -94.7409 -261.3381 128.1499
-0.2629 -95.7413 -261.3380 129.1511
-0.2237 -96.7418 -261.3381 130.1523
-0.1821 -97.7421 -261.3381 131.1534
-0.1378 -98.7422 -261.3381 132.1546
-0.0904 -99.7423 -261.3382 133.1558
-0.0400 -100.7422 -261.3382 134.1569
0.0139 -101.7419 -261.3382 135.1581
0.0715 -102.7414 -261.3382 136.1593
0.1328 -103.7407 -261.3382 137.1604
0.1984 -104.7398 -261.3382 138.1616
0.2682 -105.7385 -261.3383 139.1628
0.3427 -106.7369 -261.3383 140.1640
0.4220 -107.7349 -261.3383 141.1651
0.5063 -108.7325 -261.3383 142.1663
0.5960 -109.7296 -261.3383 143.1675
0.6913 -110.7263 -261.3383 144.1686
0.7923 -111.7223 -261.3384 145.1698
0.8994 -112.7178 -261.3383 146.1710
1.0127 -113.7125 -261.3384 147.1721
1.1326 -114.7065 -261.3384 148.1733
1.2591 -115.6996 -261.3384 149.1745
1.3925 -116.6918 -261.3384 150.1757
1.5330 -117.6831 -261.3384 151.1768
1.6809 -118.6733 -261.3385 152.1780
1.8362 -119.6624 -261.3385 153.1792
1.9993 -120.6502 -261.3385 154.1804
2.1702 -121.6366 -261.3385 155.1815
2.3492 -122.6217 -261.3386 156.1827
2.5363 -123.6052 -261.3386 157.1839
2.7319 -124.5870 -261.3386 158.1850
2.9360 -125.5672 -261.3386 159.1862
3.1487 -126.5455 -261.3386 160.1874
3.3703 -127.5219 -261.3386 161.1886
3.6008 -128.4961 -261.3387 162.1897
3.8403 -129.4682 -261.3387 163.1909
4.0890 -130.4380 -261.3387 164.1921
4.3469 -131.4053 -261.3387 165.1932
4.6142 -132.3702 -261.3387 166.1944
4.8909 -133.3323 -261.3387 167.1956
5.1771 -134.2918 -261.3388 168.1967
5.4727 -135.2483 -261.3388 169.1979
5.7779 -136.2018 -261.3388 170.1991
6.0926 -137.1522 -261.3388 171.2003
6.4168 -138.0994 -261.3388 172.2014
6.7506 -139.0433 -261.3389 173.2026
7.0939 -139.9838 -261.3389 174.2038
7.4465 -140.9208 -261.3389 175.2049
7.8086 -141.8542 -261.3390 176.2061
8.1799 -142.7840 -261.3390 177.2073
8.5605 -143.7100 -261.3390 178.2085
8.9501 -144.6322 -261.3390 179.2096
9.3487 -145.5506 -261.3391 180.2108
9.7562 -146.4651 -261.3391 181.2120
10.1725 -147.3756 -261.3391 182.2131
10.5974 -148.2822 -261.3391 183.2143
11.0308 -149.1847 -261.3392 184.2155
11.4726 -150.0831 -261.3391 185.2167
11.9227 -150.9774 -261.3392 186.2178
12.3809 -151.8675 -261.3392 187.2190
12.8471 -152.7535 -261.3392 188.2202
13.3213 -153.6353 -261.3392 189.2213
13.8032 -154.5128 -261.3392 190.2225
14.2930 -155.3860 -261.3393 191.2237
14.7903 -156.2549 -261.3393 192.2249
15.2953 -157.1194 -261.3393 193.2260
15.8077 -157.9795 -261.3394 194.2272
16.3276 -158.8351 -261.3394 195.2284
16.8549 -159.6861 -261.3394 196.2295
17.3896 -160.5326 -261.3394 197.2307
17.9316 -161.3743 -261.3394 198.2319
18.4809 -162.2113 -261.3394 199.2330
19.0376 -163.0435 -261.3395 200.2342
19.6015 -163.8707 -261.3395 201.2354
20.1727 -164.6930 -261.3395 202.2366
20.7513 -165.5100 -261.3395 203.2377
21.3372 -166.3219 -261.3396 204.2389
21.9304 -167.1283 -261.3396 205.2401
22.5310 -167.9293 -261.3396 206.2412
23.1390 -168.7247 -261.3397 207.2424
23.7545 -169.5144 -261.3396 208.2436
24.3773 -170.2983 -261.3398 209.2448
25.0076 -171.0761 -261.3397 210.2459
25.6453 -171.8479 -261.3398 211.2471
26.2906 -172.6134 -261.3398 212.2483
26.9433 -173.3725 -261.3398 213.2495
27.6034 -174.1252 -261.3398 214.2506
28.2710 -174.8713 -261.3399 215.2518
28.9461 -175.6107 -261.3398 216.2530
29.6285 -176.3432 -261.3398 217.2541
30.3184 -177.0688 -261.3399 218.2553
31.0154 -177.7874 -261.3400 219.2565
31.7198 -178.4989 -261.3399 220.2576
32.4313 -179.2032 -261.3399 221.2588
33.1500 -179.9003 -261.3400 222.2600
33.8756 -180.5900 -261.3400 223.2612
34.6081 -181.2725 -261.3401 224.2623
35.3475 -181.9475 -261.3401 225.2635
36.0935 -182.6152 -261.3401 226.2647
36.8461 -183.2754 -261.3401 227.2658
37.6052 -183.9282 -261.3401 228.2670
38.3706 -184.5736 -261.3402 229.2682
39.1422 -185.2116 -261.3402 230.2693
39.9199 -185.8421 -261.3402 231.2705
40.7035 -186.4652 -261.3402 232.2717
41.4929 -187.0809 -261.3403 233.2729
42.2881 -187.6892 -261.3402 234.2740
43.0888 -188.2902 -261.3403 235.2752
43.8950 -188.8838 -261.3403 236.2764
44.7066 -189.4700 -261.3403 237.2776
45.5234 -190.0490 -261.3404 238.2787
46.3454 -190.6206 -261.3404 239.2799
47.1724 -191.1848 -261.3404 240.2811
48.0044 -191.7416 -261.3404 241.2822
48.8413 -192.2911 -261.3404 242.2834
49.6831 -192.8332 -261.3405 243.2846
50.5295 -193.3678 -261.3405 244.2858
51.3807 -193.8949 -261.3405 245.2869
52.2365 -194.4144 -261.3405 246.2881
53.0969 -194.9264 -261.3406 247.2893
53.9617 -195.4307 -261.3406 248.2904
54.8311 -195.9274 -261.3406 249.2916
55.7048 -196.4162 -261.3406 250.2928
56.5829 -196.8972 -261.3407 251.2939
57.4652 -197.3702 -261.3407 252.2951
58.3518 -197.8353 -261.3407 253.2963
59.2425 -198.2923 -261.3407 254.2975
60.1374 -198.7412 -261.3408 255.2986
61.0364 -199.1820 -261.3408 256.2998
61.9393 -199.6145 -261.3408 257.3010
62.8461 -200.0387 -261.3408 258.3022
63.7569 -200.4546 -261.3408 259.3033
64.6714 -200.8620 -261.3408 260.3045
65.5896 -201.2611 -261.3408 261.3057
66.5114 -201.6516 -261.3409 262.3068
67.4368 -202.0337 -261.3409 263.3080
68.3657 -202.4071 -261.3409 264.3092
69.2980 -202.7720 -261.3409 265.3103
70.2337 -203.1282 -261.3409 266.3115
71.1726 -203.4758 -261.3410 267.3127
72.1146 -203.8147 -261.3410 268.3138
73.0598 -204.1448 -261.3410 269.3150
74.0080 -204.4661 -261.3411 270.3162
74.9592 -204.7787 -261.3411 271.3174
75.9132 -205.0824 -261.3411 272.3185
76.8699 -205.3772 -261.3411 273.3197
77.8294 -205.6630 -261.3411 274.3209
78.7916 -205.9398 -261.3412 275.3221
79.7563 -206.2076 -261.3412 276.3232
80.7234 -206.4664 -261.3412 277.3244
81.6929 -206.7160 -261.3412 278.3256
82.6648 -206.9565 -261.3412 279.3268
83.6389 -207.1877 -261.3413 280.3279
84.6152 -207.4096 -261.3412 281.3291
85.5935 -207.6223 -261.3413 282.3303
86.5738 -207.8256 -261.3413 283.3314
87.5560 -208.0196 -261.3413 284.3326
88.5400 -208.2042 -261.3414 285.3338
89.5257 -208.3794 -261.3414 286.3349
90.5131 -208.5451 -261.3414 287.3361
91.5020 -208.7014 -261.3414 288.3373
92.4923 -208.8482 -261.3414 289.3384
93.4840 -208.9856 -261.3415 290.3396
94.4769 -209.1136 -261.3415 291.3408
95.4711 -209.2321 -261.3415 292.3420
96.4663 -209.3412 -261.3415 293.3431
97.4625 -209.4410 -261.3415 294.3443
98.4596 -209.5314 -261.3416 295.3455
99.4574 -209.6125 -261.3416 296.3466
100.4560 -209.6842 -261.3416 297.3478
101.4552 -209.7468 -261.3416 298.3490
102.4550 -209.8002 -261.3416 299.3502
103.4551 -209.8444 -261.3416 300.3513
104.4557 -209.8795 -261.3416 301.3525
105.4565 -209.9055 -261.3417 302.3537
106.4576 -209.9225 -261.3417 303.3549
107.4587 -209.9306 -261.3417 304.3560
108.4599 -209.9297 -261.3417 305.3572
109.4610 -209.9200 -261.3417 306.3584
110.4620 -209.9013 -261.3418 307.3595
111.4628 -209.8738 -261.3417 308.3607
112.4633 -209.8375 -261.3418 309.3619
113.4634 -209.7923 -261.3418 310.3630
114.4632 -209.7384 -261.3419 311.3642
115.4623 -209.6755 -261.3419 312.3654
116.4609 -209.6038 -261.3419 313.3665
117.4589 -209.5232 -261.3419 314.3677
118.4560 -209.4336 -261.3419 315.3689
119.4523 -209.3351 -261.3419 316.3701
120.4477 -209.2274 -261.3419 317.3712
121.4420 -209.1108 -261.3419 318.3724
122.4353 -208.9849 -261.3420 319.3736
123.4272 -208.8497 -261.3420 320.3748
124.4179 -208.7053 -261.3420 321.3759
125.4072 -208.5514 -261.3420 322.3771
126.3949 -208.3880 -261.3420 323.3783
127.3811 -208.2150 -261.3420 324.3795
128.3654 -208.0324 -261.3420 325.3806
129.3479 -207.8401 -261.3420 326.3818
130.3286 -207.6380 -261.3421 327.3830
131.3070 -207.4261 -261.3421 328.3841
132.2833 -207.2043 -261.3421 329.3853
133.2573 -206.9727 -261.3420 330.3865
134.2289 -206.7313 -261.3421 331.3876
135.1980 -206.4799 -261.3421 332.3888
136.1646 -206.2188 -261.3421 333.3900
137.1283 -205.9478 -261.3422 334.3911
138.0893 -205.6672 -261.3422 335.3923
139.0475 -205.3769 -261.3422 336.3935
140.0027 -205.0770 -261.3422 337.3947
140.9549 -204.7676 -261.3422 338.3958
141.9040 -204.4489 -261.3422 339.3970
142.8499 -204.1209 -261.3422 340.3982
143.7926 -203.7838 -261.3422 341.3994
144.7320 -203.4377 -261.3422 342.4005
145.6682 -203.0827 -261.3423 343.4017
146.6009 -202.7190 -261.3423 344.4029
147.5302 -202.3466 -261.3422 345.4040
148.4561 -201.9657 -261.3423 346.4052
149.3785 -201.5765 -261.3423 347.4064
150.2974 -201.1789 -261.3423 348.4075
151.2126 -200.7732 -261.3423 349.4087
152.1243 -200.3594 -261.3423 350.4099
153.0323 -199.9376 -261.3423 351.4111
153.9366 -199.5079 -261.3423 352.4122
154.8371 -199.0704 -261.3423 353.4134
155.7337 -198.6251 -261.3423 354.4146
156.6266 -198.1720 -261.3423 355.4157
157.5154 -197.7112 -261.3423 356.4169
158.4002 -197.2428 -261.3423 357.4181
159.2810 -196.7668 -261.3424 358.4193
160.1575 -196.2831 -261.3423 359.4204
161.0298 -195.7917 -261.3424 360.4216
161.8978 -195.2927 -261.3424 361.4228
162.7613 -194.7861 -261.3424 362.4240
163.6203 -194.2718 -261.3424 363.4251
164.4745 -193.7498 -261.3424 364.4263
165.3241 -193.2201 -261.3424 365.4275
166.1688 -192.6826 -261.3424 366.4286
167.0085 -192.1374 -261.3424 367.4298
167.8431 -191.5844 -261.3425 368.4310
168.6725 -191.0237 -261.3424 369.4321
169.4965 -190.4550 -261.3424 370.4333
170.3150 -189.8786 -261.3425 371.4345
171.1280 -189.2943 -261.3424 372.4357
171.9353 -188.7021 -261.3425 373.4368
172.7368 -188.1022 -261.3425 374.4380
173.5323 -187.4944 -261.3424 375.4392
174.3219 -186.8788 -261.3425 376.4403
175.1053 -186.2554 -261.3425 377.4415
175.8825 -185.6243 -261.3424 378.4427
176.6534 -184.9855 -261.3425 379.4438
177.4178 -184.3390 -261.3425 380.4450
178.1759 -183.6850 -261.3425 381.4462
178.9273 -183.0235 -261.3425 382.4474
179.6722 -182.3545 -261.3425 383.4485
180.4104 -181.6782 -261.3425 384.4497
181.1418 -180.9946 -261.3425 385.4509
181.8665 -180.3038 -261.3425 386.4521
182.5844 -179.6060 -261.3425 387.4532
183.2955 -178.9012 -261.3425 388.4544
183.9997 -178.1895 -261.3425 389.4556
184.6970 -177.4711 -261.3425 390.4567
185.3874 -176.7461 -261.3425 391.4579
186.0709 -176.0145 -261.3425 392.4591
186.7474 -175.2765 -261.3425 393.4602
187.4170 -174.5322 -261.3425 394.4614
188.0797 -173.7818 -261.3425 395.4626
188.7354 -173.0252 -261.3425 396.4637
189.3842 -172.2627 -261.3425 397.4649
190.0259 -171.4943 -261.3425 398.4661
190.6607 -170.7201 -261.3425 399.4673
191.2885 -169.9402 -261.3425 400.4684
191.9093 -169.1547 -261.3425 401.4696
192.5230 -168.3637 -261.3425 402.4708
193.1296 -167.5673 -261.3425 403.4720
193.7291 -166.7654 -261.3424 404.4731
194.3214 -165.9582 -261.3425 405.4743
194.9064 -165.1458 -261.3424 406.4755
195.4842 -164.3281 -261.3425 407.4767
196.0545 -163.5053 -261.3424 408.4778
196.6174 -162.6774 -261.3424 409.4790
197.1728 -161.8443 -261.3424 410.4802
197.7205 -161.0063 -261.3425 411.4813
198.2605 -160.1633 -261.3424 412.4825
198.7928 -159.3153 -261.3424 413.4837
199.3171 -158.4624 -261.3424 414.4848
199.8336 -157.6047 -261.3424 415.4860
200.3419 -156.7422 -261.3424 416.4872
200.8421 -155.8750 -261.3424 417.4883
201.3341 -155.0031 -261.3424 418.4895
201.8179 -154.1265 -261.3424 419.4907
202.2933 -153.2454 -261.3424 420.4919
202.7603 -152.3599 -261.3424 421.4930
203.2189 -151.4699 -261.3423 422.4942
203.6691 -150.5757 -261.3424 423.4954
204.1107 -149.6771 -261.3424 424.4966
204.5437 -148.7745 -261.3423 425.4977
204.9682 -147.8678 -261.3423 426.4989
205.3842 -146.9571 -261.3423 427.5001
205.7915 -146.0425 -261.3423 428.5012
206.1902 -145.1241 -261.3423 429.5024
206.5802 -144.2021 -261.3423 430.5036
206.9617 -143.2765 -261.3423 431.5048
207.3345 -142.3473 -261.3423 432.5059
207.6987 -141.4147 -261.3423 433.5071
208.0543 -140.4788 -261.3423 434.5083
208.4012 -139.5397 -261.3423 435.5094
208.7396 -138.5974 -261.3423 436.5106
209.0693 -137.6521 -261.3423 437.5118
209.3904 -136.7038 -261.3422 438.5129
209.7029 -135.7527 -261.3423 439.5141
210.0068 -134.7987 -261.3422 440.5153
210.3020 -133.8421 -261.3422 441.5164
210.5887 -132.8828 -261.3422 442.5176
210.8667 -131.9211 -261.3422 443.5188
211.1361 -130.9568 -261.3422 444.5200
211.3969 -129.9902 -261.3422 445.5211
211.6490 -129.0213 -261.3422 446.5223
211.8925 -128.0502 -261.3422 447.5235
212.1273 -127.0770 -261.3421 448.5247
212.3534 -126.1017 -261.3421 449.5258
212.5709 -125.1244 -261.3421 450.5270
212.7797 -124.1453 -261.3421 451.5282
212.9799 -123.1643 -261.3421 452.5294
213.1713 -122.1816 -261.3421 453.5305
213.3541 -121.1973 -261.3420 454.5317
213.5283 -120.2113 -261.3421 455.5329
213.6938 -119.2240 -261.3420 456.5340
213.8508 -118.2352 -261.3420 457.5352
213.9993 -117.2451 -261.3420 458.5364
214.1394 -116.2538 -261.3420 459.5375
214.2711 -115.2613 -261.3420 460.5387
214.3945 -114.2678 -261.3420 461.5399
214.5098 -113.2733 -261.3420 462.5410
214.6172 -112.2779 -261.3419 463.5422
214.7166 -111.2817 -261.3419 464.5434
214.8085 -110.2847 -261.3419 465.5446
214.8929 -109.2871 -261.3419 466.5457
214.9701 -108.2889 -261.3419 467.5469
215.0402 -107.2902 -261.3419 468.5481
215.1037 -106.2910 -261.3419 469.5493
215.1607 -105.2915 -261.3419 470.5504
215.2116 -104.2916 -261.3419 471.5516
215.2565 -103.2915 -261.3418 472.5528
215.2960 -102.2911 -261.3418 473.5539
215.3302 -101.2905 -261.3418 474.5551
215.3595 -100.2897 -261.3418 475.5563
215.3843 -99.2889 -261.3418 476.5574
215.4048 -98.2879 -261.3418 477.5586
215.4214 -97.2869 -261.3418 478.5598
215.4343 -96.2858 -261.3417 479.5610
215.4440 -95.2847 -261.3417 480.5621
215.4507 -94.2835 -261.3417 481.5633
215.4547 -93.2824 -261.3417 482.5645
215.4563 -92.2812 -261.3417 483.5656
215.4557 -91.2800 -261.3417 484.5668
215.4532 -90.2789 -261.3417 485.5680
215.4491 -89.2777 -261.3417 486.5692
215.4435 -88.2765 -261.3416 487.5703
215.4366 -87.2754 -261.3416 488.5715
215.4287 -86.2743 -261.3416 489.5727
215.4199 -85.2731 -261.3416 490.5739
215.4103 -84.2720 -261.3416 491.5750
215.4001 -83.2709 -261.3416 492.5762
215.3894 -82.2698 -261.3416 493.5774
215.3783 -81.2687 -261.3416 494.5785
215.3669 -80.2675 -261.3416 495.5797
215.3553 -79.2664 -261.3416 496.5809
215.3434 -78.2654 -261.3416 497.5820
215.3315 -77.2642 -261.3416 498.5832
215.3194 -76.2632 -261.3415 499.5844
215.3073 -75.2620 -261.3415 500.5856
215.2951 -74.2609 -261.3415 501.5867
215.2829 -73.2599 -261.3415 502.5879
215.2707 -72.2587 -261.3415 503.5891
215.2585 -71.2577 -261.3415 504.5902
215.2463 -70.2566 -261.3415 505.5914
215.2341 -69.2555 -261.3415 506.5926
215.2219 -68.2544 -261.3415 507.5938
215.2097 -67.2533 -261.3415 508.5949
215.1974 -66.2522 -261.3415 509.5961
215.1851 -65.2511 -261.3414 510.5973
215.1728 -64.2500 -261.3414 511.5984
215.1605 -63.2489 -261.3414 512.5996
215.1482 -62.2478 -261.3414 513.6008
215.1357 -61.2467 -261.3414 514.6019
215.1234 -60.2456 -261.3414 515.6031
215.1109 -59.2445 -261.3414 516.6043
215.0985 -58.2434 -261.3414 517.6055
215.0860 -57.2424 -261.3414 518.6066
215.0736 -56.2413 -261.3414 519.6078
215.0611 -55.2401 -261.3414 520.6090
215.0486 -54.2391 -261.3414 521.6102
215.0362 -53.2380 -261.3413 522.6113
215.0237 -52.2369 -261.3413 523.6125
215.0113 -51.2358 -261.3413 524.6136
214.9988 -50.2347 -261.3413 525.6148
214.9863 -49.2336 -261.3413 526.6160
214.9739 -48.2325 -261.3413 527.6172
214.9613 -47.2314 -261.3413 528.6183
214.9488 -46.2303 -261.3413 529.6195
214.9361 -45.2292 -261.3413 530.6207
214.9234 -44.2281 -261.3413 531.6219
214.9106 -43.2270 -261.3412 532.6230
214.8976 -42.2259 -261.3413 533.6242
214.8844 -41.2249 -261.3413 534.6254
214.8710 -40.2238 -261.3413 535.6265
214.8574 -39.2226 -261.3412 536.6277
214.8435 -38.2216 -261.3412 537.6289
214.8293 -37.2206 -261.3412 538.6301
214.8148 -36.2195 -261.3412 539.6312
214.8000 -35.2185 -261.3412 540.6324
214.7848 -34.2174 -261.3412 541.6335
214.7692 -33.2163 -261.3413 542.6348
214.7532 -32.2153 -261.3412 543.6359
214.7368 -31.2142 -261.3412 544.6371
214.7201 -30.2132 -261.3412 545.6382
214.7029 -29.2122 -261.3412 546.6394
214.6855 -28.2111 -261.3412 547.6406
214.6677 -27.2101 -261.3412 548.6418
214.6496 -26.2092 -261.3412 549.6429
214.6313 -25.2082 -261.3412 550.6441
214.6127 -24.2071 -261.3412 551.6453
214.5940 -23.2061 -261.3412 552.6465
214.5751 -22.2051 -261.3412 553.6476
214.5562 -21.2041 -261.3412 554.6488
214.5372 -20.2032 -261.3412 555.6500
214.5182 -19.2022 -261.3412 556.6511
214.4994 -18.2011 -261.3412 557.6523
214.4807 -17.2002 -261.3412 558.6535
214.4622 -16.1992 -261.3412 559.6547
214.4438 -15.1982 -261.3412 560.6558
214.4258 -14.1972 -261.3412 561.6570
214.4081 -13.1962 -261.3411 562.6581
214.3907 -12.1951 -261.3412 563.6594
214.3737 -11.1941 -261.3412 564.6605
214.3572 -10.1931 -261.3412 565.6617
214.3410 -9.1920 -261.3412 566.6628
214.3253 -8.1910 -261.3412 567.6640
214.3100 -7.1899 -261.3411 568.6652
214.2950 -6.1889 -261.3411 569.6664
214.2805 -5.1878 -261.3412 570.6675
214.2664 -4.1868 -261.3411 571.6687
214.2526 -3.1857 -261.3411 572.6699
214.2392 -2.1846 -261.3411 573.6710
214.2260 -1.1835 -261.3411 574.6722
214.2131 -0.1824 -261.3411 575.6734
214.2004 0.8187 -261.3411 576.6746
214.1878 1.8197 -261.3411 577.6757
214.1754 2.8208 -261.3411 578.6769
214.1629 3.8220 -261.3411 579.6781
214.1505 4.8230 -261.3411 580.6793
214.1379 5.8242 -261.3411 581.6804
214.1252 6.8252 -261.3411 582.6816
214.1123 7.8263 -261.3411 583.6827
214.0992 8.8274 -261.3411 584.6840
214.0857 9.8285 -261.3411 585.6851
214.0718 10.8295 -261.3411 586.6863
214.0576 11.8306 -261.3411 587.6874
214.0430 12.8317 -261.3411 588.6886
214.0278 13.8328 -261.3411 589.6898
214.0122 14.8338 -261.3411 590.6910
213.9960 15.8349 -261.3411 591.6921
213.9794 16.8358 -261.3412 592.6933
213.9622 17.8369 -261.3411 593.6945
213.9445 18.8379 -261.3411 594.6956
213.9263 19.8389 -261.3412 595.6968
213.9076 20.8399 -261.3411 596.6980
213.8885 21.8409 -261.3412 597.6992
213.8689 22.8418 -261.3411 598.7003
213.8489 23.8428 -261.3411 599.7015
213.8286 24.8439 -261.3411 600.7027
213.8080 25.8448 -261.3412 601.7039
213.7871 26.8457 -261.3412 602.7050
213.7660 27.8467 -261.3411 603.7062
213.7449 28.8476 -261.3412 604.7073
213.7236 29.8485 -261.3411 605.7085
213.7024 30.8495 -261.3411 606.7097
213.6812 31.8504 -261.3411 607.7109
213.6601 32.8514 -261.3411 608.7120
213.6392 33.8524 -261.3412 609.7132
213.6185 34.8533 -261.3411 610.7144
213.5980 35.8543 -261.3412 611.7156
213.5778 36.8553 -261.3412 612.7167
213.5578 37.8563 -261.3411 613.7179
213.5382 38.8572 -261.3412 614.7191
213.5188 39.8582 -261.3412 615.7202
213.4998 40.8592 -261.3412 616.7214
213.4811 41.8602 -261.3412 617.7226
213.4626 42.8612 -261.3412 618.7238
213.4444 43.8622 -261.3411 619.7249
213.4264 44.8632 -261.3411 620.7261
213.4087 45.8642 -261.3412 621.7273
213.3911 46.8653 -261.3411 622.7285
213.3737 47.8662 -261.3412 623.7296
213.3564 48.8673 -261.3412 624.7308
213.3391 49.8683 -261.3412 625.7319
213.3219 50.8693 -261.3412 626.7331
213.3047 51.8704 -261.3412 627.7343
213.2874 52.8714 -261.3412 628.7355
213.2701 53.8723 -261.3412 629.7366
213.2526 54.8734 -261.3412 630.7378
213.2350 55.8744 -261.3412 631.7390
213.2173 56.8754 -261.3412 632.7402
213.1993 57.8765 -261.3412 633.7413
213.1811 58.8775 -261.3412 634.7425
213.1628 59.8784 -261.3413 635.7437
213.1441 60.8794 -261.3413 636.7448
213.1252 61.8804 -261.3412 637.7460
213.1059 62.8814 -261.3412 638.7472
213.0862 63.8824 -261.3413 639.7484
213.0662 64.8834 -261.3413 640.7495
213.0458 65.8843 -261.3413 641.7507
213.0248 66.8852 -261.3413 642.7518
213.0033 67.8863 -261.3413 643.7531
212.9812 68.8871 -261.3413 644.7542
212.9585 69.8881 -261.3413 645.7554
212.9349 70.8890 -261.3413 646.7565
212.9105 71.8898 -261.3413 647.7577
212.8852 72.8907 -261.3414 648.7589
212.8588 73.8915 -261.3413 649.7601
212.8313 74.8923 -261.3414 650.7612
212.8024 75.8930 -261.3414 651.7624
212.7721 76.8938 -261.3414 652.7635
212.7401 77.8945 -261.3414 653.7648
212.7063 78.8950 -261.3414 654.7659
212.6706 79.8956 -261.3414 655.7671
212.6326 80.8960 -261.3414 656.7682
212.5923 81.8963 -261.3414 657.7694
212.5493 82.8966 -261.3414 658.7706
212.5035 83.8968 -261.3415 659.7718
212.4547 84.8967 -261.3415 660.7729
212.4025 85.8965 -261.3415 661.7741
212.3469 86.8961 -261.3415 662.7753
212.2875 87.8955 -261.3416 663.7764
212.2241 88.8948 -261.3416 664.7776
212.1564 89.8936 -261.3416 665.7788
212.0843 90.8922 -261.3416 666.7800
212.0075 91.8904 -261.3415 667.7811
211.9258 92.8882 -261.3416 668.7823
211.8391 93.8856 -261.3416 669.7834
211.7470 94.8826 -261.3416 670.7847
211.6493 95.8790 -261.3415 671.7858
211.5461 96.8747 -261.3416 672.7870
211.4371 97.8700 -261.3416 673.7881
211.3219 98.8645 -261.3416 674.7893
211.2007 99.8583 -261.3416 675.7905
211.0732 100.8514 -261.3417 676.7917
210.9392 101.8435 -261.3416 677.7928
210.7989 102.8348 -261.3417 678.7940
210.6518 103.8251 -261.3417 679.7952
210.4980 104.8144 -261.3417 680.7964
210.3375 105.8026 -261.3417 681.7975
210.1699 106.7896 -261.3417 682.7987
209.9956 107.7755 -261.3417 683.7999
209.8141 108.7600 -261.3417 684.8010
209.6256 109.7434 -261.3417 685.8022
209.4300 110.7253 -261.3418 686.8034
209.2272 111.7056 -261.3418 687.8046
209.0172 112.6845 -261.3418 688.8057
208.7998 113.6618 -261.3418 689.8069
208.5751 114.6374 -261.3418 690.8080
208.3430 115.6114 -261.3419 691.8093
208.1035 116.5835 -261.3418 692.8104
207.8566 117.5537 -261.3418 693.8116
207.6021 118.5219 -261.3419 694.8127
207.3401 119.4883 -261.3419 695.8139
207.0703 120.4524 -261.3419 696.8151
206.7930 121.4144 -261.3419 697.8163
206.5078 122.3741 -261.3419 698.8174
206.2148 123.3314 -261.3419 699.8186
205.9140 124.2863 -261.3419 700.8198
205.6053 125.2387 -261.3419 701.8209
205.2886 126.1885 -261.3419 702.8221
204.9639 127.1355 -261.3419 703.8233
204.6311 128.0798 -261.3419 704.8245
204.2903 129.0211 -261.3419 705.8256
203.9413 129.9595 -261.3420 706.8268
203.5842 130.8948 -261.3419 707.8280
203.2188 131.8269 -261.3419 708.8292
202.8453 132.7558 -261.3420 709.8303
202.4635 133.6813 -261.3420 710.8315
202.0735 134.6034 -261.3420 711.8326
201.6754 135.5220 -261.3420 712.8339
201.2690 136.4370 -261.3420 713.8350
200.8544 137.3483 -261.3420 714.8362
200.4317 138.2558 -261.3420 715.8373
200.0008 139.1595 -261.3420 716.8385
199.5618 140.0593 -261.3420 717.8397
199.1147 140.9551 -261.3420 718.8409
198.6596 141.8468 -261.3421 719.8420
198.1963 142.7344 -261.3420 720.8432
197.7252 143.6177 -261.3421 721.8444
197.2459 144.4967 -261.3420 722.8455
196.7587 145.3714 -261.3420 723.8467
196.2635 146.2415 -261.3420 724.8479
195.7604 147.1071 -261.3420 725.8491
195.2493 147.9680 -261.3421 726.8502
194.7304 148.8241 -261.3421 727.8514
194.2034 149.6755 -261.3421 728.8526
193.6686 150.5218 -261.3420 729.8538
193.1259 151.3631 -261.3421 730.8549
192.5753 152.1992 -261.3421 731.8561
192.0167 153.0300 -261.3421 732.8572
191.4502 153.8555 -261.3422 733.8584
190.8757 154.6756 -261.3421 734.8596
190.2934 155.4899 -261.3421 735.8608
189.7031 156.2986 -261.3420 736.8619
189.1050 157.1014 -261.3421 737.8631
188.4990 157.8983 -261.3421 738.8643
187.8850 158.6891 -261.3421 739.8655
187.2632 159.4738 -261.3421 740.8666
186.6336 160.2522 -261.3421 741.8678
185.9961 161.0242 -261.3421 742.8690
185.3510 161.7897 -261.3421 743.8701
184.6980 162.5488 -261.3421 744.8713
184.0375 163.3011 -261.3421 745.8725
183.3694 164.0467 -261.3421 746.8737
182.6938 164.7856 -261.3421 747.8748
182.0107 165.5175 -261.3421 748.8760
181.3204 166.2426 -261.3421 749.8772
180.6228 166.9608 -261.3421 750.8784
179.9181 167.6718 -261.3421 751.8795
179.2063 168.3760 -261.3421 752.8807
178.4877 169.0730 -261.3421 753.8818
177.7622 169.7630 -261.3420 754.8830
177.0302 170.4459 -261.3422 755.8842
176.2915 171.1217 -261.3421 756.8854
175.5463 171.7904 -261.3421 757.8865
174.7949 172.4520 -261.3420 758.8877
174.0372 173.1064 -261.3421 759.8889
173.2734 173.7536 -261.3420 760.8901
172.5037 174.3938 -261.3421 761.8912
171.7280 175.0268 -261.3421 762.8924
170.9465 175.6525 -261.3420 763.8936
170.1593 176.2711 -261.3421 764.8947
169.3664 176.8824 -261.3420 765.8959
168.5679 177.4864 -261.3421 766.8971
167.7641 178.0832 -261.3420 767.8983
166.9548 178.6725 -261.3420 768.8994
166.1401 179.2545 -261.3421 769.9006
165.3202 179.8290 -261.3420 770.9017
164.4951 180.3961 -261.3421 771.9030
163.6648 180.9556 -261.3421 772.9041
162.8294 181.5073 -261.3420 773.9053
161.9891 182.0515 -261.3420 774.9064
161.1437 182.5878 -261.3420 775.9076
160.2933 183.1163 -261.3419 776.9088
159.4382 183.6369 -261.3420 777.9100
158.5782 184.1495 -261.3419 778.9111
157.7134 184.6540 -261.3420 779.9123
156.8440 185.1503 -261.3420 780.9135
155.9698 185.6384 -261.3419 781.9147
155.0911 186.1182 -261.3419 782.9158
154.2079 186.5896 -261.3419 783.9170
153.3202 187.0526 -261.3420 784.9182
152.4281 187.5070 -261.3419 785.9193
151.5318 187.9529 -261.3419 786.9205
150.6311 188.3902 -261.3419 787.9217
149.7263 188.8188 -261.3419 788.9229
148.8175 189.2388 -261.3419 789.9240
147.9047 189.6500 -261.3419 790.9252
146.9880 190.0524 -261.3419 791.9263
146.0674 190.4461 -261.3419 792.9276
145.1432 190.8310 -261.3418 793.9287
144.2153 191.2071 -261.3418 794.9299
143.2840 191.5744 -261.3419 795.9310
142.3492 191.9327 -261.3418 796.9322
141.4111 192.2823 -261.3418 797.9333
140.4696 192.6231 -261.3418 798.9346
139.5251 192.9550 -261.3418 799.9357
138.5775 193.2781 -261.3418 800.9369
137.6269 193.5923 -261.3418 801.9380
136.6734 193.8977 -261.3417 802.9392
135.7171 194.1942 -261.3418 803.9404
134.7582 194.4819 -261.3417 804.9416
133.7967 194.7607 -261.3417 805.9427
132.8326 195.0306 -261.3417 806.9439
131.8661 195.2916 -261.3417 807.9451
130.8971 195.5437 -261.3417 808.9463
129.9259 195.7870 -261.3417 809.9474
128.9526 196.0212 -261.3417 810.9486
127.9771 196.2466 -261.3417 811.9498
126.9996 196.4629 -261.3417 812.9509
126.0201 196.6702 -261.3416 813.9521
125.0388 196.8685 -261.3416 814.9533
124.0556 197.0576 -261.3416 815.9545
123.0708 197.2377 -261.3416 816.9556
122.0844 197.4086 -261.3416 817.9568
121.0963 197.5703 -261.3416 818.9579
120.1068 197.7228 -261.3416 819.9592
119.1160 197.8661 -261.3416 820.9603
118.1238 198.0000 -261.3415 821.9615
117.1304 198.1246 -261.3415 822.9626
116.1360 198.2400 -261.3415 823.9638
115.1404 198.3459 -261.3415 824.9650
114.1438 198.4425 -261.3414 825.9662
113.1465 198.5296 -261.3415 826.9673
112.1484 198.6073 -261.3415 827.9685
111.1495 198.6756 -261.3414 828.9697
110.1501 198.7345 -261.3414 829.9708
109.1501 198.7839 -261.3414 830.9720
108.1497 198.8237 -261.3413 831.9732
107.1491 198.8542 -261.3414 832.9744
106.1481 198.8752 -261.3414 833.9755
105.1470 198.8867 -261.3412 834.9767
104.1458 198.8887 -261.3414 835.9779
103.1447 198.8813 -261.3412 836.9791
102.1436 198.8645 -261.3413 837.9802
101.1429 198.8382 -261.3412 838.9814
100.1424 198.8025 -261.3413 839.9825
99.1422 198.7573 -261.3412 840.9838
98.1425 198.7028 -261.3412 841.9849
97.1434 198.6388 -261.3412 842.9861
96.1449 198.5655 -261.3412 843.9872
95.1472 198.4827 -261.3412 844.9884
94.1502 198.3905 -261.3412 845.9896
93.1542 198.2889 -261.3411 846.9908
92.1593 198.1780 -261.3412 847.9919
91.1653 198.0576 -261.3411 848.9931
90.1726 197.9278 -261.3411 849.9943
89.1812 197.7886 -261.3410 850.9954
88.1911 197.6401 -261.3411 851.9966
87.2024 197.4820 -261.3410 852.9978
86.2154 197.3145 -261.3410 853.9990
85.2300 197.1376 -261.3410 855.0001
84.2463 196.9513 -261.3409 856.0013
83.2645 196.7555 -261.3409 857.0025
82.2846 196.5504 -261.3409 858.0037
81.3066 196.3358 -261.3409 859.0048
80.3309 196.1118 -261.3409 860.0060
79.3573 195.8785 -261.3409 861.0071
78.3860 195.6357 -261.3409 862.0083
77.4171 195.3836 -261.3408 863.0095
76.4506 195.1223 -261.3408 864.0107
75.4867 194.8517 -261.3408 865.0118
74.5255 194.5718 -261.3407 866.0130
73.5670 194.2828 -261.3408 867.0142
72.6112 193.9846 -261.3408 868.0154
71.6583 193.6773 -261.3407 869.0165
70.7085 193.3611 -261.3407 870.0177
69.7616 193.0358 -261.3407 871.0189
68.8179 192.7016 -261.3406 872.0200
67.8773 192.3585 -261.3406 873.0212
66.9400 192.0066 -261.3406 874.0224
66.0061 191.6459 -261.3406 875.0236
65.0756 191.2766 -261.3406 876.0247
64.1485 190.8985 -261.3406 877.0259
63.2250 190.5118 -261.3405 878.0271
62.3051 190.1167 -261.3405 879.0283
61.3889 189.7130 -261.3405 880.0294
60.4766 189.3008 -261.3404 881.0306
59.5680 188.8803 -261.3404 882.0317
58.6634 188.4514 -261.3404 883.0329
57.7627 188.0141 -261.3404 884.0341
56.8661 187.5688 -261.3404 885.0353
55.9736 187.1151 -261.3404 886.0364
55.0853 186.6534 -261.3403 887.0376
54.2012 186.1835 -261.3403 888.0388
53.3214 185.7056 -261.3403 889.0400
52.4460 185.2198 -261.3403 890.0411
51.5751 184.7260 -261.3402 891.0423
50.7087 184.2244 -261.3402 892.0435
49.8468 183.7149 -261.3402 893.0446
48.9896 183.1977 -261.3402 894.0458
48.1371 182.6728 -261.3401 895.0470
47.2893 182.1402 -261.3401 896.0482
46.4464 181.6001 -261.3401 897.0493
45.6083 181.0523 -261.3401 898.0505
44.7752 180.4971 -261.3401 899.0516
43.9471 179.9344 -261.3400 900.0529
43.1242 179.3643 -261.3401 901.0540
42.3063 178.7868 -261.3400 902.0552
41.4938 178.2020 -261.3400 903.0563
40.6865 177.6099 -261.3400 904.0575
39.8845 177.0105 -261.3400 905.0587
39.0880 176.4039 -261.3399 906.0599
38.2970 175.7902 -261.3399 907.0610
37.5116 175.1693 -261.3399 908.0622
36.7319 174.5413 -261.3398 909.0634
35.9579 173.9063 -261.3398 910.0646
35.1897 173.2642 -261.3398 911.0657
34.4275 172.6151 -261.3398 912.0669
33.6712 171.9592 -261.3398 913.0681
32.9209 171.2962 -261.3398 914.0692
32.1768 170.6264 -261.3397 915.0704
31.4389 169.9498 -261.3397 916.0716
30.7073 169.2663 -261.3397 917.0728
29.9821 168.5762 -261.3396 918.0739
29.2633 167.8793 -261.3396 919.0751
28.5510 167.1758 -261.3396 920.0762
27.8452 166.4655 -261.3396 921.0775
27.1462 165.7488 -261.3396 922.0786
26.4540 165.0255 -261.3395 923.0798
25.7686 164.2958 -261.3395 924.0809
25.0901 163.5596 -261.3395 925.0821
24.4186 162.8170 -261.3395 926.0833
23.7541 162.0681 -261.3394 927.0845
23.0969 161.3129 -261.3394 928.0856
22.4469 160.5515 -261.3394 929.0868
21.8042 159.7838 -261.3394 930.0880
21.1689 159.0101 -261.3394 931.0891
20.5410 158.2302 -261.3394 932.0903
19.9206 157.4444 -261.3394 933.0915
19.3079 156.6527 -261.3393 934.0927
18.7028 155.8551 -261.3393 935.0938
18.1054 155.0517 -261.3393 936.0950
17.5157 154.2425 -261.3392 937.0962
16.9338 153.4278 -261.3392 938.0974
16.3598 152.6075 -261.3392 939.0985
15.7937 151.7819 -261.3392 940.0997
15.2354 150.9508 -261.3391 941.1008
14.6850 150.1144 -261.3392 942.1021
14.1425 149.2730 -261.3391 943.1032
13.6080 148.4265 -261.3391 944.1044
13.0813 147.5750 -261.3391 945.1055
12.5626 146.7188 -261.3391 946.1067
12.0518 145.8577 -261.3390 947.1078
11.5489 144.9919 -261.3390 948.1091
11.0540 144.1217 -261.3390 949.1102
10.5669 143.2470 -261.3390 950.1114
10.0877 142.3680 -261.3390 951.1125
9.6165 141.4846 -261.3390 952.1137
9.1532 140.5971 -261.3389 953.1149
8.6979 139.7054 -261.3389 954.1161
8.2506 138.8098 -261.3389 955.1172
7.8113 137.9101 -261.3389 956.1184
7.3802 137.0066 -261.3388 957.1196
6.9572 136.0992 -261.3388 958.1207
6.5424 135.1879 -261.3388 959.1219
6.1359 134.2730 -261.3388 960.1231
5.7379 133.3543 -261.3387 961.1243
5.3484 132.4321 -261.3387 962.1254
4.9675 131.5062 -261.3387 963.1266
4.5953 130.5767 -261.3387 964.1278
4.2320 129.6438 -261.3387 965.1290
3.8776 128.7075 -261.3386 966.1301
3.5323 127.7677 -261.3386 967.1313
3.1962 126.8247 -261.3386 968.1324
2.8694 125.8783 -261.3386 969.1337
2.5520 124.9288 -261.3386 970.1348
2.2442 123.9762 -261.3385 971.1360
1.9458 123.0205 -261.3386 972.1371
1.6571 122.0618 -261.3385 973.1383
1.3781 121.1003 -261.3385 974.1395
1.1088 120.1360 -261.3385 975.1407
0.8493 119.1691 -261.3385 976.1418
0.5994 118.1997 -261.3384 977.1430
0.3593 117.2277 -261.3385 978.1442
0.1288 116.2534 -261.3384 979.1453
-0.0921 115.2769 -261.3384 980.1465
-0.3035 114.2983 -261.3384 981.1477
-0.5054 113.3177 -261.3384 982.1489
-0.6981 112.3353 -261.3383 983.1500
-0.8815 111.3511 -261.3383 984.1512
-1.0559 110.3652 -261.3383 985.1524
-1.2214 109.3778 -261.3383 986.1536
-1.3782 108.3890 -261.3383 987.1547
-1.5264 107.3988 -261.3383 988.1559
-1.6663 106.4076 -261.3382 989.1570
-1.7980 105.4151 -261.3382 990.1582
-1.9218 104.4215 -261.3382 991.1594
-2.0379 103.4272 -261.3382 992.1606
-2.1464 102.4319 -261.3382 993.1617
-2.2477 101.4359 -261.3382 994.1629
-2.3419 100.4392 -261.3381 995.1641
-2.4294 99.4418 -261.3381 996.1653
-2.5103 98.4439 -261.3381 997.1664
-2.5848 97.4455 -261.3381 998.1676
-2.6533 96.4467 -261.3381 999.1688
-2.7160 95.4475 -261.3381 1000.1699
-2.7732 94.4479 -261.3380 1001.1711
-2.8250 93.4481 -261.3380 1002.1723
-2.8717 92.4480 -261.3380 1003.1735
-2.9136 91.4478 -261.3380 1004.1746
-2.9510 90.4473 -261.3380 1005.1758
-2.9840 89.4466 -261.3380 1006.1770
-3.0129 88.4458 -261.3380 1007.1782
-3.0379 87.4450 -261.3380 1008.1793
-3.0593 86.4441 -261.3380 1009.1805
-3.0773 85.4431 -261.3380 1010.1816
-3.0921 84.4420 -261.3379 1011.1828
-3.1039 83.4409 -261.3379 1012.1840
-3.1128 82.4397 -261.3379 1013.1852
-3.1192 81.4386 -261.3379 1014.1863
-3.1232 80.4375 -261.3379 1015.1875
-3.1249 79.4363 -261.3379 1016.1887
-3.1246 78.4351 -261.3378 1017.1899
-3.1224 77.4339 -261.3378 1018.1910
-3.1184 76.4328 -261.3378 1019.1922
-3.1127 75.4317 -261.3378 1020.1934
-3.1057 74.4305 -261.3378 1021.1945
-3.0972 73.4294 -261.3378 1022.1957
-3.0876 72.4282 -261.3378 1023.1969
-3.0768 71.4271 -261.3378 1024.1980
-3.0651 70.4261 -261.3377 1025.1992
-3.0525 69.4249 -261.3377 1026.2004
-3.0391 68.4239 -261.3377 1027.2015
-3.0250 67.4227 -261.3377 1028.2028
-3.0103 66.4217 -261.3377 1029.2039
-2.9950 65.4206 -261.3377 1030.2051
-2.9794 64.4196 -261.3377 1031.2063
-2.9634 63.4186 -261.3377 1032.2074
-2.9471 62.4175 -261.3377 1033.2086
-2.9306 61.4165 -261.3376 1034.2097
-2.9139 60.4154 -261.3376 1035.2109
-2.8972 59.4143 -261.3376 1036.2122
-2.8804 58.4135 -261.3376 1037.2133
-2.8637 57.4124 -261.3376 1038.2145
-2.8471 56.4114 -261.3376 1039.2156
-2.8307 55.4103 -261.3376 1040.2168
-2.8145 54.4092 -261.3376 1041.2180
-2.7985 53.4082 -261.3376 1042.2191
-2.7829 52.4072 -261.3376 1043.2203
-2.7676 51.4062 -261.3376 1044.2214
-2.7527 50.4050 -261.3375 1045.2227
-2.7382 49.4039 -261.3376 1046.2239
-2.7242 48.4029 -261.3376 1047.2250
-2.7106 47.4017 -261.3375 1048.2262
-2.6975 46.4008 -261.3375 1049.2273
-2.6849 45.3997 -261.3375 1050.2285
-2.6729 44.3986 -261.3375 1051.2296
-2.6613 43.3975 -261.3375 1052.2308
-2.6502 42.3963 -261.3375 1053.2321
-2.6396 41.3952 -261.3375 1054.2332
-2.6294 40.3941 -261.3375 1055.2344
-2.6197 39.3931 -261.3375 1056.2355
-2.6103 38.3919 -261.3375 1057.2367
-2.6013 37.3907 -261.3375 1058.2379
-2.5925 36.3896 -261.3375 1059.2390
-2.5840 35.3884 -261.3375 1060.2402
-2.5757 34.3874 -261.3375 1061.2413
-2.5674 33.3862 -261.3375 1062.2426
