VERSION 0.7
FIELDS x y z lapdistance
SIZE 4 4 4 4
TYPE F F F F
COUNT 1 1 1 1
WIDTH 1064
HEIGHT 1
VIEWPOINT 0.000 0.000 0.000 1.000 0.000 0.000 0.000
POINTS 1064
DATA ascii
4.7652 33.4463 -261.3375 0.0000
4.7789 32.4470 -261.3374 0.9991
4.7926 31.4483 -261.3374 1.9991
4.8060 30.4500 -261.3374 2.9973
4.8191 29.4521 -261.3374 3.9969
4.8317 28.4547 -261.3374 4.9967
4.8439 27.4577 -261.3374 5.9959
4.8556 26.4611 -261.3374 6.9951
4.8667 25.4649 -261.3374 7.9945
4.8774 24.4690 -261.3374 8.9932
4.8874 23.4734 -261.3374 9.9924
4.8970 22.4781 -261.3374 10.9924
4.9059 21.4831 -261.3374 11.9917
4.9144 20.4885 -261.3374 12.9908
4.9222 19.4941 -261.3374 13.9899
4.9296 18.5000 -261.3374 14.9890
4.9364 17.5063 -261.3374 15.9888
4.9426 16.5128 -261.3374 16.9882
4.9483 15.5196 -261.3374 17.9868
4.9536 14.5267 -261.3374 18.9864
4.9583 13.5341 -261.3374 19.9859
4.9626 12.5417 -261.3374 20.9850
4.9664 11.5496 -261.3374 21.9842
4.9698 10.5576 -261.3374 22.9840
4.9727 9.5656 -261.3374 23.9827
4.9753 8.5738 -261.3374 24.9820
4.9775 7.5818 -261.3374 25.9813
4.9793 6.5897 -261.3374 26.9807
4.9809 5.5972 -261.3374 27.9801
4.9823 4.6044 -261.3374 28.9793
4.9835 3.6109 -261.3374 29.9787
4.9848 2.6168 -261.3374 30.9775
4.9862 1.6218 -261.3374 31.9775
4.9880 0.6258 -261.3374 32.9766
4.9906 -0.3714 -261.3374 33.9756
4.9945 -1.3699 -261.3374 34.9747
5.0003 -2.3698 -261.3374 35.9747
5.0092 -3.3712 -261.3374 36.9739
5.0226 -4.3740 -261.3374 37.9729
5.0424 -5.3783 -261.3374 38.9721
5.0713 -6.3841 -261.3374 39.9714
5.1133 -7.3910 -261.3374 40.9709
5.1693 -8.3992 -261.3374 41.9698
5.2331 -9.4084 -261.3374 42.9697
5.2991 -10.4186 -261.3374 43.9685
5.3628 -11.4295 -261.3374 44.9682
5.4210 -12.4408 -261.3374 45.9671
5.4715 -13.4520 -261.3374 46.9663
5.5137 -14.4628 -261.3374 47.9656
5.5486 -15.4728 -261.3374 48.9655
5.5781 -16.4817 -261.3374 49.9642
5.6037 -17.4893 -261.3374 50.9636
5.6264 -18.4954 -261.3374 51.9631
5.6471 -19.5000 -261.3374 52.9621
5.6663 -20.5031 -261.3374 53.9614
5.6845 -21.5048 -261.3374 54.9607
5.7019 -22.5051 -261.3374 55.9604
5.7189 -23.5043 -261.3374 56.9589
5.7356 -24.5023 -261.3374 57.9589
5.7522 -25.4993 -261.3375 58.9578
5.7687 -26.4955 -261.3375 59.9576
5.7852 -27.4911 -261.3375 60.9565
5.8017 -28.4861 -261.3375 61.9551
5.8181 -29.4807 -261.3375 62.9555
5.8345 -30.4752 -261.3375 63.9548
5.8509 -31.4696 -261.3375 64.9536
5.8674 -32.4641 -261.3375 65.9526
5.8839 -33.4588 -261.3375 66.9521
5.9004 -34.4537 -261.3375 67.9519
5.9170 -35.4489 -261.3375 68.9506
5.9337 -36.4445 -261.3375 69.9502
5.9503 -37.4405 -261.3375 70.9495
5.9670 -38.4369 -261.3375 71.9482
5.9837 -39.4337 -261.3375 72.9481
6.0004 -40.4309 -261.3376 73.9473
6.0171 -41.4284 -261.3376 74.9463
6.0339 -42.4264 -261.3376 75.9460
6.0506 -43.4246 -261.3376 76.9454
6.0673 -44.4231 -261.3376 77.9439
6.0840 -45.4218 -261.3376 78.9438
6.1006 -46.4208 -261.3376 79.9434
6.1172 -47.4200 -261.3376 80.9424
6.1336 -48.4193 -261.3376 81.9413
6.1499 -49.4188 -261.3376 82.9408
6.1660 -50.4185 -261.3376 83.9400
6.1822 -51.4183 -261.3376 84.9396
6.1983 -52.4182 -261.3376 85.9384
6.2144 -53.4181 -261.3376 86.9383
6.2305 -54.4180 -261.3376 87.9370
6.2466 -55.4179 -261.3376 88.9369
6.2628 -56.4178 -261.3376 89.9355
6.2791 -57.4175 -261.3377 90.9354
6.2954 -58.4170 -261.3377 91.9344
6.3117 -59.4164 -261.3377 92.9338
6.3281 -60.4156 -261.3377 93.9326
6.3445 -61.4145 -261.3377 94.9325
6.3609 -62.4132 -261.3377 95.9313
6.3773 -63.4118 -261.3377 96.9309
6.3937 -64.4101 -261.3377 97.9300
6.4101 -65.4083 -261.3377 98.9293
6.4266 -66.4064 -261.3378 99.9289
6.4433 -67.4044 -261.3378 100.9278
6.4600 -68.4023 -261.3378 101.9275
6.4770 -69.4001 -261.3378 102.9269
6.4941 -70.3978 -261.3378 103.9260
6.5114 -71.3955 -261.3378 104.9248
6.5289 -72.3931 -261.3378 105.9249
6.5466 -73.3906 -261.3378 106.9238
6.5645 -74.3880 -261.3378 107.9229
6.5826 -75.3853 -261.3378 108.9219
6.6010 -76.3825 -261.3379 109.9216
6.6197 -77.3794 -261.3379 110.9208
6.6387 -78.3762 -261.3379 111.9201
6.6578 -79.3727 -261.3379 112.9199
6.6774 -80.3689 -261.3379 113.9189
6.6973 -81.3647 -261.3379 114.9174
6.7174 -82.3600 -261.3379 115.9176
6.7379 -83.3549 -261.3380 116.9163
6.7588 -84.3491 -261.3380 117.9162
6.7803 -85.3426 -261.3380 118.9151
6.8024 -86.3354 -261.3380 119.9144
6.8251 -87.3274 -261.3380 120.9142
6.8486 -88.3185 -261.3380 121.9129
6.8729 -89.3087 -261.3380 122.9118
6.8981 -90.2978 -261.3380 123.9120
6.9242 -91.2858 -261.3380 124.9113
6.9512 -92.2727 -261.3380 125.9098
6.9795 -93.2583 -261.3381 126.9096
7.0093 -94.2426 -261.3381 127.9090
7.0404 -95.2255 -261.3381 128.9075
7.0729 -96.2069 -261.3381 129.9082
7.1072 -97.1869 -261.3381 130.9061
7.1435 -98.1652 -261.3381 131.9057
7.1818 -99.1419 -261.3381 132.9058
7.2222 -100.1169 -261.3382 133.9036
7.2654 -101.0901 -261.3382 134.9042
7.3112 -102.0615 -261.3382 135.9035
7.3598 -103.0312 -261.3382 136.9016
7.4119 -103.9989 -261.3382 137.9025
7.4674 -104.9647 -261.3382 138.9003
7.5265 -105.9286 -261.3383 139.9008
7.5898 -106.8906 -261.3383 140.8994
7.6575 -107.8505 -261.3383 141.8982
7.7297 -108.8084 -261.3383 142.8983
7.8070 -109.7643 -261.3383 143.8976
7.8894 -110.7181 -261.3383 144.8963
7.9774 -111.6698 -261.3383 145.8961
8.0715 -112.6193 -261.3383 146.8950
8.1715 -113.5667 -261.3384 147.8952
8.2780 -114.5118 -261.3384 148.8936
8.3913 -115.4547 -261.3384 149.8930
8.5115 -116.3953 -261.3384 150.8922
8.6388 -117.3335 -261.3384 151.8921
8.7735 -118.2693 -261.3384 152.8904
8.9158 -119.2027 -261.3385 153.8908
9.0657 -120.1336 -261.3385 154.8894
9.2234 -121.0619 -261.3385 155.8890
9.3892 -121.9876 -261.3385 156.8875
9.5630 -122.9106 -261.3386 157.8881
9.7452 -123.8309 -261.3386 158.8866
9.9358 -124.7484 -261.3386 159.8856
10.1348 -125.6630 -261.3386 160.8856
10.3423 -126.5747 -261.3386 161.8847
10.5585 -127.4835 -261.3386 162.8835
10.7834 -128.3892 -261.3387 163.8832
11.0171 -129.2920 -261.3387 164.8821
11.2597 -130.1916 -261.3387 165.8818
11.5112 -131.0881 -261.3387 166.8813
11.7717 -131.9814 -261.3387 167.8804
12.0412 -132.8716 -261.3387 168.8792
12.3197 -133.7587 -261.3388 169.8792
12.6072 -134.6425 -261.3388 170.8779
12.9037 -135.5233 -261.3388 171.8771
13.2093 -136.4009 -261.3388 172.8770
13.5237 -137.2753 -261.3388 173.8763
13.8471 -138.1467 -261.3389 174.8746
14.1795 -139.0149 -261.3389 175.8751
14.5206 -139.8801 -261.3389 176.8733
14.8705 -140.7422 -261.3389 177.8738
15.2290 -141.6013 -261.3390 178.8721
15.5961 -142.4574 -261.3390 179.8715
15.9716 -143.3105 -261.3390 180.8709
16.3555 -144.1605 -261.3390 181.8707
16.7477 -145.0075 -261.3390 182.8693
17.1479 -145.8514 -261.3391 183.8689
17.5563 -146.6922 -261.3391 184.8683
17.9724 -147.5299 -261.3391 185.8678
18.3964 -148.3644 -261.3391 186.8669
18.8280 -149.1956 -261.3391 187.8656
19.2672 -150.0235 -261.3391 188.8655
19.7138 -150.8480 -261.3392 189.8640
20.1677 -151.6690 -261.3392 190.8647
20.6288 -152.4864 -261.3392 191.8625
21.0970 -153.3001 -261.3392 192.8630
21.5723 -154.1100 -261.3393 193.8611
22.0545 -154.9160 -261.3393 194.8612
22.5435 -155.7179 -261.3393 195.8605
23.0394 -156.5157 -261.3393 196.8596
23.5419 -157.3092 -261.3394 197.8591
24.0510 -158.0983 -261.3394 198.8579
24.5666 -158.8828 -261.3394 199.8578
25.0888 -159.6628 -261.3394 200.8566
25.6176 -160.4377 -261.3394 201.8553
26.1528 -161.2078 -261.3394 202.8560
26.6947 -161.9726 -261.3395 203.8542
27.2430 -162.7321 -261.3395 204.8541
27.7980 -163.4862 -261.3395 205.8530
28.3595 -164.2346 -261.3395 206.8526
28.9278 -164.9772 -261.3396 207.8523
29.5029 -165.7137 -261.3396 208.8504
30.0847 -166.4442 -261.3396 209.8508
30.6735 -167.1683 -261.3396 210.8489
31.2693 -167.8859 -261.3396 211.8496
31.8721 -168.5970 -261.3397 212.8485
32.4820 -169.3013 -261.3397 213.8469
33.0991 -169.9988 -261.3397 214.8465
33.7234 -170.6893 -261.3397 215.8462
34.3547 -171.3728 -261.3398 216.8452
34.9934 -172.0493 -261.3398 217.8453
35.6391 -172.7187 -261.3398 218.8431
36.2921 -173.3809 -261.3398 219.8436
36.9521 -174.0361 -261.3398 220.8423
37.6191 -174.6842 -261.3399 221.8421
38.2931 -175.3252 -261.3399 222.8414
38.9739 -175.9593 -261.3399 223.8396
39.6615 -176.5863 -261.3399 224.8406
40.3557 -177.2066 -261.3399 225.8382
41.0565 -177.8200 -261.3400 226.8385
41.7637 -178.4268 -261.3400 227.8377
42.4771 -179.0270 -261.3400 228.8367
43.1967 -179.6206 -261.3400 229.8357
43.9223 -180.2077 -261.3401 230.8356
44.6538 -180.7884 -261.3401 231.8346
45.3909 -181.3628 -261.3401 232.8337
46.1338 -181.9308 -261.3401 233.8338
46.8820 -182.4925 -261.3401 234.8319
47.6355 -183.0479 -261.3402 235.8320
48.3943 -183.5970 -261.3402 236.8318
49.1580 -184.1399 -261.3402 237.8297
49.9267 -184.6763 -261.3402 238.8297
50.7002 -185.2063 -261.3402 239.8289
51.4784 -185.7298 -261.3403 240.8287
52.2611 -186.2468 -261.3403 241.8271
53.0483 -186.7572 -261.3403 242.8269
53.8399 -187.2608 -261.3403 243.8258
54.6357 -187.7576 -261.3404 244.8256
55.4357 -188.2477 -261.3404 245.8252
56.2398 -188.7308 -261.3404 246.8238
57.0478 -189.2069 -261.3404 247.8233
57.8599 -189.6759 -261.3405 248.8221
58.6757 -190.1378 -261.3405 249.8220
59.4954 -190.5923 -261.3405 250.8210
60.3189 -191.0396 -261.3405 251.8207
61.1460 -191.4795 -261.3405 252.8195
61.9769 -191.9119 -261.3405 253.8190
62.8114 -192.3369 -261.3406 254.8185
63.6495 -192.7542 -261.3406 255.8173
64.4912 -193.1640 -261.3406 256.8169
65.3364 -193.5661 -261.3406 257.8161
66.1851 -193.9605 -261.3407 258.8154
67.0373 -194.3472 -261.3407 259.8154
67.8928 -194.7262 -261.3407 260.8134
68.7517 -195.0974 -261.3407 261.8137
69.6139 -195.4609 -261.3407 262.8118
70.4793 -195.8166 -261.3408 263.8125
71.3478 -196.1644 -261.3408 264.8107
72.2195 -196.5045 -261.3408 265.8110
73.0942 -196.8366 -261.3408 266.8095
73.9718 -197.1610 -261.3409 267.8086
74.8523 -197.4774 -261.3409 268.8085
75.7355 -197.7859 -261.3409 269.8081
76.6215 -198.0866 -261.3409 270.8064
77.5100 -198.3793 -261.3409 271.8062
78.4011 -198.6640 -261.3409 272.8051
79.2945 -198.9408 -261.3410 273.8051
80.1904 -199.2094 -261.3410 274.8045
81.0885 -199.4702 -261.3410 275.8036
81.9888 -199.7228 -261.3410 276.8019
82.8912 -199.9673 -261.3410 277.8020
83.7957 -200.2037 -261.3411 278.8008
84.7023 -200.4317 -261.3411 279.8006
85.6108 -200.6516 -261.3411 280.8003
86.5213 -200.8630 -261.3411 281.7987
87.4336 -201.0661 -261.3411 282.7986
88.3477 -201.2608 -261.3412 283.7973
89.2637 -201.4468 -261.3412 284.7969
90.1814 -201.6243 -261.3412 285.7958
91.1009 -201.7930 -261.3412 286.7957
92.0220 -201.9528 -261.3412 287.7947
92.9448 -202.1038 -261.3412 288.7943
93.8693 -202.2458 -261.3412 289.7935
94.7952 -202.3788 -261.3413 290.7921
95.7227 -202.5028 -261.3413 291.7922
96.6516 -202.6177 -261.3413 292.7914
97.5819 -202.7234 -261.3413 293.7901
98.5135 -202.8199 -261.3413 294.7897
99.4464 -202.9070 -261.3414 295.7887
100.3804 -202.9848 -261.3414 296.7892
101.3156 -203.0535 -261.3414 297.7873
102.2517 -203.1129 -261.3414 298.7866
103.1887 -203.1633 -261.3414 299.7862
104.1266 -203.2044 -261.3415 300.7856
105.0652 -203.2365 -261.3415 301.7851
106.0043 -203.2597 -261.3415 302.7845
106.9439 -203.2739 -261.3415 303.7830
107.8839 -203.2794 -261.3415 304.7830
108.8242 -203.2761 -261.3415 305.7813
109.7645 -203.2642 -261.3416 306.7816
110.7049 -203.2437 -261.3416 307.7806
111.6451 -203.2148 -261.3416 308.7794
112.5850 -203.1774 -261.3416 309.7795
113.5246 -203.1318 -261.3416 310.7773
114.4636 -203.0779 -261.3416 311.7781
115.4020 -203.0156 -261.3416 312.7769
116.3395 -202.9452 -261.3416 313.7761
117.2761 -202.8664 -261.3416 314.7761
118.2115 -202.7794 -261.3417 315.7743
119.1457 -202.6839 -261.3417 316.7751
120.0785 -202.5802 -261.3417 317.7727
121.0098 -202.4680 -261.3417 318.7726
121.9395 -202.3472 -261.3417 319.7726
122.8674 -202.2178 -261.3417 320.7705
123.7934 -202.0796 -261.3418 321.7705
124.7174 -201.9325 -261.3418 322.7700
125.6393 -201.7765 -261.3418 323.7693
126.5590 -201.6114 -261.3418 324.7684
127.4765 -201.4370 -261.3418 325.7675
128.3915 -201.2532 -261.3418 326.7668
129.3042 -201.0598 -261.3418 327.7663
130.2143 -200.8569 -261.3419 328.7660
131.1219 -200.6443 -261.3419 329.7649
132.0269 -200.4219 -261.3419 330.7635
132.9294 -200.1897 -261.3419 331.7640
133.8292 -199.9478 -261.3419 332.7620
134.7263 -199.6959 -261.3419 333.7628
135.6208 -199.4343 -261.3419 334.7608
136.5126 -199.1630 -261.3419 335.7603
137.4018 -198.8820 -261.3419 336.7599
138.2883 -198.5916 -261.3419 337.7595
139.1721 -198.2917 -261.3419 338.7581
140.0533 -197.9826 -261.3420 339.7580
140.9319 -197.6644 -261.3420 340.7569
141.8078 -197.3374 -261.3420 341.7563
142.6810 -197.0016 -261.3420 342.7554
143.5515 -196.6575 -261.3420 343.7546
144.4193 -196.3049 -261.3420 344.7544
145.2845 -195.9444 -261.3420 345.7537
146.1469 -195.5758 -261.3420 346.7521
147.0064 -195.1996 -261.3420 347.7523
147.8632 -194.8157 -261.3420 348.7515
148.7170 -194.4245 -261.3420 349.7504
149.5678 -194.0260 -261.3421 350.7499
150.4155 -193.6204 -261.3421 351.7492
151.2601 -193.2078 -261.3421 352.7482
152.1014 -192.7881 -261.3421 353.7479
152.9393 -192.3617 -261.3421 354.7469
153.7737 -191.9284 -261.3421 355.7468
154.6045 -191.4885 -261.3421 356.7456
155.4315 -191.0418 -261.3421 357.7440
156.2548 -190.5886 -261.3421 358.7442
157.0740 -190.1288 -261.3421 359.7438
157.8890 -189.6624 -261.3421 360.7427
158.6999 -189.1895 -261.3421 361.7417
159.5063 -188.7101 -261.3421 362.7410
160.3083 -188.2241 -261.3422 363.7412
161.1056 -187.7316 -261.3422 364.7397
161.8981 -187.2326 -261.3422 365.7395
162.6858 -186.7269 -261.3422 366.7383
163.4684 -186.2146 -261.3422 367.7381
164.2460 -185.6956 -261.3422 368.7361
165.0182 -185.1698 -261.3422 369.7369
165.7852 -184.6373 -261.3422 370.7357
166.5468 -184.0979 -261.3422 371.7347
167.3028 -183.5516 -261.3422 372.7346
168.0532 -182.9983 -261.3422 373.7328
168.7979 -182.4381 -261.3422 374.7330
169.5369 -181.8708 -261.3422 375.7317
170.2701 -181.2964 -261.3422 376.7315
170.9973 -180.7150 -261.3422 377.7306
171.7184 -180.1263 -261.3422 378.7296
172.4336 -179.5304 -261.3422 379.7301
173.1426 -178.9273 -261.3422 380.7280
173.8454 -178.3170 -261.3422 381.7278
174.5420 -177.6995 -261.3422 382.7271
175.2323 -177.0746 -261.3422 383.7260
175.9162 -176.4427 -261.3422 384.7261
176.5938 -175.8036 -261.3422 385.7253
177.2650 -175.1574 -261.3422 386.7242
177.9296 -174.5040 -261.3422 387.7232
178.5878 -173.8436 -261.3422 388.7230
179.2395 -173.1762 -261.3422 389.7221
179.8846 -172.5019 -261.3422 390.7211
180.5232 -171.8208 -261.3422 391.7206
181.1551 -171.1329 -261.3422 392.7202
181.7805 -170.4386 -261.3422 393.7196
182.3991 -169.7377 -261.3422 394.7179
183.0112 -169.0305 -261.3422 395.7181
183.6167 -168.3171 -261.3422 396.7166
184.2154 -167.5976 -261.3422 397.7168
184.8076 -166.8724 -261.3422 398.7157
185.3930 -166.1413 -261.3422 399.7150
185.9718 -165.4048 -261.3422 400.7141
186.5438 -164.6629 -261.3422 401.7136
187.1091 -163.9157 -261.3422 402.7125
187.6676 -163.1636 -261.3422 403.7122
188.2193 -162.4065 -261.3422 404.7114
188.7643 -161.6448 -261.3422 405.7108
189.3023 -160.8783 -261.3422 406.7097
189.8334 -160.1075 -261.3422 407.7095
190.3576 -159.3323 -261.3422 408.7084
190.8748 -158.5528 -261.3422 409.7079
191.3851 -157.7693 -261.3422 410.7072
191.8881 -156.9816 -261.3422 411.7067
192.3842 -156.1900 -261.3422 412.7052
192.8732 -155.3945 -261.3422 413.7057
193.3551 -154.5951 -261.3422 414.7035
193.8299 -153.7919 -261.3422 415.7036
194.2974 -152.9848 -261.3421 416.7029
194.7576 -152.1740 -261.3421 417.7021
195.2106 -151.3593 -261.3421 418.7014
195.6561 -150.5408 -261.3421 419.7008
196.0943 -149.7185 -261.3421 420.7001
196.5250 -148.8923 -261.3421 421.6996
196.9484 -148.0624 -261.3421 422.6978
197.3641 -147.2287 -261.3421 423.6980
197.7721 -146.3911 -261.3421 424.6975
198.1725 -145.5497 -261.3421 425.6966
198.5650 -144.7045 -261.3421 426.6951
198.9498 -143.8556 -261.3421 427.6950
199.3268 -143.0030 -261.3421 428.6944
199.6958 -142.1467 -261.3421 429.6941
200.0570 -141.2868 -261.3420 430.6924
200.4100 -140.4233 -261.3420 431.6922
200.7550 -139.5563 -261.3420 432.6917
201.0918 -138.6858 -261.3420 433.6904
201.4204 -137.8120 -261.3420 434.6903
201.7410 -136.9349 -261.3420 435.6891
202.0531 -136.0545 -261.3420 436.6884
202.3572 -135.1711 -261.3420 437.6880
202.6529 -134.2847 -261.3420 438.6870
202.9404 -133.3954 -261.3420 439.6862
203.2197 -132.5033 -261.3420 440.6862
203.4905 -131.6084 -261.3419 441.6849
203.7532 -130.7111 -261.3419 442.6841
204.0076 -129.8112 -261.3419 443.6839
204.2536 -128.9089 -261.3419 444.6826
204.4915 -128.0044 -261.3419 445.6823
204.7209 -127.0977 -261.3419 446.6814
204.9422 -126.1889 -261.3419 447.6806
205.1551 -125.2781 -261.3419 448.6806
205.3596 -124.3653 -261.3419 449.6792
205.5559 -123.4507 -261.3419 450.6787
205.7437 -122.5342 -261.3419 451.6773
205.9233 -121.6160 -261.3418 452.6774
206.0945 -120.6960 -261.3418 453.6767
206.2575 -119.7744 -261.3418 454.6754
206.4124 -118.8511 -261.3418 455.6754
206.5588 -117.9262 -261.3418 456.6745
206.6971 -116.9996 -261.3418 457.6736
206.8271 -116.0713 -261.3418 458.6725
206.9490 -115.1413 -261.3418 459.6720
207.0633 -114.2097 -261.3417 460.6717
207.1699 -113.2763 -261.3417 461.6712
207.2689 -112.3411 -261.3417 462.6693
207.3608 -111.4041 -261.3417 463.6698
207.4455 -110.4651 -261.3417 464.6686
207.5232 -109.5241 -261.3417 465.6678
207.5944 -108.5811 -261.3417 466.6670
207.6593 -107.6359 -261.3417 467.6670
207.7182 -106.6886 -261.3416 468.6658
207.7717 -105.7389 -261.3416 469.6650
207.8200 -104.7869 -261.3416 470.6640
207.8631 -103.8325 -261.3416 471.6642
207.9015 -102.8757 -261.3416 472.6628
207.9359 -101.9163 -261.3416 473.6620
207.9663 -100.9545 -261.3416 474.6619
207.9929 -99.9901 -261.3416 475.6605
208.0160 -99.0233 -261.3416 476.6599
208.0363 -98.0540 -261.3416 477.6591
208.0539 -97.0823 -261.3416 478.6591
208.0687 -96.1082 -261.3415 479.6581
208.0810 -95.1318 -261.3415 480.6570
208.0913 -94.1532 -261.3415 481.6566
208.0998 -93.1725 -261.3415 482.6556
208.1067 -92.1898 -261.3415 483.6551
208.1117 -91.2052 -261.3415 484.6547
208.1152 -90.2188 -261.3415 485.6535
208.1172 -89.2307 -261.3415 486.6527
208.1183 -88.2412 -261.3415 487.6526
208.1183 -87.2502 -261.3415 488.6516
208.1174 -86.2579 -261.3415 489.6505
208.1156 -85.2645 -261.3415 490.6502
208.1127 -84.2701 -261.3414 491.6496
208.1092 -83.2748 -261.3414 492.6486
208.1050 -82.2787 -261.3414 493.6480
208.1002 -81.2820 -261.3414 494.6473
208.0948 -80.2847 -261.3414 495.6460
208.0889 -79.2869 -261.3414 496.6461
208.0825 -78.2887 -261.3414 497.6450
208.0756 -77.2902 -261.3414 498.6443
208.0681 -76.2915 -261.3414 499.6437
208.0603 -75.2926 -261.3414 500.6429
208.0522 -74.2935 -261.3414 501.6425
208.0437 -73.2944 -261.3414 502.6415
208.0350 -72.2952 -261.3414 503.6408
208.0260 -71.2960 -261.3414 504.6401
208.0165 -70.2967 -261.3413 505.6393
208.0067 -69.2975 -261.3413 506.6387
207.9966 -68.2983 -261.3413 507.6377
207.9863 -67.2992 -261.3413 508.6374
207.9757 -66.3001 -261.3413 509.6369
207.9648 -65.3011 -261.3413 510.6359
207.9538 -64.3021 -261.3413 511.6351
207.9426 -63.3031 -261.3413 512.6339
207.9311 -62.3041 -261.3413 513.6343
207.9193 -61.3050 -261.3413 514.6328
207.9073 -60.3060 -261.3413 515.6321
207.8951 -59.3069 -261.3413 516.6317
207.8826 -58.3078 -261.3413 517.6309
207.8701 -57.3086 -261.3413 518.6301
207.8574 -56.3095 -261.3413 519.6292
207.8446 -55.3103 -261.3413 520.6292
207.8318 -54.3110 -261.3413 521.6277
207.8189 -53.3118 -261.3413 522.6273
207.8058 -52.3125 -261.3412 523.6265
207.7925 -51.3133 -261.3412 524.6257
207.7791 -50.3142 -261.3412 525.6259
207.7655 -49.3151 -261.3412 526.6240
207.7519 -48.3161 -261.3412 527.6238
207.7383 -47.3172 -261.3412 528.6231
207.7246 -46.3184 -261.3412 529.6222
207.7108 -45.3198 -261.3412 530.6219
207.6970 -44.3214 -261.3412 531.6204
207.6831 -43.3232 -261.3412 532.6200
207.6691 -42.3251 -261.3412 533.6196
207.6551 -41.3273 -261.3412 534.6190
207.6409 -40.3297 -261.3412 535.6180
207.6266 -39.3323 -261.3412 536.6172
207.6123 -38.3352 -261.3412 537.6169
207.5978 -37.3382 -261.3412 538.6160
207.5833 -36.3415 -261.3412 539.6149
207.5687 -35.3449 -261.3412 540.6141
207.5541 -34.3484 -261.3412 541.6138
207.5393 -33.3520 -261.3412 542.6131
207.5245 -32.3556 -261.3412 543.6126
207.5095 -31.3592 -261.3412 544.6115
207.4944 -30.3627 -261.3412 545.6111
207.4791 -29.3661 -261.3412 546.6104
207.4638 -28.3694 -261.3412 547.6090
207.4483 -27.3725 -261.3412 548.6091
207.4327 -26.3753 -261.3412 549.6078
207.4169 -25.3779 -261.3412 550.6073
207.4012 -24.3801 -261.3412 551.6068
207.3853 -23.3821 -261.3411 552.6058
207.3694 -22.3837 -261.3411 553.6053
207.3534 -21.3849 -261.3411 554.6043
207.3374 -20.3858 -261.3411 555.6043
207.3213 -19.3862 -261.3411 556.6031
207.3052 -18.3863 -261.3411 557.6020
207.2891 -17.3860 -261.3411 558.6014
207.2729 -16.3854 -261.3411 559.6011
207.2567 -15.3844 -261.3411 560.6007
207.2405 -14.3831 -261.3411 561.5992
207.2243 -13.3816 -261.3411 562.5989
207.2081 -12.3798 -261.3411 563.5984
207.1919 -11.3779 -261.3411 564.5971
207.1757 -10.3758 -261.3411 565.5964
207.1596 -9.3736 -261.3411 566.5960
207.1436 -8.3715 -261.3411 567.5947
207.1275 -7.3693 -261.3411 568.5948
207.1115 -6.3672 -261.3411 569.5943
207.0954 -5.3652 -261.3411 570.5927
207.0793 -4.3634 -261.3411 571.5925
207.0632 -3.3617 -261.3411 572.5917
207.0471 -2.3603 -261.3411 573.5908
207.0311 -1.3592 -261.3411 574.5906
207.0149 -0.3584 -261.3411 575.5894
206.9989 0.6420 -261.3411 576.5891
206.9828 1.6421 -261.3411 577.5880
206.9668 2.6417 -261.3411 578.5872
206.9507 3.6410 -261.3411 579.5869
206.9347 4.6397 -261.3411 580.5857
206.9187 5.6381 -261.3411 581.5856
206.9026 6.6360 -261.3410 582.5844
206.8865 7.6336 -261.3410 583.5836
206.8702 8.6307 -261.3410 584.5828
206.8539 9.6275 -261.3410 585.5829
206.8375 10.6239 -261.3410 586.5820
206.8211 11.6201 -261.3410 587.5804
206.8046 12.6160 -261.3410 588.5801
206.7880 13.6117 -261.3410 589.5798
206.7713 14.6072 -261.3410 590.5788
206.7545 15.6027 -261.3410 591.5785
206.7375 16.5981 -261.3410 592.5770
206.7204 17.5934 -261.3410 593.5770
206.7032 18.5888 -261.3410 594.5759
206.6860 19.5843 -261.3410 595.5754
206.6686 20.5800 -261.3410 596.5745
206.6512 21.5759 -261.3410 597.5734
206.6335 22.5720 -261.3410 598.5734
206.6158 23.5684 -261.3410 599.5724
206.5979 24.5652 -261.3410 600.5715
206.5799 25.5623 -261.3410 601.5710
206.5619 26.5598 -261.3410 602.5707
206.5437 27.5578 -261.3410 603.5695
206.5255 28.5562 -261.3410 604.5685
206.5072 29.5550 -261.3410 605.5686
206.4889 30.5542 -261.3410 606.5671
206.4705 31.5539 -261.3410 607.5670
206.4522 32.5539 -261.3410 608.5660
206.4339 33.5543 -261.3410 609.5650
206.4156 34.5550 -261.3410 610.5646
206.3972 35.5558 -261.3410 611.5638
206.3787 36.5569 -261.3410 612.5632
206.3601 37.5581 -261.3410 613.5628
206.3414 38.5594 -261.3410 614.5615
206.3227 39.5607 -261.3410 615.5614
206.3039 40.5619 -261.3410 616.5598
206.2850 41.5631 -261.3410 617.5595
206.2661 42.5642 -261.3410 618.5591
206.2470 43.5652 -261.3410 619.5583
206.2278 44.5660 -261.3410 620.5576
206.2084 45.5665 -261.3410 621.5565
206.1888 46.5668 -261.3410 622.5564
206.1691 47.5668 -261.3410 623.5550
206.1493 48.5666 -261.3410 624.5547
206.1294 49.5661 -261.3410 625.5543
206.1092 50.5653 -261.3410 626.5529
206.0887 51.5642 -261.3410 627.5524
206.0678 52.5629 -261.3410 628.5519
206.0466 53.5614 -261.3410 629.5508
206.0250 54.5596 -261.3410 630.5508
206.0031 55.5576 -261.3410 631.5494
205.9807 56.5554 -261.3410 632.5486
205.9579 57.5530 -261.3410 633.5488
205.9345 58.5505 -261.3410 634.5474
205.9106 59.5477 -261.3410 635.5462
205.8861 60.5447 -261.3410 636.5463
205.8611 61.5415 -261.3411 637.5449
205.8354 62.5381 -261.3411 638.5450
205.8091 63.5344 -261.3411 639.5443
205.7818 64.5304 -261.3411 640.5428
205.7539 65.5260 -261.3411 641.5421
205.7251 66.5213 -261.3411 642.5424
205.6955 67.5161 -261.3411 643.5410
205.6648 68.5104 -261.3411 644.5403
205.6328 69.5041 -261.3411 645.5392
205.5996 70.4972 -261.3411 646.5396
205.5653 71.4896 -261.3411 647.5383
205.5296 72.4811 -261.3411 648.5375
205.4923 73.4718 -261.3411 649.5369
205.4532 74.4614 -261.3411 650.5356
205.4125 75.4499 -261.3411 651.5356
205.3702 76.4372 -261.3412 652.5343
205.3258 77.4232 -261.3412 653.5343
205.2793 78.4078 -261.3412 654.5333
205.2308 79.3908 -261.3412 655.5321
205.1799 80.3722 -261.3412 656.5322
205.1268 81.3519 -261.3412 657.5307
205.0712 82.3298 -261.3412 658.5309
205.0128 83.3058 -261.3412 659.5297
204.9518 84.2799 -261.3412 660.5287
204.8879 85.2520 -261.3412 661.5288
204.8209 86.2221 -261.3412 662.5269
204.7501 87.1900 -261.3412 663.5267
204.6763 88.1559 -261.3413 664.5260
204.5991 89.1197 -261.3413 665.5259
204.5182 90.0814 -261.3413 666.5245
204.4332 91.0410 -261.3413 667.5242
204.3442 91.9985 -261.3413 668.5234
204.2512 92.9539 -261.3413 669.5218
204.1540 93.9074 -261.3413 670.5222
204.0522 94.8588 -261.3413 671.5220
203.9459 95.8083 -261.3413 672.5198
203.8351 96.7560 -261.3414 673.5190
203.7199 97.7018 -261.3414 674.5201
203.5994 98.6458 -261.3414 675.5176
203.4737 99.5879 -261.3414 676.5176
203.3431 100.5284 -261.3414 677.5175
203.2074 101.4672 -261.3414 678.5147
203.0660 102.4043 -261.3414 679.5163
202.9190 103.3397 -261.3414 680.5146
202.7665 104.2734 -261.3414 681.5136
202.6086 105.2056 -261.3415 682.5145
202.4447 106.1361 -261.3415 683.5114
202.2744 107.0649 -261.3415 684.5129
202.0981 107.9920 -261.3415 685.5106
201.9161 108.9175 -261.3415 686.5101
201.7279 109.8412 -261.3415 687.5096
201.5329 110.7631 -261.3415 688.5085
201.3315 111.6831 -261.3415 689.5089
201.1242 112.6014 -261.3416 690.5078
200.9105 113.5177 -261.3416 691.5071
200.6898 114.4318 -261.3416 692.5063
200.4623 115.3438 -261.3416 693.5051
200.2286 116.2536 -261.3416 694.5051
199.9883 117.1612 -261.3416 695.5030
199.7410 118.0664 -261.3416 696.5044
199.4865 118.9690 -261.3416 697.5014
199.2255 119.8692 -261.3416 698.5027
198.9579 120.7668 -261.3416 699.5016
198.6832 121.6617 -261.3416 700.5003
198.4011 122.5537 -261.3416 701.4996
198.1123 123.4430 -261.3416 702.4991
197.8170 124.3296 -261.3416 703.4985
197.5145 125.2132 -261.3417 704.4977
197.2045 126.0938 -261.3417 705.4966
196.8876 126.9714 -261.3417 706.4962
196.5639 127.8461 -261.3417 707.4950
196.2331 128.7178 -261.3417 708.4954
195.8948 129.5863 -261.3417 709.4933
195.5494 130.4518 -261.3417 710.4940
195.1971 131.3143 -261.3417 711.4927
194.8378 132.1737 -261.3417 712.4911
194.4709 133.0299 -261.3417 713.4915
194.0968 133.8828 -261.3417 714.4907
193.7155 134.7325 -261.3417 715.4896
193.3270 135.5790 -261.3417 716.4893
192.9308 136.4219 -261.3417 717.4882
192.5275 137.2614 -261.3418 718.4876
192.1172 138.0976 -261.3418 719.4864
191.7000 138.9303 -261.3418 720.4869
191.2753 139.7593 -261.3418 721.4845
190.8434 140.5845 -261.3418 722.4857
190.4048 141.4061 -261.3418 723.4835
189.9592 142.2238 -261.3418 724.4838
189.5060 143.0373 -261.3418 725.4823
189.0459 143.8467 -261.3418 726.4825
188.5792 144.6522 -261.3418 727.4808
188.1050 145.4530 -261.3418 728.4808
187.6234 146.2491 -261.3418 729.4799
187.1351 147.0408 -261.3418 730.4787
186.6398 147.8278 -261.3418 731.4781
186.1371 148.6097 -261.3418 732.4783
185.6272 149.3867 -261.3418 733.4767
185.1107 150.1589 -261.3418 734.4763
184.5870 150.9258 -261.3418 735.4757
184.0560 151.6874 -261.3418 736.4749
183.5180 152.4437 -261.3418 737.4738
182.9726 153.1943 -261.3418 738.4729
182.4198 153.9393 -261.3418 739.4733
181.8598 154.6786 -261.3418 740.4716
181.2923 155.4120 -261.3418 741.4709
180.7173 156.1393 -261.3418 742.4711
180.1348 156.8607 -261.3418 743.4693
179.5448 157.5759 -261.3418 744.4692
178.9471 158.2849 -261.3418 745.4683
178.3421 158.9877 -261.3418 746.4677
177.7296 159.6844 -261.3418 747.4664
177.1093 160.3746 -261.3418 748.4673
176.4815 161.0583 -261.3418 749.4648
175.8461 161.7356 -261.3418 750.4645
175.2029 162.4060 -261.3418 751.4648
174.5523 163.0700 -261.3418 752.4631
173.8942 163.7272 -261.3418 753.4629
173.2286 164.3776 -261.3418 754.4623
172.5558 165.0214 -261.3418 755.4606
171.8757 165.6582 -261.3418 756.4608
171.1885 166.2881 -261.3418 757.4603
170.4945 166.9114 -261.3418 758.4586
169.7935 167.5276 -261.3418 759.4589
169.0860 168.1370 -261.3418 760.4583
168.3720 168.7394 -261.3418 761.4561
167.6517 169.3348 -261.3418 762.4561
166.9252 169.9233 -261.3418 763.4560
166.1927 170.5046 -261.3418 764.4543
165.4544 171.0790 -261.3418 765.4545
164.7104 171.6463 -261.3418 766.4540
163.9610 172.2064 -261.3418 767.4517
163.2063 172.7596 -261.3418 768.4527
162.4462 173.3054 -261.3418 769.4513
161.6812 173.8442 -261.3418 770.4508
160.9113 174.3757 -261.3418 771.4492
160.1365 174.8998 -261.3418 772.4490
159.3570 175.4168 -261.3418 773.4495
158.5730 175.9263 -261.3417 774.4465
157.7845 176.4285 -261.3417 775.4476
156.9916 176.9232 -261.3417 776.4467
156.1944 177.4105 -261.3417 777.4450
155.3931 177.8904 -261.3417 778.4446
154.5876 178.3626 -261.3417 779.4443
153.7781 178.8274 -261.3417 780.4434
152.9646 179.2846 -261.3417 781.4430
152.1471 179.7340 -261.3417 782.4419
151.3258 180.1760 -261.3417 783.4412
150.5005 180.6102 -261.3417 784.4403
149.6714 181.0366 -261.3417 785.4405
148.8386 181.4554 -261.3417 786.4388
148.0019 181.8663 -261.3417 787.4387
147.1615 182.2694 -261.3416 788.4381
146.3173 182.6647 -261.3416 789.4364
145.4695 183.0522 -261.3416 790.4365
144.6181 183.4320 -261.3416 791.4359
143.7630 183.8037 -261.3416 792.4350
142.9044 184.1675 -261.3416 793.4340
142.0422 184.5233 -261.3416 794.4334
141.1766 184.8710 -261.3416 795.4321
140.3075 185.2108 -261.3416 796.4332
139.4351 185.5424 -261.3416 797.4308
138.5595 185.8660 -261.3416 798.4307
137.6807 186.1816 -261.3416 799.4298
136.7987 186.4888 -261.3416 800.4288
135.9137 186.7879 -261.3416 801.4288
135.0257 187.0786 -261.3415 802.4276
134.1349 187.3610 -261.3415 803.4275
133.2413 187.6351 -261.3415 804.4259
132.3450 187.9008 -261.3415 805.4255
131.4462 188.1581 -261.3415 806.4252
130.5448 188.4070 -261.3415 807.4243
129.6411 188.6471 -261.3415 808.4241
128.7352 188.8788 -261.3415 809.4220
127.8270 189.1019 -261.3415 810.4228
126.9168 189.3161 -261.3414 811.4206
126.0047 189.5219 -261.3414 812.4208
125.0907 189.7187 -261.3414 813.4202
124.1750 189.9069 -261.3414 814.4186
123.2577 190.0863 -261.3414 815.4193
122.3388 190.2566 -261.3414 816.4173
121.4184 190.4181 -261.3414 817.4171
120.4967 190.5706 -261.3413 818.4166
119.5737 190.7141 -261.3413 819.4158
118.6495 190.8488 -261.3413 820.4142
117.7243 190.9743 -261.3413 821.4149
116.7980 191.0908 -261.3413 822.4141
115.8708 191.1985 -261.3413 823.4118
114.9427 191.2969 -261.3413 824.4127
114.0139 191.3865 -261.3412 825.4109
113.0844 191.4671 -261.3412 826.4111
112.1543 191.5386 -261.3412 827.4101
111.2236 191.6011 -261.3412 828.4092
110.2925 191.6548 -261.3412 829.4080
109.3610 191.6996 -261.3412 830.4073
108.4292 191.7359 -261.3412 831.4082
107.4971 191.7634 -261.3412 832.4058
106.5648 191.7821 -261.3411 833.4056
105.6324 191.7924 -261.3411 834.4050
104.7000 191.7938 -261.3411 835.4047
103.7677 191.7868 -261.3411 836.4036
102.8354 191.7713 -261.3411 837.4023
101.9033 191.7473 -261.3411 838.4024
100.9715 191.7150 -261.3410 839.4011
100.0400 191.6743 -261.3410 840.4014
99.1089 191.6252 -261.3410 841.3993
98.1783 191.5679 -261.3410 842.3998
97.2482 191.5024 -261.3410 843.3978
96.3189 191.4286 -261.3410 844.3983
95.3902 191.3468 -261.3409 845.3972
94.4624 191.2567 -261.3409 846.3969
93.5355 191.1586 -261.3409 847.3953
92.6096 191.0523 -261.3409 848.3951
91.6847 190.9378 -261.3409 849.3945
90.7610 190.8154 -261.3409 850.3938
89.8385 190.6847 -261.3409 851.3918
88.9174 190.5458 -261.3408 852.3926
87.9976 190.3989 -261.3408 853.3917
87.0792 190.2437 -261.3408 854.3908
86.1623 190.0803 -261.3408 855.3897
85.2470 189.9087 -261.3408 856.3898
84.3333 189.7286 -261.3407 857.3879
83.4214 189.5404 -261.3407 858.3877
82.5111 189.3436 -261.3407 859.3875
81.6028 189.1384 -261.3407 860.3858
80.6963 188.9247 -261.3407 861.3862
79.7918 188.7023 -261.3407 862.3854
78.8893 188.4713 -261.3406 863.3838
77.9890 188.2316 -261.3406 864.3832
77.0909 187.9829 -261.3406 865.3835
76.1951 187.7255 -261.3406 866.3819
75.3017 187.4592 -261.3406 867.3815
74.4108 187.1839 -261.3405 868.3810
73.5224 186.8997 -261.3405 869.3796
72.6368 186.6065 -261.3405 870.3794
71.7539 186.3043 -261.3405 871.3787
70.8739 185.9932 -261.3405 872.3779
69.9970 185.6731 -261.3405 873.3770
69.1231 185.3441 -261.3404 874.3770
68.2524 185.0061 -261.3404 875.3752
67.3851 184.6592 -261.3404 876.3752
66.5211 184.3037 -261.3404 877.3749
65.6607 183.9394 -261.3404 878.3727
64.8037 183.5667 -261.3403 879.3726
63.9503 183.1855 -261.3403 880.3730
63.1006 182.7959 -261.3403 881.3710
62.2545 182.3983 -261.3403 882.3707
61.4122 181.9925 -261.3402 883.3710
60.5735 181.5789 -261.3402 884.3683
59.7387 181.1575 -261.3402 885.3693
58.9077 180.7284 -261.3402 886.3676
58.0804 180.2920 -261.3402 887.3674
57.2570 179.8481 -261.3401 888.3667
56.4374 179.3971 -261.3401 889.3652
55.6215 178.9391 -261.3401 890.3655
54.8095 178.4741 -261.3401 891.3643
54.0013 178.0024 -261.3401 892.3637
53.1970 177.5239 -261.3401 893.3631
52.3965 177.0388 -261.3400 894.3621
51.5999 176.5472 -261.3400 895.3616
50.8073 176.0490 -261.3400 896.3604
50.0187 175.5444 -261.3400 897.3602
49.2341 175.0334 -261.3400 898.3591
48.4536 174.5161 -261.3399 899.3584
47.6772 173.9925 -261.3399 900.3583
46.9053 173.4624 -261.3399 901.3569
46.1377 172.9259 -261.3399 902.3569
45.3746 172.3829 -261.3398 903.3558
44.6162 171.8335 -261.3398 904.3549
43.8625 171.2776 -261.3398 905.3546
43.1137 170.7151 -261.3398 906.3533
42.3699 170.1461 -261.3398 907.3530
41.6313 169.5705 -261.3398 908.3525
40.8981 168.9881 -261.3397 909.3513
40.1703 168.3991 -261.3397 910.3505
39.4482 167.8033 -261.3397 911.3509
38.7318 167.2006 -261.3397 912.3488
38.0213 166.5912 -261.3396 913.3486
37.3169 165.9748 -261.3396 914.3481
36.6187 165.3516 -261.3396 915.3470
35.9268 164.7216 -261.3396 916.3471
35.2412 164.0848 -261.3396 917.3456
34.5621 163.4413 -261.3395 918.3453
33.8896 162.7912 -261.3395 919.3441
33.2237 162.1344 -261.3395 920.3438
32.5645 161.4710 -261.3395 921.3427
31.9121 160.8012 -261.3394 922.3427
31.2666 160.1250 -261.3394 923.3413
30.6279 159.4426 -261.3394 924.3408
29.9962 158.7540 -261.3394 925.3403
29.3713 158.0594 -261.3394 926.3387
28.7534 157.3589 -261.3394 927.3389
28.1424 156.6525 -261.3393 928.3378
27.5384 155.9403 -261.3393 929.3377
26.9415 155.2224 -261.3393 930.3365
26.3516 154.4989 -261.3393 931.3362
25.7687 153.7699 -261.3393 932.3348
25.1929 153.0353 -261.3392 933.3345
24.6243 152.2953 -261.3392 934.3337
24.0628 151.5498 -261.3392 935.3330
23.5085 150.7989 -261.3392 936.3326
22.9614 150.0426 -261.3392 937.3311
22.4217 149.2810 -261.3391 938.3311
21.8891 148.5141 -261.3391 939.3301
21.3640 147.7418 -261.3391 940.3293
20.8463 146.9642 -261.3391 941.3292
20.3359 146.1815 -261.3391 942.3275
19.8329 145.3936 -261.3391 943.3275
19.3373 144.6006 -261.3390 944.3265
18.8491 143.8027 -261.3390 945.3254
18.3684 142.9998 -261.3390 946.3253
17.8949 142.1922 -261.3390 947.3247
17.4289 141.3800 -261.3389 948.3241
16.9701 140.5632 -261.3389 949.3231
16.5187 139.7421 -261.3389 950.3216
16.0745 138.9169 -261.3389 951.3219
15.6375 138.0876 -261.3389 952.3207
15.2077 137.2544 -261.3388 953.3204
14.7852 136.4176 -261.3388 954.3193
14.3698 135.5771 -261.3388 955.3185
13.9617 134.7333 -261.3388 956.3182
13.5609 133.8863 -261.3388 957.3173
13.1674 133.0361 -261.3387 958.3168
12.7815 132.1828 -261.3387 959.3154
12.4030 131.3267 -261.3387 960.3155
12.0324 130.4677 -261.3387 961.3145
11.6696 129.6060 -261.3387 962.3138
11.3149 128.7415 -261.3387 963.3130
10.9684 127.8743 -261.3387 964.3126
10.6303 127.0044 -261.3386 965.3112
10.3007 126.1320 -261.3386 966.3109
9.9800 125.2569 -261.3386 967.3099
9.6681 124.3792 -261.3386 968.3095
9.3653 123.4988 -261.3386 969.3085
9.0718 122.6158 -261.3385 970.3087
8.7875 121.7302 -261.3385 971.3070
8.5127 120.8418 -261.3385 972.3065
8.2472 119.9509 -261.3385 973.3061
7.9912 119.0572 -261.3385 974.3051
7.7445 118.1608 -261.3384 975.3051
7.5074 117.2618 -261.3384 976.3033
7.2794 116.3600 -261.3384 977.3033
7.0609 115.4556 -261.3384 978.3026
6.8514 114.5485 -261.3384 979.3016
6.6509 113.6387 -261.3384 980.3006
6.4594 112.7263 -261.3383 981.3006
6.2767 111.8111 -261.3383 982.2990
6.1028 110.8934 -261.3383 983.2988
5.9373 109.9730 -261.3383 984.2982
5.7802 109.0500 -261.3383 985.2974
5.6314 108.1244 -261.3383 986.2964
5.4909 107.1962 -261.3383 987.2962
5.3583 106.2655 -261.3382 988.2950
5.2337 105.3323 -261.3382 989.2946
5.1167 104.3966 -261.3382 990.2941
5.0075 103.4584 -261.3382 991.2926
4.9057 102.5179 -261.3382 992.2927
4.8112 101.5750 -261.3382 993.2916
4.7237 100.6298 -261.3381 994.2912
4.6431 99.6823 -261.3381 995.2901
4.5692 98.7327 -261.3381 996.2891
4.5016 97.7808 -261.3381 997.2892
4.4403 96.8269 -261.3381 998.2883
4.3849 95.8708 -261.3381 999.2874
4.3351 94.9127 -261.3381 1000.2862
4.2906 93.9527 -261.3380 1001.2858
4.2512 92.9906 -261.3380 1002.2855
4.2167 92.0267 -261.3380 1003.2849
4.1867 91.0610 -261.3380 1004.2834
4.1609 90.0934 -261.3380 1005.2830
4.1391 89.1241 -261.3380 1006.2825
4.1210 88.1531 -261.3380 1007.2819
4.1063 87.1805 -261.3380 1008.2811
4.0947 86.2062 -261.3380 1009.2802
4.0861 85.2304 -261.3379 1010.2795
4.0801 84.2531 -261.3379 1011.2786
4.0767 83.2744 -261.3379 1012.2786
4.0755 82.2942 -261.3379 1013.2777
4.0763 81.3128 -261.3379 1014.2764
4.0791 80.3301 -261.3379 1015.2762
4.0836 79.3461 -261.3379 1016.2752
4.0896 78.3611 -261.3378 1017.2742
4.0970 77.3749 -261.3378 1018.2736
4.1057 76.3876 -261.3378 1019.2739
4.1156 75.3994 -261.3378 1020.2721
4.1266 74.4102 -261.3378 1021.2719
4.1384 73.4201 -261.3378 1022.2710
4.1511 72.4292 -261.3378 1023.2704
4.1645 71.4375 -261.3378 1024.2697
4.1786 70.4450 -261.3377 1025.2686
4.1932 69.4518 -261.3377 1026.2681
4.2083 68.4580 -261.3377 1027.2675
4.2238 67.4634 -261.3377 1028.2666
4.2398 66.4683 -261.3377 1029.2665
4.2560 65.4725 -261.3377 1030.2653
4.2726 64.4762 -261.3377 1031.2642
4.2893 63.4794 -261.3377 1032.2639
4.3063 62.4820 -261.3377 1033.2629
4.3233 61.4841 -261.3376 1034.2627
4.3405 60.4857 -261.3376 1035.2616
4.3577 59.4869 -261.3376 1036.2611
4.3750 58.4876 -261.3376 1037.2606
4.3923 57.4879 -261.3376 1038.2596
4.4096 56.4877 -261.3376 1039.2588
4.4268 55.4872 -261.3376 1040.2578
4.4439 54.4863 -261.3376 1041.2577
4.4610 53.4851 -261.3376 1042.2567
4.4779 52.4836 -261.3376 1043.2559
4.4947 51.4817 -261.3376 1044.2554
4.5114 50.4796 -261.3376 1045.2546
4.5279 49.4773 -261.3376 1046.2538
4.5443 48.4748 -261.3376 1047.2532
4.5604 47.4722 -261.3375 1048.2527
4.5764 46.4694 -261.3375 1049.2521
4.5921 45.4666 -261.3375 1050.2507
4.6076 44.4638 -261.3375 1051.2500
4.6229 43.4611 -261.3375 1052.2499
4.6380 42.4584 -261.3375 1053.2488
4.6528 41.4558 -261.3375 1054.2483
4.6675 40.4535 -261.3375 1055.2473
4.6819 39.4514 -261.3375 1056.2467
4.6961 38.4495 -261.3375 1057.2461
4.7101 37.4480 -261.3375 1058.2454
4.7240 36.4469 -261.3375 1059.2450
4.7378 35.4462 -261.3375 1060.2435
4.7515 34.4460 -261.3375 1061.2435
4.7652 33.4463 -261.3375 1062.2433
