VERSION 0.7
FIELDS x y z lapdistance
SIZE 4 4 4 4
TYPE F F F F
COUNT 1 1 1 1
WIDTH 1064
HEIGHT 1
VIEWPOINT 0.000 0.000 0.000 1.000 0.000 0.000 0.000
POINTS 1064
DATA ascii
-9.8098 33.3269 -261.3375 0.0002
-9.7972 32.3277 -261.3374 0.9994
-9.7837 31.3281 -261.3374 1.9980
-9.7694 30.3280 -261.3374 2.9983
-9.7542 29.3274 -261.3374 3.9974
-9.7384 28.3265 -261.3374 4.9961
-9.7217 27.3251 -261.3374 5.9956
-9.7044 26.3234 -261.3374 6.9949
-9.6864 25.3213 -261.3374 7.9941
-9.6678 24.3189 -261.3374 8.9940
-9.6485 23.3162 -261.3374 9.9933
-9.6286 22.3132 -261.3374 10.9919
-9.6081 21.3100 -261.3374 11.9911
-9.5870 20.3064 -261.3374 12.9907
-9.5652 19.3025 -261.3374 13.9901
-9.5430 18.2984 -261.3374 14.9896
-9.5201 17.2940 -261.3374 15.9884
-9.4967 16.2893 -261.3374 16.9876
-9.4727 15.2843 -261.3374 17.9875
-9.4481 14.2790 -261.3374 18.9865
-9.4230 13.2734 -261.3374 19.9856
-9.3972 12.2676 -261.3374 20.9850
-9.3709 11.2616 -261.3374 21.9844
-9.3440 10.2555 -261.3374 22.9832
-9.3165 9.2492 -261.3374 23.9831
-9.2884 8.2429 -261.3374 24.9823
-9.2596 7.2366 -261.3374 25.9816
-9.2303 6.2304 -261.3374 26.9808
-9.2003 5.2245 -261.3374 27.9799
-9.1698 4.2190 -261.3374 28.9793
-9.1388 3.2141 -261.3374 29.9785
-9.1074 2.2098 -261.3374 30.9783
-9.0759 1.2064 -261.3374 31.9769
-9.0443 0.2039 -261.3374 32.9763
-9.0132 -0.7974 -261.3374 33.9759
-8.9831 -1.7974 -261.3374 34.9754
-8.9546 -2.7959 -261.3374 35.9739
-8.9290 -3.7930 -261.3374 36.9733
-8.9076 -4.7885 -261.3374 37.9729
-8.8925 -5.7825 -261.3374 38.9723
-8.8865 -6.7749 -261.3374 39.9716
-8.8934 -7.7661 -261.3374 40.9706
-8.9141 -8.7560 -261.3374 41.9704
-8.9426 -9.7447 -261.3374 42.9690
-8.9735 -10.7323 -261.3374 43.9688
-9.0025 -11.7192 -261.3374 44.9676
-9.0264 -12.7057 -261.3374 45.9674
-9.0432 -13.6923 -261.3374 46.9667
-9.0522 -14.6793 -261.3374 47.9660
-9.0543 -15.6672 -261.3374 48.9646
-9.0515 -16.6563 -261.3374 49.9646
-9.0451 -17.6468 -261.3374 50.9637
-9.0360 -18.6388 -261.3374 51.9628
-9.0248 -19.6324 -261.3374 52.9623
-9.0121 -20.6275 -261.3374 53.9616
-8.9983 -21.6241 -261.3374 54.9609
-8.9835 -22.6221 -261.3374 55.9597
-8.9680 -23.6214 -261.3374 56.9598
-8.9520 -24.6218 -261.3374 57.9584
-8.9355 -25.6231 -261.3374 58.9581
-8.9187 -26.6253 -261.3374 59.9568
-8.9015 -27.6282 -261.3374 60.9565
-8.8839 -28.6316 -261.3374 61.9565
-8.8660 -29.6353 -261.3374 62.9547
-8.8478 -30.6392 -261.3374 63.9539
-8.8294 -31.6431 -261.3374 64.9537
-8.8109 -32.6469 -261.3375 65.9533
-8.7923 -33.6506 -261.3375 66.9524
-8.7738 -34.6540 -261.3375 67.9511
-8.7553 -35.6570 -261.3375 68.9510
-8.7368 -36.6597 -261.3375 69.9500
-8.7185 -37.6620 -261.3375 70.9493
-8.7004 -38.6639 -261.3375 71.9491
-8.6824 -39.6653 -261.3375 72.9478
-8.6646 -40.6664 -261.3375 73.9472
-8.6471 -41.6671 -261.3375 74.9467
-8.6299 -42.6675 -261.3375 75.9457
-8.6129 -43.6676 -261.3375 76.9449
-8.5961 -44.6674 -261.3375 77.9449
-8.5796 -45.6669 -261.3375 78.9436
-8.5633 -46.6663 -261.3375 79.9425
-8.5472 -47.6654 -261.3376 80.9422
-8.5313 -48.6644 -261.3376 81.9418
-8.5154 -49.6632 -261.3376 82.9409
-8.4997 -50.6618 -261.3376 83.9402
-8.4842 -51.6603 -261.3376 84.9392
-8.4688 -52.6588 -261.3376 85.9390
-8.4536 -53.6572 -261.3376 86.9377
-8.4387 -54.6556 -261.3376 87.9375
-8.4239 -55.6540 -261.3376 88.9362
-8.4092 -56.6525 -261.3376 89.9362
-8.3947 -57.6512 -261.3376 90.9348
-8.3803 -58.6500 -261.3376 91.9344
-8.3660 -59.6489 -261.3376 92.9336
-8.3516 -60.6481 -261.3376 93.9334
-8.3372 -61.6475 -261.3377 94.9321
-8.3226 -62.6471 -261.3377 95.9318
-8.3079 -63.6469 -261.3377 96.9308
-8.2929 -64.6469 -261.3377 97.9303
-8.2776 -65.6470 -261.3377 98.9296
-8.2620 -66.6473 -261.3377 99.9285
-8.2462 -67.6476 -261.3377 100.9283
-8.2302 -68.6480 -261.3377 101.9271
-8.2139 -69.6485 -261.3377 102.9263
-8.1972 -70.6490 -261.3378 103.9257
-8.1803 -71.6496 -261.3378 104.9256
-8.1630 -72.6503 -261.3378 105.9240
-8.1454 -73.6511 -261.3378 106.9237
-8.1274 -74.6519 -261.3378 107.9232
-8.1090 -75.6528 -261.3378 108.9227
-8.0902 -76.6539 -261.3378 109.9216
-8.0709 -77.6552 -261.3378 110.9209
-8.0511 -78.6566 -261.3379 111.9202
-8.0308 -79.6583 -261.3379 112.9190
-8.0098 -80.6603 -261.3379 113.9186
-7.9883 -81.6626 -261.3379 114.9186
-7.9660 -82.6654 -261.3379 115.9170
-7.9429 -83.6687 -261.3379 116.9169
-7.9188 -84.6725 -261.3379 117.9156
-7.8937 -85.6770 -261.3380 118.9153
-7.8676 -86.6822 -261.3380 119.9145
-7.8405 -87.6882 -261.3380 120.9134
-7.8122 -88.6950 -261.3380 121.9132
-7.7824 -89.7026 -261.3380 122.9128
-7.7512 -90.7113 -261.3380 123.9113
-7.7184 -91.7209 -261.3380 124.9105
-7.6837 -92.7316 -261.3380 125.9106
-7.6468 -93.7435 -261.3380 126.9094
-7.6077 -94.7566 -261.3381 127.9086
-7.5663 -95.7709 -261.3381 128.9086
-7.5223 -96.7865 -261.3381 129.9065
-7.4752 -97.8035 -261.3381 130.9072
-7.4248 -98.8218 -261.3381 131.9061
-7.3713 -99.8415 -261.3381 132.9046
-7.3142 -100.8626 -261.3382 133.9053
-7.2528 -101.8852 -261.3382 134.9034
-7.1872 -102.9092 -261.3382 135.9027
-7.1174 -103.9346 -261.3382 136.9030
-7.0428 -104.9614 -261.3382 137.9009
-6.9629 -105.9895 -261.3383 138.9015
-6.8780 -107.0190 -261.3383 139.8997
-6.7877 -108.0497 -261.3383 140.8996
-6.6913 -109.0816 -261.3383 141.8993
-6.5889 -110.1146 -261.3383 142.8979
-6.4805 -111.1486 -261.3383 143.8972
-6.3655 -112.1837 -261.3383 144.8970
-6.2437 -113.2195 -261.3384 145.8958
-6.1153 -114.2562 -261.3384 146.8954
-5.9801 -115.2936 -261.3384 147.8939
-5.8375 -116.3315 -261.3384 148.8940
-5.6877 -117.3698 -261.3384 149.8932
-5.5308 -118.4085 -261.3384 150.8926
-5.3662 -119.4474 -261.3385 151.8913
-5.1940 -120.4865 -261.3385 152.8914
-5.0144 -121.5256 -261.3385 153.8897
-4.8268 -122.5646 -261.3385 154.8896
-4.6312 -123.6034 -261.3386 155.8887
-4.4279 -124.6419 -261.3386 156.8887
-4.2163 -125.6799 -261.3386 157.8868
-3.9964 -126.7173 -261.3386 158.8868
-3.7682 -127.7540 -261.3386 159.8863
-3.5313 -128.7899 -261.3387 160.8849
-3.2857 -129.8247 -261.3387 161.8844
-3.0312 -130.8583 -261.3387 162.8842
-2.7675 -131.8905 -261.3387 163.8831
-2.4946 -132.9212 -261.3387 164.8826
-2.2121 -133.9500 -261.3387 165.8816
-1.9198 -134.9768 -261.3388 166.8808
-1.6176 -136.0013 -261.3388 167.8801
-1.3051 -137.0233 -261.3388 168.8799
-0.9824 -138.0425 -261.3388 169.8785
-0.6492 -139.0586 -261.3389 170.8783
-0.3054 -140.0713 -261.3389 171.8777
0.0490 -141.0805 -261.3389 172.8764
0.4141 -142.0858 -261.3389 173.8757
0.7898 -143.0870 -261.3390 174.8759
1.1761 -144.0839 -261.3390 175.8741
1.5728 -145.0763 -261.3390 176.8743
1.9798 -146.0641 -261.3390 177.8726
2.3966 -147.0471 -261.3391 178.8727
2.8232 -148.0254 -261.3391 179.8719
3.2592 -148.9987 -261.3391 180.8711
3.7044 -149.9672 -261.3391 181.8699
4.1586 -150.9307 -261.3391 182.8698
4.6214 -151.8893 -261.3392 183.8689
5.0927 -152.8429 -261.3392 184.8680
5.5723 -153.7917 -261.3392 185.8671
6.0599 -154.7355 -261.3392 186.8666
6.5557 -155.6745 -261.3393 187.8663
7.0592 -156.6086 -261.3393 188.8652
7.5705 -157.5379 -261.3393 189.8651
8.0898 -158.4622 -261.3393 190.8632
8.6167 -159.3818 -261.3394 191.8638
9.1513 -160.2965 -261.3394 192.8620
9.6937 -161.2064 -261.3394 193.8623
10.2436 -162.1115 -261.3394 194.8609
10.8013 -163.0118 -261.3394 195.8602
11.3669 -163.9072 -261.3395 196.8596
11.9399 -164.7978 -261.3395 197.8587
12.5208 -165.6836 -261.3395 198.8584
13.1095 -166.5645 -261.3395 199.8572
13.7057 -167.4407 -261.3396 200.8569
14.3099 -168.3119 -261.3396 201.8567
14.9220 -169.1781 -261.3396 202.8547
15.5417 -170.0394 -261.3396 203.8550
16.1694 -170.8956 -261.3397 204.8537
16.8050 -171.7467 -261.3397 205.8533
17.4484 -172.5927 -261.3397 206.8524
18.0998 -173.4333 -261.3397 207.8513
18.7592 -174.2684 -261.3398 208.8516
19.4265 -175.0982 -261.3398 209.8499
20.1019 -175.9220 -261.3398 210.8503
20.7853 -176.7401 -261.3398 211.8483
21.4767 -177.5522 -261.3399 212.8480
22.1763 -178.3579 -261.3399 213.8480
22.8838 -179.1573 -261.3399 214.8470
23.5994 -179.9500 -261.3399 215.8459
24.3230 -180.7360 -261.3400 216.8455
25.0544 -181.5150 -261.3400 217.8441
25.7939 -182.2866 -261.3400 218.8446
26.5413 -183.0508 -261.3400 219.8429
27.2964 -183.8073 -261.3401 220.8426
28.0592 -184.5561 -261.3401 221.8415
28.8294 -185.2969 -261.3401 222.8408
29.6071 -186.0296 -261.3401 223.8410
30.3921 -186.7540 -261.3401 224.8388
31.1842 -187.4702 -261.3402 225.8396
31.9833 -188.1778 -261.3402 226.8380
32.7890 -188.8771 -261.3402 227.8374
33.6013 -189.5679 -261.3403 228.8369
34.4201 -190.2501 -261.3403 229.8364
35.2449 -190.9241 -261.3403 230.8352
36.0756 -191.5898 -261.3403 231.8347
36.9120 -192.2472 -261.3404 232.8342
37.7540 -192.8967 -261.3404 233.8327
38.6014 -193.5379 -261.3404 234.8330
39.4541 -194.1714 -261.3404 235.8317
40.3118 -194.7971 -261.3405 236.8305
41.1748 -195.4149 -261.3405 237.8310
42.0426 -196.0252 -261.3405 238.8297
42.9153 -196.6279 -261.3405 239.8290
43.7930 -197.2230 -261.3405 240.8279
44.6755 -197.8106 -261.3406 241.8279
45.5628 -198.3908 -261.3406 242.8268
46.4551 -198.9632 -261.3406 243.8264
47.3523 -199.5280 -261.3406 244.8252
48.2543 -200.0851 -261.3407 245.8242
49.1615 -200.6341 -261.3407 246.8241
50.0736 -201.1753 -261.3407 247.8233
50.9907 -201.7083 -261.3408 248.8229
51.9130 -202.2328 -261.3408 249.8217
52.8403 -202.7489 -261.3408 250.8212
53.7727 -203.2563 -261.3408 251.8201
54.7101 -203.7547 -261.3409 252.8198
55.6525 -204.2442 -261.3409 253.8190
56.5999 -204.7246 -261.3409 254.8180
57.5521 -205.1956 -261.3409 255.8178
58.5090 -205.6575 -261.3409 256.8168
59.4706 -206.1098 -261.3410 257.8162
60.4368 -206.5526 -261.3410 258.8155
61.4072 -206.9861 -261.3410 259.8141
62.3819 -207.4100 -261.3410 260.8145
63.3607 -207.8244 -261.3411 261.8130
64.3434 -208.2297 -261.3411 262.8133
65.3299 -208.6254 -261.3411 263.8113
66.3201 -209.0118 -261.3411 264.8115
67.3137 -209.3892 -261.3412 265.8100
68.3109 -209.7571 -261.3412 266.8099
69.3112 -210.1161 -261.3412 267.8094
70.3148 -210.4660 -261.3412 268.8081
71.3216 -210.8066 -261.3412 269.8071
72.3315 -211.1382 -261.3413 270.8073
73.3443 -211.4606 -261.3413 271.8062
74.3602 -211.7737 -261.3413 272.8058
75.3789 -212.0776 -261.3413 273.8044
76.4005 -212.3719 -261.3413 274.8036
77.4250 -212.6565 -261.3414 275.8030
78.4523 -212.9316 -261.3414 276.8032
79.4822 -213.1968 -261.3414 277.8018
80.5148 -213.4518 -261.3414 278.8015
81.5499 -213.6972 -261.3415 279.8003
82.5874 -213.9325 -261.3415 280.7993
83.6273 -214.1573 -261.3415 281.7993
84.6693 -214.3722 -261.3415 282.7981
85.7134 -214.5770 -261.3416 283.7979
86.7596 -214.7711 -261.3416 284.7969
87.8075 -214.9551 -261.3416 285.7965
88.8571 -215.1291 -261.3416 286.7952
89.9083 -215.2927 -261.3416 287.7948
90.9608 -215.4461 -261.3416 288.7938
92.0146 -215.5898 -261.3417 289.7932
93.0694 -215.7234 -261.3417 290.7931
94.1253 -215.8465 -261.3417 291.7916
95.1820 -215.9599 -261.3417 292.7910
96.2394 -216.0639 -261.3417 293.7908
97.2974 -216.1576 -261.3418 294.7898
98.3559 -216.2417 -261.3418 295.7894
99.4146 -216.3166 -261.3418 296.7876
100.4737 -216.3819 -261.3418 297.7879
101.5329 -216.4370 -261.3418 298.7872
102.5922 -216.4828 -261.3419 299.7862
103.6514 -216.5196 -261.3419 300.7854
104.7105 -216.5467 -261.3419 301.7845
105.7695 -216.5643 -261.3419 302.7837
106.8283 -216.5730 -261.3419 303.7837
107.8868 -216.5727 -261.3419 304.7823
108.9450 -216.5628 -261.3420 305.7825
110.0028 -216.5437 -261.3420 306.7809
111.0602 -216.5160 -261.3420 307.7804
112.1173 -216.4793 -261.3420 308.7801
113.1740 -216.4335 -261.3420 309.7787
114.2302 -216.3792 -261.3420 310.7793
115.2861 -216.3164 -261.3421 311.7772
116.3415 -216.2446 -261.3421 312.7770
117.3965 -216.1640 -261.3421 313.7764
118.4512 -216.0751 -261.3421 314.7751
119.5054 -215.9776 -261.3421 315.7753
120.5593 -215.8710 -261.3422 316.7732
121.6127 -215.7558 -261.3422 317.7740
122.6658 -215.6319 -261.3422 318.7727
123.7183 -215.4988 -261.3422 319.7714
124.7702 -215.3562 -261.3422 320.7719
125.8216 -215.2046 -261.3422 321.7705
126.8722 -215.0434 -261.3423 322.7697
127.9219 -214.8720 -261.3423 323.7690
128.9706 -214.6908 -261.3423 324.7683
130.0181 -214.4993 -261.3423 325.7679
131.0642 -214.2971 -261.3423 326.7671
132.1087 -214.0843 -261.3423 327.7662
133.1514 -213.8609 -261.3423 328.7651
134.1920 -213.6262 -261.3423 329.7648
135.2304 -213.3806 -261.3424 330.7646
136.2663 -213.1240 -261.3424 331.7628
137.2993 -212.8562 -261.3424 332.7633
138.3295 -212.5778 -261.3424 333.7613
139.3566 -212.2886 -261.3424 334.7616
140.3803 -211.9888 -261.3424 335.7608
141.4007 -211.6789 -261.3424 336.7597
142.4175 -211.3590 -261.3424 337.7588
143.4307 -211.0294 -261.3425 338.7587
144.4402 -210.6905 -261.3425 339.7574
145.4459 -210.3419 -261.3425 340.7570
146.4477 -209.9845 -261.3425 341.7562
147.4457 -209.6182 -261.3425 342.7557
148.4397 -209.2431 -261.3425 343.7550
149.4299 -208.8596 -261.3425 344.7539
150.4159 -208.4674 -261.3425 345.7532
151.3979 -208.0667 -261.3425 346.7533
152.3760 -207.6577 -261.3426 347.7517
153.3498 -207.2401 -261.3426 348.7511
154.3197 -206.8143 -261.3426 349.7507
155.2855 -206.3802 -261.3426 350.7498
156.2471 -205.9376 -261.3426 351.7491
157.2046 -205.4869 -261.3426 352.7487
158.1581 -205.0279 -261.3426 353.7476
159.1074 -204.5603 -261.3426 354.7471
160.0526 -204.0847 -261.3426 355.7459
160.9936 -203.6007 -261.3427 356.7455
161.9305 -203.1083 -261.3427 357.7456
162.8634 -202.6078 -261.3427 358.7441
163.7919 -202.0987 -261.3427 359.7432
164.7162 -201.5813 -261.3427 360.7427
165.6363 -201.0555 -261.3427 361.7423
166.5520 -200.5211 -261.3427 362.7416
167.4633 -199.9783 -261.3427 363.7401
168.3700 -199.4267 -261.3427 364.7400
169.2720 -198.8664 -261.3427 365.7389
170.1693 -198.2973 -261.3427 366.7386
171.0614 -197.7192 -261.3427 367.7375
171.9485 -197.1321 -261.3427 368.7378
172.8303 -196.5361 -261.3427 369.7358
173.7064 -195.9308 -261.3427 370.7355
174.5769 -195.3166 -261.3427 371.7350
175.4416 -194.6933 -261.3427 372.7338
176.3003 -194.0610 -261.3427 373.7340
177.1529 -193.4199 -261.3427 374.7325
177.9992 -192.7699 -261.3427 375.7323
178.8391 -192.1113 -261.3427 376.7312
179.6726 -191.4441 -261.3427 377.7307
180.4995 -190.7686 -261.3428 378.7302
181.3198 -190.0849 -261.3428 379.7285
182.1334 -189.3932 -261.3428 380.7289
182.9403 -188.6938 -261.3428 381.7278
183.7403 -187.9864 -261.3428 382.7270
184.5334 -187.2716 -261.3428 383.7266
185.3193 -186.5492 -261.3428 384.7253
186.0981 -185.8195 -261.3428 385.7246
186.8696 -185.0824 -261.3428 386.7243
187.6336 -184.3381 -261.3428 387.7238
188.3902 -183.5867 -261.3428 388.7226
189.1392 -182.8283 -261.3428 389.7221
189.8806 -182.0631 -261.3428 390.7216
190.6143 -181.2911 -261.3428 391.7207
191.3405 -180.5127 -261.3428 392.7197
192.0593 -179.7281 -261.3428 393.7189
192.7706 -178.9372 -261.3428 394.7191
193.4746 -178.1405 -261.3428 395.7176
194.1714 -177.3380 -261.3428 396.7175
194.8612 -176.5299 -261.3428 397.7160
195.5440 -175.7164 -261.3428 398.7156
196.2200 -174.8975 -261.3428 399.7149
196.8893 -174.0734 -261.3428 400.7144
197.5519 -173.2440 -261.3428 401.7134
198.2078 -172.4095 -261.3428 402.7130
198.8571 -171.5696 -261.3428 403.7120
199.4994 -170.7243 -261.3427 404.7114
200.1350 -169.8737 -261.3427 405.7105
200.7635 -169.0176 -261.3427 406.7102
201.3846 -168.1558 -261.3427 407.7090
201.9985 -167.2883 -261.3427 408.7086
202.6047 -166.4149 -261.3427 409.7078
203.2030 -165.5357 -261.3427 410.7071
203.7932 -164.6503 -261.3427 411.7061
204.3749 -163.7589 -261.3427 412.7061
204.9479 -162.8614 -261.3427 413.7043
205.5118 -161.9576 -261.3427 414.7049
206.0665 -161.0477 -261.3427 415.7035
206.6118 -160.1317 -261.3427 416.7028
207.1477 -159.2099 -261.3427 417.7021
207.6739 -158.2821 -261.3427 418.7014
208.1904 -157.3488 -261.3427 419.7006
208.6973 -156.4099 -261.3427 420.6999
209.1945 -155.4659 -261.3427 421.6989
209.6821 -154.5168 -261.3427 422.6992
210.1602 -153.5629 -261.3427 423.6977
210.6288 -152.6044 -261.3427 424.6968
211.0880 -151.6414 -261.3427 425.6963
211.5380 -150.6743 -261.3426 426.6963
211.9787 -149.7031 -261.3426 427.6949
212.4103 -148.7280 -261.3426 428.6942
212.8327 -147.7491 -261.3426 429.6931
213.2461 -146.7666 -261.3426 430.6932
213.6502 -145.7806 -261.3426 431.6921
214.0453 -144.7912 -261.3426 432.6912
214.4313 -143.7984 -261.3426 433.6910
214.8082 -142.8024 -261.3426 434.6897
215.1760 -141.8033 -261.3426 435.6895
215.5347 -140.8012 -261.3425 436.6888
215.8844 -139.7961 -261.3425 437.6877
216.2252 -138.7881 -261.3425 438.6873
216.5571 -137.7774 -261.3425 439.6867
216.8801 -136.7640 -261.3425 440.6854
217.1942 -135.7480 -261.3425 441.6851
217.4997 -134.7294 -261.3425 442.6844
217.7966 -133.7084 -261.3425 443.6833
218.0850 -132.6851 -261.3425 444.6831
218.3647 -131.6594 -261.3424 445.6821
218.6361 -130.6315 -261.3424 446.6815
218.8989 -129.6014 -261.3424 447.6809
219.1534 -128.5693 -261.3424 448.6795
219.3995 -127.5351 -261.3424 449.6794
219.6372 -126.4990 -261.3424 450.6785
219.8665 -125.4610 -261.3424 451.6784
220.0873 -124.4212 -261.3423 452.6770
220.2997 -123.3798 -261.3423 453.6762
220.5034 -122.3368 -261.3423 454.6761
220.6985 -121.2924 -261.3423 455.6748
220.8848 -120.2466 -261.3423 456.6742
221.0622 -119.1995 -261.3423 457.6736
221.2307 -118.1515 -261.3423 458.6732
221.3901 -117.1026 -261.3423 459.6724
221.5403 -116.0530 -261.3423 460.6713
221.6811 -115.0030 -261.3422 461.6704
221.8126 -113.9527 -261.3422 462.6707
221.9346 -112.9023 -261.3422 463.6689
222.0471 -111.8522 -261.3422 464.6687
222.1503 -110.8026 -261.3422 465.6681
222.2441 -109.7536 -261.3422 466.6674
222.3289 -108.7056 -261.3421 467.6661
222.4046 -107.6587 -261.3421 468.6657
222.4719 -106.6133 -261.3421 469.6651
222.5310 -105.5695 -261.3421 470.6647
222.5824 -104.5274 -261.3421 471.6632
222.6265 -103.4874 -261.3421 472.6631
222.6638 -102.4494 -261.3420 473.6624
222.6949 -101.4136 -261.3420 474.6612
222.7201 -100.3801 -261.3420 475.6611
222.7402 -99.3489 -261.3420 476.6602
222.7554 -98.3200 -261.3420 477.6596
222.7663 -97.2934 -261.3420 478.6582
222.7733 -96.2692 -261.3419 479.6578
222.7767 -95.2471 -261.3419 480.6574
222.7771 -94.2273 -261.3419 481.6564
222.7748 -93.2095 -261.3419 482.6559
222.7701 -92.1937 -261.3419 483.6551
222.7633 -91.1798 -261.3419 484.6541
222.7548 -90.1677 -261.3419 485.6538
222.7448 -89.1572 -261.3419 486.6532
222.7337 -88.1483 -261.3418 487.6519
222.7215 -87.1408 -261.3418 488.6514
222.7086 -86.1345 -261.3418 489.6512
222.6951 -85.1294 -261.3418 490.6500
222.6812 -84.1254 -261.3418 491.6492
222.6670 -83.1222 -261.3418 492.6487
222.6527 -82.1198 -261.3418 493.6479
222.6384 -81.1181 -261.3417 494.6472
222.6241 -80.1169 -261.3417 495.6471
222.6098 -79.1162 -261.3417 496.6455
222.5957 -78.1159 -261.3417 497.6453
222.5817 -77.1159 -261.3417 498.6445
222.5679 -76.1162 -261.3417 499.6436
222.5543 -75.1167 -261.3417 500.6430
222.5408 -74.1172 -261.3416 501.6420
222.5276 -73.1179 -261.3416 502.6416
222.5143 -72.1187 -261.3416 503.6408
222.5012 -71.1195 -261.3416 504.6402
222.4881 -70.1202 -261.3416 505.6395
222.4751 -69.1210 -261.3416 506.6387
222.4619 -68.1217 -261.3416 507.6383
222.4487 -67.1224 -261.3416 508.6372
222.4354 -66.1231 -261.3416 509.6362
222.4220 -65.1237 -261.3416 510.6358
222.4085 -64.1243 -261.3416 511.6352
222.3949 -63.1249 -261.3415 512.6349
222.3811 -62.1255 -261.3415 513.6331
222.3671 -61.1261 -261.3415 514.6332
222.3529 -60.1267 -261.3415 515.6324
222.3387 -59.1274 -261.3415 516.6314
222.3243 -58.1281 -261.3415 517.6309
222.3099 -57.1289 -261.3415 518.6302
222.2955 -56.1297 -261.3415 519.6297
222.2810 -55.1305 -261.3415 520.6283
222.2666 -54.1313 -261.3414 521.6283
222.2524 -53.1322 -261.3414 522.6273
222.2384 -52.1330 -261.3414 523.6266
222.2247 -51.1338 -261.3414 524.6260
222.2113 -50.1346 -261.3414 525.6245
222.1983 -49.1353 -261.3414 526.6249
222.1856 -48.1359 -261.3414 527.6236
222.1733 -47.1364 -261.3414 528.6229
222.1615 -46.1367 -261.3414 529.6224
222.1501 -45.1369 -261.3414 530.6213
222.1391 -44.1369 -261.3414 531.6214
222.1284 -43.1367 -261.3414 532.6204
222.1178 -42.1363 -261.3413 533.6193
222.1074 -41.1357 -261.3413 534.6185
222.0969 -40.1349 -261.3413 535.6181
222.0864 -39.1339 -261.3413 536.6174
222.0756 -38.1326 -261.3413 537.6163
222.0643 -37.1311 -261.3413 538.6158
222.0524 -36.1295 -261.3413 539.6154
222.0399 -35.1277 -261.3413 540.6148
222.0264 -34.1258 -261.3413 541.6138
222.0120 -33.1238 -261.3413 542.6130
221.9964 -32.1219 -261.3413 543.6121
221.9798 -31.1200 -261.3413 544.6118
221.9621 -30.1181 -261.3413 545.6107
221.9432 -29.1164 -261.3413 546.6100
221.9233 -28.1149 -261.3412 547.6099
221.9024 -27.1135 -261.3412 548.6084
221.8807 -26.1125 -261.3412 549.6083
221.8583 -25.1117 -261.3412 550.6074
221.8353 -24.1112 -261.3412 551.6065
221.8120 -23.1111 -261.3412 552.6060
221.7882 -22.1113 -261.3412 553.6052
221.7644 -21.1119 -261.3412 554.6047
221.7406 -20.1129 -261.3412 555.6033
221.7169 -19.1142 -261.3412 556.6031
221.6935 -18.1160 -261.3412 557.6027
221.6705 -17.1181 -261.3412 558.6019
221.6480 -16.1205 -261.3412 559.6008
221.6261 -15.1233 -261.3412 560.5997
221.6048 -14.1263 -261.3412 561.5999
221.5843 -13.1296 -261.3412 562.5987
221.5647 -12.1331 -261.3412 563.5978
221.5460 -11.1368 -261.3412 564.5976
221.5283 -10.1406 -261.3412 565.5970
221.5117 -9.1444 -261.3412 566.5958
221.4962 -8.1483 -261.3412 567.5957
221.4818 -7.1521 -261.3412 568.5942
221.4686 -6.1558 -261.3412 569.5933
221.4563 -5.1594 -261.3412 570.5934
221.4451 -4.1629 -261.3412 571.5923
221.4347 -3.1661 -261.3412 572.5916
221.4252 -2.1691 -261.3412 573.5911
221.4164 -1.1718 -261.3412 574.5899
221.4082 -0.1742 -261.3412 575.5897
221.4003 0.8238 -261.3412 576.5886
221.3927 1.8222 -261.3412 577.5883
221.3853 2.8210 -261.3412 578.5876
221.3779 3.8202 -261.3412 579.5865
221.3704 4.8199 -261.3412 580.5862
221.3626 5.8199 -261.3412 581.5848
221.3545 6.8204 -261.3412 582.5847
221.3460 7.8213 -261.3412 583.5840
221.3369 8.8226 -261.3412 584.5834
221.3272 9.8242 -261.3412 585.5819
221.3168 10.8262 -261.3412 586.5814
221.3056 11.8284 -261.3412 587.5816
221.2935 12.8309 -261.3412 588.5804
221.2805 13.8336 -261.3412 589.5793
221.2666 14.8363 -261.3412 590.5789
221.2517 15.8392 -261.3412 591.5778
221.2357 16.8422 -261.3412 592.5778
221.2188 17.8451 -261.3412 593.5764
221.2006 18.8479 -261.3412 594.5760
221.1814 19.8507 -261.3412 595.5752
221.1611 20.8532 -261.3412 596.5747
221.1397 21.8556 -261.3412 597.5743
221.1175 22.8576 -261.3412 598.5728
221.0943 23.8594 -261.3412 599.5724
221.0704 24.8607 -261.3412 600.5719
221.0457 25.8617 -261.3412 601.5710
221.0204 26.8623 -261.3412 602.5698
220.9947 27.8625 -261.3412 603.5696
220.9687 28.8622 -261.3412 604.5692
220.9426 29.8614 -261.3412 605.5677
220.9166 30.8603 -261.3412 606.5678
220.8908 31.8587 -261.3412 607.5665
220.8654 32.8568 -261.3412 608.5660
220.8405 33.8545 -261.3412 609.5656
220.8162 34.8520 -261.3412 610.5646
220.7927 35.8492 -261.3413 611.5640
220.7702 36.8463 -261.3413 612.5632
220.7486 37.8433 -261.3413 613.5621
220.7281 38.8402 -261.3413 614.5620
220.7087 39.8372 -261.3413 615.5607
220.6905 40.8341 -261.3413 616.5608
220.6733 41.8312 -261.3413 617.5597
220.6573 42.8283 -261.3413 618.5587
220.6422 43.8257 -261.3413 619.5581
220.6280 44.8232 -261.3413 620.5574
220.6146 45.8210 -261.3413 621.5570
220.6019 46.8190 -261.3413 622.5557
220.5897 47.8172 -261.3413 623.5557
220.5778 48.8158 -261.3413 624.5545
220.5662 49.8147 -261.3413 625.5535
220.5546 50.8138 -261.3414 626.5535
220.5430 51.8131 -261.3414 627.5526
220.5311 52.8128 -261.3414 628.5516
220.5190 53.8126 -261.3414 629.5513
220.5064 54.8127 -261.3414 630.5499
220.4935 55.8129 -261.3414 631.5499
220.4802 56.8134 -261.3414 632.5492
220.4664 57.8140 -261.3414 633.5476
220.4523 58.8148 -261.3414 634.5476
220.4377 59.8158 -261.3414 635.5473
220.4228 60.8170 -261.3414 636.5458
220.4076 61.8183 -261.3415 637.5458
220.3922 62.8199 -261.3415 638.5443
220.3766 63.8218 -261.3415 639.5435
220.3609 64.8239 -261.3415 640.5436
220.3452 65.8263 -261.3415 641.5429
220.3294 66.8292 -261.3415 642.5413
220.3136 67.8324 -261.3415 643.5411
220.2978 68.8361 -261.3415 644.5405
220.2821 69.8404 -261.3415 645.5401
220.2663 70.8453 -261.3416 646.5383
220.2505 71.8509 -261.3416 647.5381
220.2346 72.8572 -261.3416 648.5375
220.2185 73.8644 -261.3416 649.5367
220.2021 74.8726 -261.3416 650.5365
220.1852 75.8818 -261.3416 651.5352
220.1677 76.8921 -261.3416 652.5350
220.1494 77.9037 -261.3416 653.5336
220.1300 78.9166 -261.3416 654.5332
220.1093 79.9309 -261.3416 655.5330
220.0871 80.9467 -261.3416 656.5314
220.0629 81.9640 -261.3417 657.5315
220.0365 82.9830 -261.3417 658.5299
220.0074 84.0036 -261.3417 659.5297
219.9754 85.0259 -261.3417 660.5292
219.9400 86.0499 -261.3417 661.5277
219.9009 87.0756 -261.3417 662.5281
219.8575 88.1029 -261.3417 663.5270
219.8094 89.1319 -261.3418 664.5262
219.7564 90.1625 -261.3418 665.5249
219.6978 91.1945 -261.3418 666.5248
219.6334 92.2280 -261.3418 667.5237
219.5630 93.2627 -261.3418 668.5231
219.4861 94.2987 -261.3418 669.5233
219.4025 95.3357 -261.3418 670.5215
219.3121 96.3736 -261.3419 671.5203
219.2144 97.4123 -261.3419 672.5209
219.1096 98.4516 -261.3419 673.5203
218.9974 99.4915 -261.3419 674.5179
218.8776 100.5317 -261.3419 675.5189
218.7502 101.5720 -261.3419 676.5175
218.6151 102.6124 -261.3419 677.5162
218.4723 103.6527 -261.3419 678.5174
218.3218 104.6928 -261.3419 679.5146
218.1635 105.7325 -261.3419 680.5148
217.9972 106.7717 -261.3420 681.5143
217.8232 107.8103 -261.3420 682.5122
217.6412 108.8482 -261.3420 683.5137
217.4511 109.8852 -261.3420 684.5109
217.2533 110.9212 -261.3420 685.5116
217.0476 111.9563 -261.3420 686.5107
216.8338 112.9901 -261.3420 687.5098
216.6124 114.0228 -261.3420 688.5094
216.3832 115.0543 -261.3420 689.5078
216.1459 116.0844 -261.3421 690.5074
215.9008 117.1132 -261.3421 691.5067
215.6479 118.1406 -261.3421 692.5060
215.3869 119.1665 -261.3421 693.5058
215.1179 120.1908 -261.3421 694.5045
214.8409 121.2135 -261.3421 695.5049
214.5557 122.2345 -261.3421 696.5023
214.2623 123.2538 -261.3421 697.5037
213.9607 124.2713 -261.3422 698.5012
213.6506 125.2868 -261.3422 699.5008
213.3317 126.3002 -261.3422 700.5006
213.0043 127.3116 -261.3422 701.4999
212.6681 128.3205 -261.3422 702.4990
212.3227 129.3270 -261.3422 703.4981
211.9684 130.3310 -261.3422 704.4976
211.6048 131.3321 -261.3422 705.4971
211.2317 132.3302 -261.3422 706.4962
210.8492 133.3252 -261.3422 707.4959
210.4570 134.3167 -261.3422 708.4942
210.0550 135.3047 -261.3423 709.4946
209.6435 136.2890 -261.3423 710.4928
209.2224 137.2694 -261.3423 711.4925
208.7916 138.2458 -261.3423 712.4926
208.3514 139.2180 -261.3423 713.4909
207.9015 140.1859 -261.3423 714.4903
207.4423 141.1494 -261.3423 715.4899
206.9740 142.1085 -261.3423 716.4888
206.4965 143.0631 -261.3423 717.4885
206.0102 144.0131 -261.3423 718.4876
205.5151 144.9585 -261.3423 719.4874
205.0111 145.8992 -261.3423 720.4856
204.4987 146.8354 -261.3423 721.4864
203.9780 147.7669 -261.3423 722.4839
203.4488 148.6937 -261.3423 723.4846
202.9115 149.6158 -261.3423 724.4829
202.3657 150.5332 -261.3423 725.4830
201.8117 151.4457 -261.3423 726.4814
201.2494 152.3534 -261.3423 727.4815
200.6788 153.2561 -261.3423 728.4802
200.1000 154.1538 -261.3423 729.4797
199.5127 155.0464 -261.3423 730.4794
198.9170 155.9337 -261.3423 731.4786
198.3129 156.8157 -261.3423 732.4771
197.7002 157.6922 -261.3423 733.4771
197.0792 158.5632 -261.3423 734.4762
196.4495 159.4284 -261.3424 735.4753
195.8114 160.2877 -261.3424 736.4747
195.1646 161.1411 -261.3424 737.4743
194.5093 161.9882 -261.3424 738.4738
193.8454 162.8289 -261.3424 739.4721
193.1729 163.6632 -261.3424 740.4723
192.4920 164.4907 -261.3424 741.4715
191.8025 165.3113 -261.3424 742.4700
191.1046 166.1249 -261.3424 743.4703
190.3985 166.9312 -261.3424 744.4689
189.6838 167.7300 -261.3424 745.4685
188.9611 168.5213 -261.3424 746.4676
188.2305 169.3049 -261.3424 747.4674
187.4920 170.0808 -261.3424 748.4654
186.7462 170.8491 -261.3424 749.4662
185.9930 171.6096 -261.3424 750.4651
185.2329 172.3624 -261.3424 751.4634
184.4660 173.1076 -261.3424 752.4636
183.6928 173.8454 -261.3424 753.4625
182.9133 174.5757 -261.3424 754.4617
182.1277 175.2986 -261.3423 755.4619
181.3362 176.0141 -261.3423 756.4604
180.5391 176.7224 -261.3423 757.4595
179.7364 177.4235 -261.3423 758.4597
178.9282 178.1175 -261.3423 759.4580
178.1148 178.8046 -261.3423 760.4572
177.2961 179.4845 -261.3423 761.4578
176.4720 180.1573 -261.3423 762.4564
175.6428 180.8234 -261.3423 763.4552
174.8083 181.4823 -261.3423 764.4553
173.9686 182.1340 -261.3423 765.4538
173.1237 182.7788 -261.3423 766.4528
172.2734 183.4164 -261.3423 767.4537
171.4178 184.0466 -261.3423 768.4514
170.5569 184.6696 -261.3423 769.4512
169.6906 185.2852 -261.3423 770.4503
168.8188 185.8933 -261.3423 771.4505
167.9418 186.4939 -261.3423 772.4492
167.0593 187.0869 -261.3423 773.4474
166.1712 187.6718 -261.3423 774.4488
165.2778 188.2490 -261.3423 775.4465
164.3789 188.8181 -261.3423 776.4460
163.4744 189.3790 -261.3423 777.4461
162.5646 189.9316 -261.3423 778.4451
161.6492 190.4757 -261.3423 779.4441
160.7283 191.0110 -261.3422 780.4435
159.8022 191.5376 -261.3422 781.4425
158.8706 192.0552 -261.3422 782.4421
157.9336 192.5635 -261.3422 783.4414
156.9915 193.0627 -261.3422 784.4409
156.0443 193.5522 -261.3422 785.4394
155.0920 194.0324 -261.3422 786.4395
154.1349 194.5029 -261.3422 787.4383
153.1729 194.9634 -261.3422 788.4374
152.2064 195.4143 -261.3422 789.4376
151.2354 195.8553 -261.3422 790.4362
150.2601 196.2866 -261.3421 791.4354
149.2808 196.7082 -261.3421 792.4348
148.2973 197.1199 -261.3421 793.4343
147.3102 197.5220 -261.3421 794.4335
146.3194 197.9144 -261.3421 795.4333
145.3250 198.2972 -261.3421 796.4310
144.3274 198.6707 -261.3421 797.4318
143.3265 199.0346 -261.3421 798.4306
142.3225 199.3893 -261.3420 799.4300
141.3156 199.7347 -261.3420 800.4295
140.3057 200.0708 -261.3420 801.4282
139.2930 200.3977 -261.3420 802.4280
138.2776 200.7154 -261.3420 803.4267
137.2596 201.0240 -261.3420 804.4268
136.2391 201.3237 -261.3420 805.4257
135.2160 201.6142 -261.3420 806.4247
134.1905 201.8957 -261.3419 807.4241
133.1627 202.1682 -261.3419 808.4230
132.1325 202.4316 -261.3419 809.4235
131.1001 202.6862 -261.3419 810.4214
130.0654 202.9318 -261.3419 811.4220
129.0286 203.1683 -261.3419 812.4205
127.9897 203.3960 -261.3419 813.4197
126.9487 203.6145 -261.3419 814.4197
125.9057 203.8238 -261.3419 815.4178
124.8607 204.0241 -261.3418 816.4182
123.8139 204.2152 -261.3418 817.4171
122.7652 204.3970 -261.3418 818.4161
121.7148 204.5696 -261.3418 819.4155
120.6626 204.7325 -261.3418 820.4155
119.6089 204.8858 -261.3418 821.4137
118.5536 205.0296 -261.3418 822.4130
117.4968 205.1635 -261.3417 823.4137
116.4386 205.2876 -261.3417 824.4116
115.3792 205.4018 -261.3417 825.4117
114.3186 205.5057 -261.3417 826.4103
113.2569 205.5997 -261.3417 827.4099
112.1943 205.6835 -261.3417 828.4093
111.1309 205.7570 -261.3416 829.4090
110.0667 205.8204 -261.3416 830.4082
109.0019 205.8734 -261.3416 831.4061
107.9366 205.9161 -261.3416 832.4069
106.8709 205.9485 -261.3416 833.4058
105.8050 205.9704 -261.3416 834.4050
104.7389 205.9821 -261.3416 835.4039
103.6727 205.9833 -261.3415 836.4035
102.6066 205.9741 -261.3415 837.4033
101.5406 205.9547 -261.3415 838.4019
100.4750 205.9248 -261.3415 839.4017
99.4096 205.8847 -261.3415 840.4000
98.3447 205.8343 -261.3414 841.4006
97.2804 205.7735 -261.3414 842.3987
96.2166 205.7027 -261.3414 843.3992
95.1536 205.6214 -261.3414 844.3975
94.0914 205.5300 -261.3414 845.3970
93.0300 205.4284 -261.3413 846.3960
91.9695 205.3164 -261.3413 847.3961
90.9101 205.1943 -261.3413 848.3949
89.8519 205.0618 -261.3413 849.3941
88.7948 204.9191 -261.3412 850.3934
87.7391 204.7660 -261.3412 851.3938
86.6848 204.6024 -261.3412 852.3917
85.6320 204.4284 -261.3412 853.3911
84.5810 204.2438 -261.3412 854.3906
83.5318 204.0487 -261.3412 855.3903
82.4845 203.8429 -261.3412 856.3888
81.4393 203.6265 -261.3411 857.3892
80.3963 203.3995 -261.3411 858.3880
79.3558 203.1618 -261.3411 859.3868
78.3176 202.9136 -261.3411 860.3870
77.2821 202.6550 -261.3410 861.3853
76.2494 202.3858 -261.3410 862.3847
75.2195 202.1065 -261.3410 863.3848
74.1926 201.8172 -261.3410 864.3839
73.1686 201.5180 -261.3410 865.3823
72.1477 201.2093 -261.3409 866.3824
71.1299 200.8911 -261.3409 867.3814
70.1153 200.5637 -261.3409 868.3805
69.1038 200.2273 -261.3409 869.3804
68.0957 199.8818 -261.3409 870.3793
67.0909 199.5276 -261.3408 871.3785
66.0893 199.1649 -261.3408 872.3779
65.0912 198.7936 -261.3408 873.3773
64.0964 198.4139 -261.3408 874.3760
63.1050 198.0259 -261.3407 875.3762
62.1172 197.6293 -261.3407 876.3749
61.1329 197.2244 -261.3407 877.3738
60.1523 196.8112 -261.3407 878.3744
59.1753 196.3896 -261.3407 879.3732
58.2022 195.9596 -261.3406 880.3715
57.2330 195.5211 -261.3406 881.3719
56.2679 195.0738 -261.3406 882.3708
55.3070 194.6178 -261.3406 883.3692
54.3504 194.1531 -261.3405 884.3703
53.3982 193.6796 -261.3405 885.3680
52.4506 193.1974 -261.3405 886.3682
51.5076 192.7061 -261.3405 887.3670
50.5696 192.2058 -261.3405 888.3663
49.6364 191.6967 -261.3404 889.3663
48.7083 191.1786 -261.3404 890.3647
47.7853 190.6516 -261.3404 891.3644
46.8675 190.1159 -261.3404 892.3635
45.9551 189.5713 -261.3403 893.3628
45.0479 189.0182 -261.3403 894.3623
44.1462 188.4564 -261.3403 895.3614
43.2500 187.8859 -261.3403 896.3611
42.3593 187.3072 -261.3402 897.3599
41.4743 186.7199 -261.3402 898.3596
40.5947 186.1245 -261.3402 899.3589
39.7209 185.5210 -261.3402 900.3577
38.8528 184.9091 -261.3401 901.3575
37.9904 184.2893 -261.3401 902.3561
37.1338 183.6615 -261.3401 903.3557
36.2831 183.0257 -261.3401 904.3552
35.4382 182.3823 -261.3401 905.3541
34.5993 181.7308 -261.3400 906.3540
33.7663 181.0718 -261.3400 907.3529
32.9395 180.4050 -261.3400 908.3520
32.1188 179.7306 -261.3400 909.3517
31.3041 179.0488 -261.3399 910.3510
30.4956 178.3595 -261.3399 911.3494
29.6934 177.6629 -261.3399 912.3500
28.8973 176.9590 -261.3399 913.3487
28.1076 176.2480 -261.3398 914.3478
27.3241 175.5299 -261.3398 915.3475
26.5470 174.8048 -261.3398 916.3460
25.7762 174.0729 -261.3398 917.3459
25.0118 173.3343 -261.3398 918.3450
24.2538 172.5888 -261.3397 919.3447
23.5021 171.8368 -261.3397 920.3436
22.7569 171.0782 -261.3397 921.3432
22.0182 170.3131 -261.3397 922.3419
21.2858 169.5417 -261.3396 923.3417
20.5600 168.7638 -261.3396 924.3409
19.8409 167.9796 -261.3396 925.3399
19.1283 167.1892 -261.3396 926.3400
18.4227 166.3923 -261.3395 927.3384
17.7239 165.5892 -261.3395 928.3381
17.0323 164.7796 -261.3395 929.3369
16.3481 163.9636 -261.3395 930.3366
15.6713 163.1412 -261.3394 931.3356
15.0023 162.3122 -261.3394 932.3354
14.3413 161.4768 -261.3394 933.3344
13.6883 160.6349 -261.3394 934.3337
13.0438 159.7865 -261.3394 935.3330
12.4077 158.9318 -261.3394 936.3320
11.7804 158.0708 -261.3393 937.3320
11.1618 157.2036 -261.3393 938.3306
10.5520 156.3303 -261.3393 939.3301
9.9514 155.4511 -261.3393 940.3295
9.3596 154.5661 -261.3392 941.3283
8.7770 153.6755 -261.3392 942.3284
8.2033 152.7795 -261.3392 943.3271
7.6384 151.8784 -261.3392 944.3267
7.0824 150.9722 -261.3391 945.3262
6.5350 150.0612 -261.3391 946.3251
5.9964 149.1455 -261.3391 947.3242
5.4663 148.2252 -261.3391 948.3234
4.9447 147.3005 -261.3391 949.3230
4.4316 146.3714 -261.3390 950.3229
3.9267 145.4381 -261.3390 951.3213
3.4301 144.5006 -261.3390 952.3210
2.9418 143.5588 -261.3390 953.3199
2.4614 142.6131 -261.3389 954.3195
1.9892 141.6632 -261.3389 955.3189
1.5249 140.7093 -261.3389 956.3179
1.0685 139.7514 -261.3389 957.3173
0.6202 138.7893 -261.3389 958.3164
0.1798 137.8232 -261.3388 959.3163
-0.2526 136.8530 -261.3388 960.3149
-0.6767 135.8786 -261.3388 961.3144
-1.0928 134.9001 -261.3388 962.3137
-1.5003 133.9173 -261.3387 963.3130
-1.8992 132.9303 -261.3387 964.3121
-2.2893 131.9391 -261.3387 965.3120
-2.6702 130.9436 -261.3387 966.3109
-3.0418 129.9438 -261.3387 967.3104
-3.4037 128.9399 -261.3387 968.3094
-3.7557 127.9318 -261.3386 969.3090
-4.0974 126.9197 -261.3386 970.3076
-4.4286 125.9036 -261.3386 971.3076
-4.7492 124.8838 -261.3386 972.3068
-5.0589 123.8605 -261.3386 973.3058
-5.3578 122.8338 -261.3385 974.3053
-5.6457 121.8040 -261.3385 975.3040
-5.9227 120.7715 -261.3385 976.3042
-6.1890 119.7364 -261.3385 977.3029
-6.4444 118.6990 -261.3385 978.3022
-6.6894 117.6596 -261.3384 979.3016
-6.9239 116.6184 -261.3384 980.3012
-7.1483 115.5759 -261.3384 981.2999
-7.3627 114.5321 -261.3384 982.2999
-7.5673 113.4873 -261.3383 983.2988
-7.7625 112.4419 -261.3383 984.2980
-7.9482 111.3958 -261.3383 985.2974
-8.1251 110.3495 -261.3383 986.2969
-8.2930 109.3030 -261.3383 987.2957
-8.4524 108.2566 -261.3383 988.2954
-8.6035 107.2104 -261.3383 989.2945
-8.7465 106.1645 -261.3382 990.2936
-8.8817 105.1191 -261.3382 991.2935
-9.0093 104.0742 -261.3382 992.2921
-9.1293 103.0301 -261.3382 993.2917
-9.2421 101.9868 -261.3382 994.2908
-9.3479 100.9444 -261.3382 995.2903
-9.4468 99.9030 -261.3381 996.2899
-9.5391 98.8627 -261.3381 997.2884
-9.6248 97.8236 -261.3381 998.2879
-9.7044 96.7856 -261.3381 999.2874
-9.7780 95.7490 -261.3381 1000.2871
-9.8456 94.7136 -261.3381 1001.2862
-9.9077 93.6796 -261.3380 1002.2850
-9.9645 92.6471 -261.3380 1003.2843
-10.0161 91.6160 -261.3380 1004.2842
-10.0629 90.5863 -261.3380 1005.2833
-10.1049 89.5581 -261.3380 1006.2823
-10.1424 88.5313 -261.3380 1007.2815
-10.1759 87.5060 -261.3380 1008.2808
-10.2054 86.4822 -261.3380 1009.2804
-10.2311 85.4597 -261.3379 1010.2797
-10.2535 84.4387 -261.3379 1011.2791
-10.2726 83.4190 -261.3379 1012.2776
-10.2885 82.4007 -261.3379 1013.2771
-10.3017 81.3836 -261.3379 1014.2770
-10.3122 80.3678 -261.3379 1015.2758
-10.3202 79.3532 -261.3379 1016.2753
-10.3258 78.3398 -261.3378 1017.2750
-10.3293 77.3274 -261.3378 1018.2742
-10.3307 76.3161 -261.3378 1019.2725
-10.3301 75.3058 -261.3378 1020.2728
-10.3278 74.2965 -261.3378 1021.2715
-10.3237 73.2880 -261.3378 1022.2710
-10.3182 72.2805 -261.3378 1023.2701
-10.3113 71.2737 -261.3378 1024.2694
-10.3030 70.2677 -261.3377 1025.2692
-10.2936 69.2625 -261.3377 1026.2682
-10.2831 68.2580 -261.3377 1027.2675
-10.2716 67.2541 -261.3377 1028.2668
-10.2593 66.2509 -261.3377 1029.2655
-10.2461 65.2483 -261.3377 1030.2653
-10.2323 64.2462 -261.3377 1031.2650
-10.2179 63.2448 -261.3377 1032.2638
-10.2031 62.2438 -261.3377 1033.2633
-10.1878 61.2434 -261.3376 1034.2622
-10.1723 60.2435 -261.3376 1035.2618
-10.1565 59.2440 -261.3376 1036.2609
-10.1405 58.2450 -261.3376 1037.2600
-10.1245 57.2464 -261.3376 1038.2596
-10.1085 56.2482 -261.3376 1039.2589
-10.0925 55.2505 -261.3376 1040.2585
-10.0766 54.2531 -261.3376 1041.2572
-10.0609 53.2560 -261.3376 1042.2568
-10.0454 52.2592 -261.3376 1043.2562
-10.0301 51.2627 -261.3376 1044.2552
-10.0152 50.2665 -261.3376 1045.2545
-10.0005 49.2705 -261.3376 1046.2540
-9.9862 48.2747 -261.3376 1047.2532
-9.9723 47.2789 -261.3375 1048.2522
-9.9587 46.2833 -261.3375 1049.2515
-9.9456 45.2878 -261.3375 1050.2513
-9.9328 44.2922 -261.3375 1051.2506
-9.9205 43.2965 -261.3375 1052.2494
-9.9086 42.3008 -261.3375 1053.2491
-9.8971 41.3049 -261.3375 1054.2480
-9.8859 40.3088 -261.3375 1055.2477
-9.8750 39.3125 -261.3375 1056.2468
-9.8643 38.3159 -261.3375 1057.2461
-9.8537 37.3189 -261.3375 1058.2452
-9.8432 36.3216 -261.3375 1059.2443
-9.8325 35.3238 -261.3375 1060.2443
-9.8214 34.3256 -261.3375 1061.2428
-9.8098 33.3269 -261.3375 1062.2417
