VERSION 0.7
FIELDS x y z time
SIZE 4 4 4 4
TYPE F F F F
COUNT 1 1 1 1
WIDTH 1064
HEIGHT 1
VIEWPOINT 0.000 0.000 0.000 1.000 0.000 0.000 0.000
POINTS 1064
DATA ascii
-0.6914 33.4016 -261.3375 0.0000
-0.6699 32.4024 -261.3374 0.0201
-0.6484 31.4034 -261.3374 0.0402
-0.6268 30.4045 -261.3374 0.0602
-0.6053 29.4057 -261.3374 0.0802
-0.5837 28.4071 -261.3374 0.1002
-0.5621 27.4085 -261.3374 0.1201
-0.5405 26.4101 -261.3374 0.1400
-0.5190 25.4117 -261.3374 0.1599
-0.4975 24.4135 -261.3374 0.1797
-0.4761 23.4154 -261.3374 0.1995
-0.4547 22.4174 -261.3374 0.2192
-0.4334 21.4194 -261.3374 0.2389
-0.4122 20.4216 -261.3374 0.2585
-0.3911 19.4238 -261.3374 0.2781
-0.3701 18.4262 -261.3374 0.2977
-0.3493 17.4286 -261.3374 0.3172
-0.3286 16.4312 -261.3374 0.3367
-0.3080 15.4338 -261.3374 0.3561
-0.2876 14.4366 -261.3374 0.3755
-0.2673 13.4394 -261.3374 0.3948
-0.2473 12.4423 -261.3374 0.4141
-0.2274 11.4453 -261.3374 0.4333
-0.2078 10.4483 -261.3374 0.4525
-0.1884 9.4513 -261.3374 0.4716
-0.1692 8.4544 -261.3374 0.4907
-0.1503 7.4575 -261.3374 0.5098
-0.1316 6.4604 -261.3374 0.5288
-0.1132 5.4634 -261.3374 0.5477
-0.0950 4.4661 -261.3374 0.5667
-0.0772 3.4687 -261.3374 0.5855
-0.0596 2.4711 -261.3374 0.6044
-0.0424 1.4732 -261.3374 0.6232
-0.0255 0.4750 -261.3374 0.6419
-0.0089 -0.5235 -261.3374 0.6606
0.0074 -1.5224 -261.3374 0.6793
0.0233 -2.5218 -261.3374 0.6979
0.0388 -3.5216 -261.3374 0.7166
0.0540 -4.5219 -261.3374 0.7351
0.0688 -5.5226 -261.3374 0.7537
0.0832 -6.5238 -261.3374 0.7722
0.0972 -7.5254 -261.3374 0.7907
0.1109 -8.5273 -261.3374 0.8091
0.1243 -9.5296 -261.3374 0.8275
0.1373 -10.5320 -261.3374 0.8459
0.1499 -11.5346 -261.3374 0.8642
0.1622 -12.5372 -261.3374 0.8825
0.1742 -13.5397 -261.3374 0.9007
0.1859 -14.5420 -261.3374 0.9189
0.1973 -15.5441 -261.3374 0.9371
0.2084 -16.5458 -261.3374 0.9552
0.2193 -17.5472 -261.3374 0.9733
0.2299 -18.5481 -261.3374 0.9913
0.2402 -19.5488 -261.3374 1.0093
0.2503 -20.5490 -261.3374 1.0273
0.2603 -21.5489 -261.3374 1.0452
0.2700 -22.5484 -261.3374 1.0631
0.2795 -23.5476 -261.3374 1.0810
0.2888 -24.5466 -261.3374 1.0988
0.2980 -25.5453 -261.3374 1.1166
0.3070 -26.5438 -261.3374 1.1344
0.3159 -27.5421 -261.3375 1.1521
0.3247 -28.5403 -261.3375 1.1699
0.3334 -29.5385 -261.3375 1.1875
0.3420 -30.5365 -261.3375 1.2052
0.3505 -31.5346 -261.3375 1.2229
0.3590 -32.5327 -261.3375 1.2405
0.3674 -33.5309 -261.3375 1.2582
0.3757 -34.5291 -261.3375 1.2758
0.3841 -35.5274 -261.3375 1.2934
0.3924 -36.5258 -261.3375 1.3110
0.4008 -37.5243 -261.3375 1.3286
0.4091 -38.5229 -261.3375 1.3462
0.4175 -39.5216 -261.3375 1.3637
0.4259 -40.5204 -261.3375 1.3813
0.4344 -41.5193 -261.3375 1.3989
0.4430 -42.5183 -261.3375 1.4165
0.4516 -43.5174 -261.3376 1.4340
0.4603 -44.5165 -261.3376 1.4516
0.4692 -45.5157 -261.3376 1.4692
0.4782 -46.5149 -261.3376 1.4868
0.4873 -47.5142 -261.3376 1.5044
0.4965 -48.5135 -261.3376 1.5220
0.5060 -49.5129 -261.3376 1.5396
0.5156 -50.5122 -261.3376 1.5573
0.5254 -51.5117 -261.3376 1.5749
0.5354 -52.5111 -261.3376 1.5926
0.5456 -53.5105 -261.3376 1.6102
0.5560 -54.5099 -261.3376 1.6279
0.5667 -55.5093 -261.3376 1.6456
0.5777 -56.5087 -261.3376 1.6634
0.5889 -57.5081 -261.3376 1.6811
0.6004 -58.5074 -261.3377 1.6989
0.6122 -59.5067 -261.3377 1.7167
0.6244 -60.5059 -261.3377 1.7346
0.6368 -61.5051 -261.3377 1.7524
0.6496 -62.5042 -261.3377 1.7703
0.6628 -63.5033 -261.3377 1.7883
0.6763 -64.5023 -261.3377 1.8062
0.6902 -65.5013 -261.3377 1.8243
0.7046 -66.5002 -261.3377 1.8423
0.7193 -67.4991 -261.3377 1.8604
0.7346 -68.4980 -261.3378 1.8785
0.7503 -69.4969 -261.3378 1.8967
0.7666 -70.4958 -261.3378 1.9149
0.7834 -71.4946 -261.3378 1.9332
0.8009 -72.4934 -261.3378 1.9515
0.8191 -73.4921 -261.3378 1.9699
0.8380 -74.4909 -261.3378 1.9883
0.8580 -75.4896 -261.3378 2.0068
0.8789 -76.4882 -261.3378 2.0254
0.9009 -77.4868 -261.3379 2.0440
0.9242 -78.4853 -261.3379 2.0627
0.9489 -79.4837 -261.3379 2.0814
0.9751 -80.4820 -261.3379 2.1002
1.0028 -81.4802 -261.3379 2.1191
1.0323 -82.4783 -261.3379 2.1380
1.0637 -83.4762 -261.3379 2.1571
1.0971 -84.4738 -261.3380 2.1761
1.1326 -85.4713 -261.3380 2.1953
1.1703 -86.4686 -261.3380 2.2146
1.2104 -87.4655 -261.3380 2.2339
1.2530 -88.4622 -261.3380 2.2533
1.2982 -89.4585 -261.3380 2.2727
1.3461 -90.4545 -261.3380 2.2923
1.3970 -91.4501 -261.3380 2.3120
1.4508 -92.4452 -261.3380 2.3317
1.5077 -93.4398 -261.3381 2.3515
1.5679 -94.4339 -261.3381 2.3714
1.6314 -95.4275 -261.3381 2.3914
1.6984 -96.4204 -261.3381 2.4115
1.7690 -97.4126 -261.3381 2.4316
1.8433 -98.4041 -261.3381 2.4519
1.9215 -99.3948 -261.3381 2.4723
2.0037 -100.3846 -261.3382 2.4927
2.0899 -101.3735 -261.3382 2.5132
2.1803 -102.3615 -261.3382 2.5338
2.2751 -103.3485 -261.3382 2.5546
2.3743 -104.3343 -261.3382 2.5754
2.4780 -105.3190 -261.3382 2.5963
2.5864 -106.3026 -261.3383 2.6173
2.6996 -107.2848 -261.3383 2.6383
2.8176 -108.2657 -261.3383 2.6595
2.9407 -109.2453 -261.3383 2.6808
3.0689 -110.2234 -261.3383 2.7021
3.2023 -111.2000 -261.3383 2.7235
3.3410 -112.1750 -261.3383 2.7450
3.4852 -113.1485 -261.3384 2.7666
3.6349 -114.1203 -261.3384 2.7883
3.7903 -115.0903 -261.3384 2.8101
3.9515 -116.0586 -261.3384 2.8319
4.1185 -117.0251 -261.3384 2.8538
4.2914 -117.9897 -261.3384 2.8758
4.4704 -118.9524 -261.3385 2.8978
4.6555 -119.9131 -261.3385 2.9199
4.8468 -120.8718 -261.3385 2.9421
5.0445 -121.8285 -261.3385 2.9643
5.2485 -122.7830 -261.3385 2.9866
5.4590 -123.7354 -261.3386 3.0090
5.6762 -124.6856 -261.3386 3.0314
5.9000 -125.6335 -261.3386 3.0538
6.1307 -126.5791 -261.3386 3.0763
6.3684 -127.5224 -261.3386 3.0988
6.6131 -128.4633 -261.3387 3.1214
6.8650 -129.4017 -261.3387 3.1440
7.1242 -130.3376 -261.3387 3.1666
7.3909 -131.2709 -261.3387 3.1893
7.6650 -132.2017 -261.3387 3.2120
7.9466 -133.1298 -261.3387 3.2348
8.2360 -134.0553 -261.3388 3.2575
8.5332 -134.9781 -261.3388 3.2804
8.8383 -135.8981 -261.3388 3.3032
9.1512 -136.8153 -261.3388 3.3261
9.4723 -137.7297 -261.3388 3.3490
9.8014 -138.6412 -261.3389 3.3719
10.1386 -139.5498 -261.3389 3.3948
10.4840 -140.4555 -261.3389 3.4177
10.8376 -141.3581 -261.3389 3.4407
11.1994 -142.2578 -261.3390 3.4637
11.5695 -143.1543 -261.3390 3.4867
11.9478 -144.0477 -261.3390 3.5097
12.3344 -144.9379 -261.3390 3.5328
12.7293 -145.8249 -261.3391 3.5558
13.1323 -146.7085 -261.3391 3.5789
13.5437 -147.5887 -261.3391 3.6020
13.9632 -148.4654 -261.3391 3.6251
14.3909 -149.3385 -261.3391 3.6482
14.8268 -150.2079 -261.3391 3.6713
15.2708 -151.0735 -261.3392 3.6944
15.7230 -151.9353 -261.3392 3.7176
16.1832 -152.7930 -261.3392 3.7408
16.6514 -153.6467 -261.3392 3.7639
17.1276 -154.4962 -261.3393 3.7871
17.6117 -155.3414 -261.3393 3.8103
18.1037 -156.1822 -261.3393 3.8335
18.6035 -157.0184 -261.3393 3.8567
19.1110 -157.8501 -261.3394 3.8800
19.6263 -158.6770 -261.3394 3.9032
20.1492 -159.4990 -261.3394 3.9264
20.6797 -160.3161 -261.3394 3.9496
21.2177 -161.1282 -261.3394 3.9729
21.7632 -161.9351 -261.3394 3.9961
22.3160 -162.7368 -261.3395 4.0193
22.8762 -163.5332 -261.3395 4.0426
23.4436 -164.3241 -261.3395 4.0658
24.0182 -165.1095 -261.3395 4.0890
24.5999 -165.8893 -261.3396 4.1122
25.1887 -166.6635 -261.3396 4.1354
25.7845 -167.4319 -261.3396 4.1587
26.3872 -168.1946 -261.3396 4.1819
26.9969 -168.9514 -261.3397 4.2051
27.6134 -169.7022 -261.3397 4.2283
28.2367 -170.4471 -261.3397 4.2515
28.8667 -171.1860 -261.3397 4.2747
29.5034 -171.9189 -261.3398 4.2979
30.1469 -172.6456 -261.3398 4.3210
30.7969 -173.3662 -261.3398 4.3442
31.4536 -174.0806 -261.3398 4.3674
32.1168 -174.7889 -261.3398 4.3906
32.7866 -175.4909 -261.3398 4.4138
33.4628 -176.1867 -261.3399 4.4370
34.1456 -176.8761 -261.3399 4.4601
34.8349 -177.5593 -261.3399 4.4833
35.5305 -178.2361 -261.3399 4.5065
36.2326 -178.9065 -261.3400 4.5297
36.9410 -179.5704 -261.3400 4.5529
37.6558 -180.2280 -261.3400 4.5762
38.3769 -180.8790 -261.3400 4.5994
39.1043 -181.5234 -261.3401 4.6226
39.8379 -182.1613 -261.3401 4.6459
40.5777 -182.7925 -261.3401 4.6691
41.3236 -183.4170 -261.3401 4.6924
42.0757 -184.0347 -261.3401 4.7156
42.8337 -184.6456 -261.3402 4.7389
43.5977 -185.2496 -261.3402 4.7622
44.3675 -185.8466 -261.3402 4.7855
45.1432 -186.4365 -261.3402 4.8088
45.9246 -187.0194 -261.3403 4.8321
46.7116 -187.5951 -261.3403 4.8554
47.5041 -188.1635 -261.3403 4.8787
48.3022 -188.7245 -261.3403 4.9020
49.1056 -189.2782 -261.3404 4.9254
49.9142 -189.8244 -261.3404 4.9487
50.7281 -190.3631 -261.3404 4.9720
51.5470 -190.8942 -261.3404 4.9954
52.3710 -191.4176 -261.3405 5.0187
53.1998 -191.9332 -261.3405 5.0420
54.0334 -192.4411 -261.3405 5.0654
54.8718 -192.9412 -261.3405 5.0887
55.7148 -193.4333 -261.3405 5.1120
56.5623 -193.9175 -261.3406 5.1354
57.4143 -194.3937 -261.3406 5.1587
58.2707 -194.8619 -261.3406 5.1820
59.1314 -195.3221 -261.3406 5.2054
59.9963 -195.7741 -261.3406 5.2287
60.8653 -196.2179 -261.3407 5.2520
61.7385 -196.6536 -261.3407 5.2754
62.6156 -197.0811 -261.3407 5.2987
63.4967 -197.5003 -261.3407 5.3220
64.3816 -197.9112 -261.3408 5.3453
65.2703 -198.3138 -261.3408 5.3687
66.1628 -198.7080 -261.3408 5.3920
67.0589 -199.0939 -261.3408 5.4153
67.9585 -199.4713 -261.3409 5.4386
68.8617 -199.8403 -261.3409 5.4620
69.7682 -200.2008 -261.3409 5.4853
70.6781 -200.5528 -261.3409 5.5086
71.5913 -200.8963 -261.3409 5.5319
72.5076 -201.2312 -261.3409 5.5553
73.4270 -201.5574 -261.3410 5.5786
74.3494 -201.8750 -261.3410 5.6019
75.2747 -202.1840 -261.3410 5.6253
76.2028 -202.4843 -261.3410 5.6486
77.1337 -202.7758 -261.3411 5.6719
78.0672 -203.0586 -261.3411 5.6952
79.0032 -203.3326 -261.3411 5.7186
79.9417 -203.5978 -261.3411 5.7419
80.8826 -203.8542 -261.3411 5.7652
81.8258 -204.1017 -261.3412 5.7885
82.7713 -204.3404 -261.3412 5.8119
83.7188 -204.5702 -261.3412 5.8352
84.6684 -204.7910 -261.3412 5.8585
85.6200 -205.0030 -261.3412 5.8818
86.5735 -205.2060 -261.3412 5.9051
87.5289 -205.4001 -261.3413 5.9285
88.4860 -205.5852 -261.3413 5.9518
89.4447 -205.7613 -261.3413 5.9751
90.4051 -205.9284 -261.3413 5.9984
91.3670 -206.0865 -261.3413 6.0218
92.3304 -206.2356 -261.3414 6.0451
93.2952 -206.3757 -261.3414 6.0684
94.2614 -206.5067 -261.3414 6.0917
95.2288 -206.6287 -261.3414 6.1151
96.1974 -206.7416 -261.3414 6.1384
97.1671 -206.8454 -261.3415 6.1617
98.1378 -206.9402 -261.3415 6.1851
99.1095 -207.0258 -261.3415 6.2084
100.0821 -207.1023 -261.3415 6.2318
101.0556 -207.1697 -261.3415 6.2551
102.0297 -207.2280 -261.3416 6.2785
103.0045 -207.2771 -261.3416 6.3018
103.9798 -207.3170 -261.3416 6.3252
104.9556 -207.3478 -261.3416 6.3486
105.9318 -207.3695 -261.3416 6.3719
106.9082 -207.3820 -261.3416 6.3953
107.8848 -207.3852 -261.3416 6.4187
108.8615 -207.3793 -261.3417 6.4421
109.8381 -207.3643 -261.3417 6.4654
110.8146 -207.3400 -261.3417 6.4888
111.7908 -207.3066 -261.3417 6.5122
112.7666 -207.2640 -261.3417 6.5356
113.7419 -207.2122 -261.3417 6.5590
114.7167 -207.1512 -261.3418 6.5824
115.6907 -207.0811 -261.3418 6.6058
116.6639 -207.0018 -261.3418 6.6292
117.6361 -206.9134 -261.3418 6.6525
118.6072 -206.8159 -261.3418 6.6759
119.5772 -206.7093 -261.3418 6.6993
120.5459 -206.5935 -261.3419 6.7227
121.5131 -206.4688 -261.3419 6.7460
122.4789 -206.3349 -261.3419 6.7694
123.4430 -206.1921 -261.3419 6.7928
124.4054 -206.0402 -261.3419 6.8161
125.3661 -205.8794 -261.3419 6.8395
126.3249 -205.7095 -261.3419 6.8628
127.2817 -205.5308 -261.3419 6.8861
128.2365 -205.3431 -261.3419 6.9095
129.1893 -205.1466 -261.3420 6.9328
130.1399 -204.9411 -261.3420 6.9561
131.0884 -204.7268 -261.3420 6.9794
132.0346 -204.5036 -261.3420 7.0027
132.9786 -204.2716 -261.3420 7.0260
133.9203 -204.0308 -261.3420 7.0494
134.8597 -203.7811 -261.3420 7.0727
135.7967 -203.5226 -261.3420 7.0960
136.7313 -203.2553 -261.3421 7.1193
137.6635 -202.9793 -261.3421 7.1426
138.5931 -202.6944 -261.3421 7.1659
139.5202 -202.4007 -261.3421 7.1893
140.4448 -202.0983 -261.3421 7.2126
141.3667 -201.7872 -261.3421 7.2360
142.2859 -201.4672 -261.3421 7.2593
143.2023 -201.1386 -261.3421 7.2827
144.1159 -200.8012 -261.3421 7.3060
145.0265 -200.4552 -261.3422 7.3294
145.9341 -200.1005 -261.3422 7.3528
146.8386 -199.7371 -261.3422 7.3762
147.7399 -199.3652 -261.3422 7.3996
148.6378 -198.9846 -261.3422 7.4230
149.5324 -198.5956 -261.3422 7.4464
150.4234 -198.1980 -261.3422 7.4698
151.3107 -197.7920 -261.3422 7.4932
152.1943 -197.3775 -261.3422 7.5167
153.0741 -196.9548 -261.3422 7.5401
153.9499 -196.5237 -261.3423 7.5635
154.8216 -196.0843 -261.3423 7.5869
155.6891 -195.6367 -261.3423 7.6104
156.5523 -195.1810 -261.3423 7.6338
157.4111 -194.7172 -261.3423 7.6572
158.2654 -194.2453 -261.3423 7.6807
159.1150 -193.7655 -261.3423 7.7041
159.9599 -193.2778 -261.3423 7.7275
160.8000 -192.7822 -261.3423 7.7509
161.6352 -192.2789 -261.3423 7.7744
162.4654 -191.7678 -261.3423 7.7978
163.2904 -191.2491 -261.3423 7.8212
164.1103 -190.7227 -261.3423 7.8446
164.9249 -190.1889 -261.3423 7.8680
165.7342 -189.6476 -261.3423 7.8914
166.5381 -189.0988 -261.3423 7.9147
167.3364 -188.5427 -261.3423 7.9381
168.1293 -187.9793 -261.3423 7.9615
168.9165 -187.4086 -261.3423 7.9848
169.6982 -186.8307 -261.3423 8.0082
170.4741 -186.2457 -261.3423 8.0315
171.2442 -185.6535 -261.3423 8.0549
172.0086 -185.0543 -261.3423 8.0782
172.7672 -184.4480 -261.3424 8.1015
173.5199 -183.8348 -261.3424 8.1249
174.2666 -183.2146 -261.3424 8.1482
175.0074 -182.5874 -261.3424 8.1715
175.7422 -181.9534 -261.3424 8.1948
176.4710 -181.3126 -261.3424 8.2181
177.1937 -180.6650 -261.3424 8.2414
177.9103 -180.0106 -261.3424 8.2647
178.6207 -179.3495 -261.3424 8.2880
179.3250 -178.6817 -261.3424 8.3113
180.0229 -178.0073 -261.3424 8.3346
180.7146 -177.3263 -261.3424 8.3579
181.4000 -176.6387 -261.3424 8.3812
182.0790 -175.9446 -261.3424 8.4045
182.7515 -175.2441 -261.3424 8.4279
183.4176 -174.5372 -261.3424 8.4512
184.0771 -173.8239 -261.3424 8.4745
184.7301 -173.1043 -261.3424 8.4978
185.3764 -172.3785 -261.3424 8.5211
186.0159 -171.6465 -261.3424 8.5444
186.6487 -170.9085 -261.3424 8.5677
187.2746 -170.1645 -261.3424 8.5911
187.8936 -169.4145 -261.3424 8.6144
188.5057 -168.6587 -261.3424 8.6377
189.1107 -167.8971 -261.3424 8.6610
189.7085 -167.1299 -261.3424 8.6843
190.2992 -166.3571 -261.3424 8.7076
190.8826 -165.5788 -261.3423 8.7309
191.4587 -164.7952 -261.3423 8.7542
192.0274 -164.0063 -261.3423 8.7775
192.5887 -163.2122 -261.3423 8.8007
193.1425 -162.4131 -261.3423 8.8240
193.6887 -161.6089 -261.3423 8.8473
194.2273 -160.7999 -261.3423 8.8705
194.7583 -159.9861 -261.3423 8.8937
195.2816 -159.1675 -261.3423 8.9170
195.7971 -158.3443 -261.3423 8.9402
196.3049 -157.5166 -261.3423 8.9634
196.8049 -156.6844 -261.3423 8.9865
197.2971 -155.8478 -261.3423 9.0097
197.7815 -155.0069 -261.3423 9.0329
198.2579 -154.1617 -261.3423 9.0560
198.7265 -153.3122 -261.3423 9.0791
199.1872 -152.4586 -261.3423 9.1023
199.6399 -151.6010 -261.3423 9.1254
200.0847 -150.7393 -261.3423 9.1485
200.5215 -149.8736 -261.3423 9.1716
200.9504 -149.0040 -261.3423 9.1946
201.3713 -148.1305 -261.3423 9.2177
201.7841 -147.2532 -261.3423 9.2408
202.1890 -146.3722 -261.3422 9.2638
202.5858 -145.4875 -261.3422 9.2868
202.9745 -144.5992 -261.3422 9.3099
203.3552 -143.7073 -261.3422 9.3329
203.7278 -142.8120 -261.3422 9.3559
204.0923 -141.9132 -261.3422 9.3789
204.4486 -141.0112 -261.3422 9.4019
204.7969 -140.1059 -261.3422 9.4248
205.1371 -139.1974 -261.3422 9.4478
205.4691 -138.2859 -261.3422 9.4707
205.7931 -137.3713 -261.3422 9.4937
206.1090 -136.4539 -261.3421 9.5166
206.4168 -135.5336 -261.3421 9.5394
206.7166 -134.6106 -261.3421 9.5623
207.0084 -133.6850 -261.3421 9.5851
207.2923 -132.7569 -261.3421 9.6079
207.5683 -131.8263 -261.3421 9.6307
207.8366 -130.8934 -261.3421 9.6534
208.0972 -129.9583 -261.3421 9.6761
208.3502 -129.0210 -261.3421 9.6987
208.5956 -128.0817 -261.3420 9.7213
208.8336 -127.1404 -261.3420 9.7439
209.0643 -126.1972 -261.3420 9.7664
209.2878 -125.2522 -261.3420 9.7889
209.5041 -124.3054 -261.3420 9.8113
209.7135 -123.3569 -261.3420 9.8336
209.9159 -122.4067 -261.3420 9.8559
210.1115 -121.4550 -261.3420 9.8781
210.3004 -120.5016 -261.3419 9.9003
210.4827 -119.5467 -261.3419 9.9224
210.6584 -118.5902 -261.3419 9.9445
210.8277 -117.6322 -261.3419 9.9665
210.9906 -116.6726 -261.3419 9.9884
211.1473 -115.7115 -261.3419 10.0103
211.2978 -114.7489 -261.3419 10.0322
211.4424 -113.7847 -261.3419 10.0539
211.5811 -112.8189 -261.3419 10.0757
211.7139 -111.8516 -261.3419 10.0974
211.8411 -110.8827 -261.3419 10.1190
211.9628 -109.9122 -261.3418 10.1406
212.0789 -108.9400 -261.3418 10.1622
212.1898 -107.9663 -261.3418 10.1838
212.2953 -106.9909 -261.3418 10.2053
212.3958 -106.0140 -261.3418 10.2268
212.4912 -105.0354 -261.3418 10.2482
212.5817 -104.0553 -261.3418 10.2697
212.6674 -103.0736 -261.3418 10.2911
212.7483 -102.0905 -261.3417 10.3125
212.8247 -101.1059 -261.3417 10.3339
212.8965 -100.1200 -261.3417 10.3552
212.9640 -99.1327 -261.3417 10.3766
213.0271 -98.1442 -261.3417 10.3979
213.0861 -97.1545 -261.3417 10.4192
213.1410 -96.1637 -261.3417 10.4405
213.1920 -95.1719 -261.3417 10.4618
213.2391 -94.1792 -261.3417 10.4830
213.2824 -93.1856 -261.3416 10.5043
213.3222 -92.1912 -261.3416 10.5255
213.3584 -91.1961 -261.3416 10.5467
213.3912 -90.2004 -261.3416 10.5678
213.4207 -89.2041 -261.3416 10.5890
213.4471 -88.2073 -261.3416 10.6101
213.4704 -87.2101 -261.3416 10.6312
213.4908 -86.2125 -261.3416 10.6523
213.5085 -85.2146 -261.3416 10.6734
213.5234 -84.2164 -261.3416 10.6944
213.5357 -83.2179 -261.3416 10.7155
213.5456 -82.2193 -261.3416 10.7365
213.5532 -81.2205 -261.3416 10.7574
213.5586 -80.2216 -261.3415 10.7784
213.5619 -79.2226 -261.3415 10.7994
213.5632 -78.2235 -261.3415 10.8203
213.5627 -77.2243 -261.3415 10.8412
213.5605 -76.2251 -261.3415 10.8621
213.5567 -75.2259 -261.3415 10.8829
213.5515 -74.2266 -261.3415 10.9038
213.5448 -73.2274 -261.3415 10.9246
213.5370 -72.2281 -261.3415 10.9454
213.5281 -71.2289 -261.3415 10.9662
213.5181 -70.2296 -261.3415 10.9870
213.5073 -69.2304 -261.3414 11.0077
213.4958 -68.2312 -261.3414 11.0284
213.4836 -67.2320 -261.3414 11.0491
213.4709 -66.2328 -261.3414 11.0698
213.4577 -65.2337 -261.3414 11.0904
213.4442 -64.2345 -261.3414 11.1111
213.4304 -63.2354 -261.3414 11.1317
213.4164 -62.2363 -261.3414 11.1522
213.4023 -61.2371 -261.3414 11.1728
213.3879 -60.2380 -261.3414 11.1933
213.3734 -59.2388 -261.3414 11.2138
213.3587 -58.2397 -261.3414 11.2343
213.3439 -57.2405 -261.3414 11.2547
213.3289 -56.2413 -261.3413 11.2751
213.3139 -55.2421 -261.3413 11.2955
213.2987 -54.2430 -261.3413 11.3159
213.2834 -53.2438 -261.3413 11.3362
213.2681 -52.2446 -261.3413 11.3565
213.2525 -51.2454 -261.3413 11.3768
213.2369 -50.2463 -261.3413 11.3970
213.2212 -49.2471 -261.3413 11.4172
213.2054 -48.2480 -261.3413 11.4374
213.1895 -47.2489 -261.3413 11.4575
213.1736 -46.2498 -261.3413 11.4776
213.1575 -45.2508 -261.3413 11.4977
213.1413 -44.2519 -261.3413 11.5177
213.1251 -43.2529 -261.3413 11.5377
213.1088 -42.2541 -261.3413 11.5577
213.0924 -41.2552 -261.3412 11.5776
213.0759 -40.2565 -261.3412 11.5975
213.0594 -39.2578 -261.3412 11.6174
213.0428 -38.2591 -261.3412 11.6372
213.0262 -37.2605 -261.3412 11.6569
213.0095 -36.2620 -261.3412 11.6767
212.9927 -35.2635 -261.3412 11.6964
212.9759 -34.2650 -261.3412 11.7160
212.9590 -33.2665 -261.3412 11.7356
212.9421 -32.2681 -261.3412 11.7552
212.9252 -31.2696 -261.3412 11.7747
212.9082 -30.2712 -261.3412 11.7942
212.8912 -29.2727 -261.3412 11.8136
212.8741 -28.2742 -261.3412 11.8330
212.8570 -27.2756 -261.3412 11.8524
212.8399 -26.2769 -261.3412 11.8717
212.8227 -25.2782 -261.3412 11.8909
212.8056 -24.2795 -261.3412 11.9101
212.7884 -23.2806 -261.3412 11.9293
212.7712 -22.2816 -261.3412 11.9484
212.7539 -21.2826 -261.3412 11.9675
212.7367 -20.2835 -261.3412 11.9865
212.7195 -19.2842 -261.3412 12.0055
212.7022 -18.2849 -261.3412 12.0245
212.6850 -17.2855 -261.3412 12.0434
212.6678 -16.2860 -261.3412 12.0622
212.6505 -15.2864 -261.3412 12.0810
212.6333 -14.2867 -261.3412 12.0998
212.6161 -13.2870 -261.3412 12.1185
212.5989 -12.2872 -261.3411 12.1372
212.5817 -11.2873 -261.3411 12.1559
212.5645 -10.2875 -261.3411 12.1745
212.5474 -9.2876 -261.3411 12.1930
212.5303 -8.2877 -261.3411 12.2115
212.5132 -7.2878 -261.3411 12.2300
212.4961 -6.2879 -261.3411 12.2484
212.4791 -5.2881 -261.3411 12.2668
212.4621 -4.2882 -261.3411 12.2852
212.4451 -3.2885 -261.3411 12.3035
212.4281 -2.2888 -261.3411 12.3218
212.4112 -1.2891 -261.3411 12.3400
212.3943 -0.2896 -261.3411 12.3582
212.3774 0.7099 -261.3411 12.3763
212.3605 1.7093 -261.3411 12.3944
212.3437 2.7086 -261.3411 12.4125
212.3270 3.7078 -261.3411 12.4305
212.3102 4.7068 -261.3411 12.4485
212.2935 5.7058 -261.3411 12.4664
212.2768 6.7046 -261.3411 12.4843
212.2601 7.7033 -261.3411 12.5022
212.2435 8.7020 -261.3411 12.5200
212.2269 9.7005 -261.3411 12.5378
212.2103 10.6990 -261.3411 12.5556
212.1937 11.6974 -261.3411 12.5733
212.1772 12.6957 -261.3411 12.5910
212.1607 13.6939 -261.3411 12.6087
212.1443 14.6922 -261.3411 12.6263
212.1279 15.6904 -261.3411 12.6439
212.1115 16.6885 -261.3411 12.6615
212.0951 17.6867 -261.3411 12.6790
212.0788 18.6849 -261.3411 12.6965
212.0625 19.6831 -261.3411 12.7140
212.0462 20.6814 -261.3411 12.7315
212.0299 21.6797 -261.3411 12.7490
212.0137 22.6781 -261.3411 12.7664
211.9975 23.6766 -261.3411 12.7838
211.9814 24.6751 -261.3411 12.8012
211.9652 25.6738 -261.3411 12.8186
211.9491 26.6725 -261.3411 12.8360
211.9330 27.6714 -261.3411 12.8534
211.9170 28.6704 -261.3411 12.8707
211.9010 29.6695 -261.3411 12.8881
211.8850 30.6687 -261.3411 12.9054
211.8690 31.6680 -261.3411 12.9227
211.8531 32.6674 -261.3411 12.9400
211.8371 33.6669 -261.3411 12.9574
211.8212 34.6665 -261.3411 12.9747
211.8053 35.6661 -261.3411 12.9920
211.7895 36.6657 -261.3411 13.0093
211.7736 37.6654 -261.3411 13.0266
211.7577 38.6651 -261.3411 13.0439
211.7418 39.6648 -261.3411 13.0612
211.7259 40.6645 -261.3411 13.0785
211.7099 41.6642 -261.3411 13.0959
211.6938 42.6638 -261.3411 13.1132
211.6775 43.6635 -261.3411 13.1305
211.6611 44.6630 -261.3411 13.1479
211.6444 45.6625 -261.3411 13.1652
211.6274 46.6620 -261.3411 13.1826
211.6100 47.6613 -261.3411 13.2000
211.5921 48.6606 -261.3411 13.2174
211.5737 49.6598 -261.3412 13.2348
211.5546 50.6590 -261.3412 13.2522
211.5348 51.6580 -261.3412 13.2697
211.5142 52.6570 -261.3412 13.2872
211.4927 53.6559 -261.3412 13.3047
211.4702 54.6548 -261.3412 13.3222
211.4467 55.6535 -261.3412 13.3398
211.4220 56.6522 -261.3412 13.3574
211.3960 57.6509 -261.3412 13.3750
211.3688 58.6494 -261.3412 13.3926
211.3401 59.6479 -261.3412 13.4103
211.3100 60.6463 -261.3412 13.4280
211.2783 61.6446 -261.3412 13.4458
211.2449 62.6428 -261.3412 13.4636
211.2097 63.6409 -261.3412 13.4814
211.1727 64.6389 -261.3412 13.4993
211.1337 65.6368 -261.3412 13.5172
211.0928 66.6345 -261.3412 13.5352
211.0497 67.6320 -261.3412 13.5532
211.0045 68.6293 -261.3412 13.5713
210.9570 69.6264 -261.3412 13.5894
210.9071 70.6232 -261.3412 13.6076
210.8547 71.6197 -261.3413 13.6258
210.7999 72.6159 -261.3413 13.6441
210.7424 73.6118 -261.3413 13.6624
210.6822 74.6072 -261.3413 13.6808
210.6192 75.6021 -261.3413 13.6993
210.5534 76.5966 -261.3413 13.7178
210.4846 77.5904 -261.3413 13.7363
210.4128 78.5836 -261.3413 13.7550
210.3379 79.5762 -261.3413 13.7737
210.2598 80.5680 -261.3413 13.7924
210.1785 81.5589 -261.3414 13.8113
210.0937 82.5490 -261.3414 13.8301
210.0056 83.5382 -261.3414 13.8491
209.9139 84.5263 -261.3414 13.8681
209.8187 85.5134 -261.3414 13.8872
209.7198 86.4993 -261.3414 13.9064
209.6172 87.4841 -261.3414 13.9256
209.5108 88.4677 -261.3414 13.9449
209.4005 89.4500 -261.3414 13.9642
209.2863 90.4310 -261.3414 13.9837
209.1680 91.4107 -261.3415 14.0032
209.0455 92.3890 -261.3415 14.0228
208.9190 93.3659 -261.3415 14.0424
208.7881 94.3415 -261.3415 14.0622
208.6529 95.3155 -261.3415 14.0820
208.5133 96.2882 -261.3415 14.1019
208.3692 97.2593 -261.3415 14.1218
208.2206 98.2290 -261.3415 14.1419
208.0672 99.1973 -261.3415 14.1620
207.9092 100.1640 -261.3416 14.1822
207.7464 101.1293 -261.3416 14.2025
207.5786 102.0930 -261.3416 14.2229
207.4059 103.0553 -261.3416 14.2434
207.2282 104.0161 -261.3416 14.2640
207.0453 104.9753 -261.3416 14.2846
206.8573 105.9330 -261.3416 14.3054
206.6640 106.8891 -261.3416 14.3262
206.4653 107.8437 -261.3416 14.3471
206.2613 108.7967 -261.3416 14.3681
206.0517 109.7480 -261.3416 14.3892
205.8366 110.6977 -261.3416 14.4103
205.6159 111.6457 -261.3417 14.4316
205.3896 112.5920 -261.3417 14.4529
205.1575 113.5366 -261.3417 14.4743
204.9195 114.4793 -261.3417 14.4958
204.6758 115.4201 -261.3417 14.5174
204.4260 116.3590 -261.3417 14.5390
204.1703 117.2959 -261.3417 14.5607
203.9086 118.2308 -261.3417 14.5825
203.6407 119.1636 -261.3417 14.6043
203.3667 120.0942 -261.3417 14.6262
203.0864 121.0226 -261.3417 14.6482
202.7999 121.9487 -261.3418 14.6702
202.5070 122.8725 -261.3418 14.6923
202.2077 123.7939 -261.3418 14.7145
201.9020 124.7129 -261.3418 14.7367
201.5898 125.6294 -261.3418 14.7589
201.2710 126.5433 -261.3418 14.7812
200.9454 127.4546 -261.3418 14.8036
200.6132 128.3632 -261.3418 14.8260
200.2741 129.2691 -261.3418 14.8485
199.9281 130.1722 -261.3418 14.8710
199.5751 131.0726 -261.3418 14.8936
199.2151 131.9700 -261.3419 14.9162
198.8481 132.8645 -261.3419 14.9389
198.4738 133.7559 -261.3419 14.9616
198.0923 134.6443 -261.3419 14.9844
197.7036 135.5296 -261.3419 15.0072
197.3076 136.4117 -261.3419 15.0301
196.9042 137.2905 -261.3419 15.0530
196.4934 138.1660 -261.3419 15.0760
196.0752 139.0380 -261.3419 15.0990
195.6495 139.9064 -261.3419 15.1221
195.2163 140.7713 -261.3419 15.1452
194.7756 141.6324 -261.3419 15.1684
194.3274 142.4897 -261.3419 15.1916
193.8716 143.3430 -261.3419 15.2149
193.4083 144.1923 -261.3419 15.2382
192.9374 145.0375 -261.3419 15.2615
192.4589 145.8784 -261.3419 15.2849
191.9728 146.7149 -261.3419 15.3083
191.4791 147.5469 -261.3419 15.3317
190.9779 148.3743 -261.3419 15.3552
190.4690 149.1971 -261.3419 15.3787
189.9526 150.0150 -261.3419 15.4022
189.4286 150.8281 -261.3419 15.4257
188.8970 151.6361 -261.3419 15.4493
188.3578 152.4390 -261.3420 15.4729
187.8111 153.2368 -261.3420 15.4965
187.2569 154.0292 -261.3420 15.5201
186.6952 154.8163 -261.3420 15.5437
186.1259 155.5980 -261.3420 15.5673
185.5493 156.3742 -261.3420 15.5910
184.9651 157.1447 -261.3420 15.6146
184.3736 157.9097 -261.3420 15.6383
183.7746 158.6690 -261.3420 15.6620
183.1683 159.4225 -261.3420 15.6856
182.5547 160.1703 -261.3420 15.7093
181.9337 160.9122 -261.3420 15.7330
181.3055 161.6483 -261.3420 15.7567
180.6700 162.3784 -261.3420 15.7804
180.0273 163.1025 -261.3420 15.8041
179.3774 163.8205 -261.3420 15.8279
178.7204 164.5325 -261.3420 15.8516
178.0562 165.2384 -261.3420 15.8753
177.3849 165.9380 -261.3420 15.8991
176.7066 166.6313 -261.3420 15.9228
176.0213 167.3184 -261.3420 15.9466
175.3291 167.9990 -261.3420 15.9704
174.6300 168.6732 -261.3420 15.9942
173.9241 169.3408 -261.3420 16.0180
173.2114 170.0018 -261.3420 16.0418
172.4921 170.6561 -261.3420 16.0656
171.7662 171.3036 -261.3420 16.0894
171.0337 171.9442 -261.3420 16.1132
170.2948 172.5779 -261.3420 16.1370
169.5496 173.2046 -261.3419 16.1608
168.7980 173.8242 -261.3419 16.1847
168.0404 174.4367 -261.3419 16.2085
167.2766 175.0418 -261.3419 16.2323
166.5068 175.6396 -261.3419 16.2562
165.7311 176.2301 -261.3419 16.2800
164.9496 176.8130 -261.3419 16.3039
164.1624 177.3884 -261.3419 16.3277
163.3696 177.9562 -261.3419 16.3515
162.5712 178.5164 -261.3419 16.3753
161.7673 179.0688 -261.3419 16.3992
160.9581 179.6133 -261.3419 16.4230
160.1437 180.1501 -261.3419 16.4468
159.3240 180.6789 -261.3419 16.4706
158.4993 181.1998 -261.3419 16.4944
157.6695 181.7126 -261.3419 16.5182
156.8349 182.2174 -261.3419 16.5421
155.9953 182.7142 -261.3419 16.5658
155.1510 183.2027 -261.3419 16.5896
154.3020 183.6831 -261.3419 16.6134
153.4484 184.1553 -261.3419 16.6372
152.5903 184.6192 -261.3419 16.6610
151.7276 185.0748 -261.3419 16.6848
150.8606 185.5220 -261.3418 16.7085
149.9892 185.9610 -261.3418 16.7323
149.1135 186.3915 -261.3418 16.7561
148.2337 186.8136 -261.3418 16.7798
147.3497 187.2272 -261.3418 16.8036
146.4617 187.6324 -261.3418 16.8273
145.5697 188.0290 -261.3418 16.8511
144.6738 188.4171 -261.3418 16.8748
143.7740 188.7965 -261.3418 16.8986
142.8705 189.1674 -261.3418 16.9223
141.9634 189.5295 -261.3418 16.9461
141.0527 189.8830 -261.3417 16.9698
140.1384 190.2277 -261.3417 16.9936
139.2208 190.5637 -261.3417 17.0173
138.2998 190.8909 -261.3417 17.0411
137.3756 191.2092 -261.3417 17.0648
136.4483 191.5187 -261.3417 17.0885
135.5179 191.8193 -261.3417 17.1123
134.5846 192.1110 -261.3417 17.1360
133.6484 192.3937 -261.3417 17.1597
132.7095 192.6675 -261.3416 17.1835
131.7679 192.9322 -261.3416 17.2072
130.8237 193.1879 -261.3416 17.2309
129.8771 193.4345 -261.3416 17.2546
128.9282 193.6721 -261.3416 17.2783
127.9769 193.9006 -261.3416 17.3020
127.0236 194.1199 -261.3416 17.3257
126.0681 194.3300 -261.3416 17.3494
125.1107 194.5311 -261.3416 17.3731
124.1514 194.7229 -261.3416 17.3968
123.1904 194.9055 -261.3415 17.4205
122.2276 195.0789 -261.3415 17.4442
121.2633 195.2431 -261.3415 17.4678
120.2975 195.3981 -261.3415 17.4915
119.3303 195.5438 -261.3415 17.5151
118.3618 195.6802 -261.3415 17.5388
117.3920 195.8074 -261.3415 17.5624
116.4212 195.9253 -261.3414 17.5861
115.4492 196.0340 -261.3414 17.6097
114.4763 196.1333 -261.3414 17.6334
113.5026 196.2233 -261.3414 17.6570
112.5280 196.3041 -261.3414 17.6806
111.5527 196.3755 -261.3414 17.7042
110.5768 196.4377 -261.3413 17.7278
109.6004 196.4905 -261.3413 17.7514
108.6235 196.5341 -261.3413 17.7750
107.6463 196.5683 -261.3413 17.7986
106.6688 196.5932 -261.3413 17.8222
105.6911 196.6088 -261.3413 17.8458
104.7132 196.6152 -261.3412 17.8694
103.7354 196.6122 -261.3412 17.8930
102.7576 196.5999 -261.3412 17.9166
101.7800 196.5783 -261.3412 17.9402
100.8026 196.5474 -261.3412 17.9637
99.8256 196.5072 -261.3412 17.9873
98.8490 196.4577 -261.3412 18.0109
97.8729 196.3990 -261.3411 18.0344
96.8975 196.3310 -261.3411 18.0580
95.9227 196.2537 -261.3411 18.0815
94.9488 196.1672 -261.3411 18.1051
93.9757 196.0715 -261.3411 18.1286
93.0037 195.9665 -261.3411 18.1522
92.0327 195.8523 -261.3410 18.1757
91.0630 195.7290 -261.3410 18.1992
90.0945 195.5964 -261.3410 18.2228
89.1273 195.4547 -261.3410 18.2463
88.1617 195.3039 -261.3410 18.2698
87.1975 195.1439 -261.3409 18.2933
86.2350 194.9749 -261.3409 18.3168
85.2741 194.7967 -261.3409 18.3403
84.3151 194.6095 -261.3409 18.3638
83.3579 194.4132 -261.3409 18.3873
82.4026 194.2079 -261.3409 18.4108
81.4493 193.9935 -261.3408 18.4342
80.4982 193.7702 -261.3408 18.4577
79.5492 193.5379 -261.3408 18.4812
78.6024 193.2967 -261.3408 18.5046
77.6579 193.0465 -261.3408 18.5281
76.7159 192.7875 -261.3407 18.5516
75.7762 192.5195 -261.3407 18.5750
74.8391 192.2427 -261.3407 18.5985
73.9047 191.9571 -261.3407 18.6219
72.9729 191.6626 -261.3407 18.6454
72.0439 191.3594 -261.3406 18.6688
71.1177 191.0474 -261.3406 18.6923
70.1944 190.7266 -261.3406 18.7157
69.2742 190.3972 -261.3406 18.7392
68.3570 190.0591 -261.3406 18.7626
67.4430 189.7123 -261.3405 18.7860
66.5323 189.3570 -261.3405 18.8095
65.6249 188.9931 -261.3405 18.8329
64.7209 188.6206 -261.3405 18.8563
63.8204 188.2397 -261.3405 18.8797
62.9235 187.8502 -261.3405 18.9032
62.0303 187.4524 -261.3404 18.9266
61.1408 187.0461 -261.3404 18.9500
60.2551 186.6315 -261.3404 18.9734
59.3734 186.2086 -261.3404 18.9968
58.4956 185.7774 -261.3403 19.0202
57.6219 185.3380 -261.3403 19.0436
56.7523 184.8904 -261.3403 19.0670
55.8870 184.4347 -261.3403 19.0904
55.0260 183.9708 -261.3402 19.1138
54.1693 183.4989 -261.3402 19.1372
53.3171 183.0190 -261.3402 19.1606
52.4694 182.5310 -261.3402 19.1840
51.6263 182.0352 -261.3402 19.2074
50.7879 181.5315 -261.3401 19.2307
49.9543 181.0200 -261.3401 19.2541
49.1255 180.5007 -261.3401 19.2775
48.3017 179.9736 -261.3401 19.3008
47.4828 179.4389 -261.3401 19.3242
46.6690 178.8966 -261.3400 19.3475
45.8603 178.3467 -261.3400 19.3709
45.0569 177.7893 -261.3400 19.3942
44.2587 177.2245 -261.3400 19.4176
43.4660 176.6522 -261.3400 19.4409
42.6787 176.0726 -261.3399 19.4642
41.8969 175.4858 -261.3399 19.4876
41.1207 174.8918 -261.3399 19.5109
40.3502 174.2905 -261.3399 19.5342
39.5854 173.6823 -261.3398 19.5575
38.8264 173.0669 -261.3398 19.5808
38.0733 172.4446 -261.3398 19.6041
37.3261 171.8154 -261.3398 19.6274
36.5850 171.1794 -261.3398 19.6507
35.8499 170.5365 -261.3398 19.6740
35.1209 169.8870 -261.3397 19.6972
34.3981 169.2308 -261.3397 19.7205
33.6816 168.5679 -261.3397 19.7437
32.9714 167.8986 -261.3397 19.7670
32.2676 167.2228 -261.3396 19.7902
31.5702 166.5406 -261.3396 19.8135
30.8793 165.8520 -261.3396 19.8367
30.1949 165.1572 -261.3396 19.8599
29.5172 164.4561 -261.3395 19.8832
28.8460 163.7489 -261.3395 19.9064
28.1817 163.0356 -261.3395 19.9296
27.5240 162.3163 -261.3395 19.9528
26.8732 161.5911 -261.3394 19.9760
26.2293 160.8600 -261.3394 19.9992
25.5922 160.1231 -261.3394 20.0224
24.9622 159.3804 -261.3394 20.0455
24.3391 158.6321 -261.3394 20.0687
23.7231 157.8781 -261.3394 20.0919
23.1142 157.1185 -261.3393 20.1150
22.5124 156.3535 -261.3393 20.1382
21.9178 155.5830 -261.3393 20.1613
21.3304 154.8071 -261.3393 20.1845
20.7503 154.0259 -261.3393 20.2076
20.1774 153.2394 -261.3392 20.2307
19.6118 152.4477 -261.3392 20.2539
19.0536 151.6508 -261.3392 20.2770
18.5028 150.8487 -261.3392 20.3001
17.9594 150.0416 -261.3391 20.3232
17.4234 149.2295 -261.3391 20.3464
16.8949 148.4124 -261.3391 20.3695
16.3740 147.5904 -261.3391 20.3926
15.8605 146.7635 -261.3391 20.4157
15.3547 145.9319 -261.3391 20.4388
14.8565 145.0955 -261.3390 20.4619
14.3660 144.2545 -261.3390 20.4851
13.8832 143.4089 -261.3390 20.5082
13.4082 142.5588 -261.3390 20.5313
12.9410 141.7044 -261.3390 20.5544
12.4816 140.8456 -261.3389 20.5775
12.0302 139.9826 -261.3389 20.6006
11.5867 139.1155 -261.3389 20.6237
11.1512 138.2444 -261.3389 20.6468
10.7238 137.3695 -261.3388 20.6699
10.3045 136.4907 -261.3388 20.6929
9.8933 135.6082 -261.3388 20.7160
9.4902 134.7222 -261.3388 20.7391
9.0954 133.8327 -261.3388 20.7621
8.7089 132.9398 -261.3387 20.7851
8.3306 132.0438 -261.3387 20.8082
7.9607 131.1445 -261.3387 20.8312
7.5990 130.2422 -261.3387 20.8542
7.2457 129.3370 -261.3387 20.8771
6.9008 128.4289 -261.3387 20.9001
6.5642 127.5181 -261.3386 20.9231
6.2360 126.6045 -261.3386 20.9460
5.9162 125.6882 -261.3386 20.9689
5.6047 124.7694 -261.3386 20.9918
5.3015 123.8480 -261.3386 21.0147
5.0066 122.9241 -261.3385 21.0375
4.7199 121.9978 -261.3385 21.0604
4.4415 121.0691 -261.3385 21.0832
4.1712 120.1379 -261.3385 21.1060
3.9089 119.2044 -261.3385 21.1287
3.6547 118.2686 -261.3384 21.1515
3.4084 117.3305 -261.3384 21.1742
3.1698 116.3901 -261.3384 21.1969
2.9389 115.4474 -261.3384 21.2196
2.7157 114.5025 -261.3384 21.2422
2.4999 113.5554 -261.3384 21.2648
2.2914 112.6062 -261.3383 21.2873
2.0903 111.6548 -261.3383 21.3098
1.8962 110.7012 -261.3383 21.3323
1.7092 109.7456 -261.3383 21.3547
1.5291 108.7879 -261.3383 21.3771
1.3558 107.8282 -261.3383 21.3994
1.1892 106.8666 -261.3383 21.4217
1.0292 105.9029 -261.3382 21.4440
0.8758 104.9374 -261.3382 21.4662
0.7287 103.9700 -261.3382 21.4883
0.5880 103.0008 -261.3382 21.5104
0.4535 102.0299 -261.3382 21.5325
0.3250 101.0572 -261.3382 21.5545
0.2026 100.0829 -261.3381 21.5765
0.0859 99.1070 -261.3381 21.5984
-0.0249 98.1296 -261.3381 21.6202
-0.1302 97.1507 -261.3381 21.6421
-0.2299 96.1704 -261.3381 21.6639
-0.3243 95.1888 -261.3381 21.6856
-0.4134 94.2059 -261.3380 21.7073
-0.4973 93.2217 -261.3380 21.7290
-0.5762 92.2364 -261.3380 21.7507
-0.6502 91.2500 -261.3380 21.7723
-0.7194 90.2625 -261.3380 21.7938
-0.7839 89.2741 -261.3380 21.8154
-0.8439 88.2848 -261.3380 21.8369
-0.8995 87.2946 -261.3380 21.8584
-0.9508 86.3036 -261.3380 21.8798
-0.9979 85.3118 -261.3379 21.9012
-1.0410 84.3194 -261.3379 21.9226
-1.0802 83.3264 -261.3379 21.9440
-1.1156 82.3327 -261.3379 21.9653
-1.1474 81.3385 -261.3379 21.9867
-1.1756 80.3439 -261.3379 22.0079
-1.2005 79.3487 -261.3379 22.0292
-1.2221 78.3532 -261.3378 22.0504
-1.2406 77.3573 -261.3378 22.0716
-1.2561 76.3611 -261.3378 22.0928
-1.2688 75.3645 -261.3378 22.1140
-1.2787 74.3677 -261.3378 22.1351
-1.2860 73.3706 -261.3378 22.1562
-1.2909 72.3733 -261.3378 22.1773
-1.2935 71.3757 -261.3378 22.1983
-1.2939 70.3780 -261.3377 22.2194
-1.2922 69.3801 -261.3377 22.2404
-1.2886 68.3821 -261.3377 22.2614
-1.2833 67.3839 -261.3377 22.2824
-1.2763 66.3856 -261.3377 22.3033
-1.2677 65.3871 -261.3377 22.3243
-1.2578 64.3885 -261.3377 22.3452
-1.2467 63.3898 -261.3377 22.3661
-1.2345 62.3910 -261.3377 22.3870
-1.2212 61.3921 -261.3376 22.4078
-1.2071 60.3931 -261.3376 22.4287
-1.1923 59.3940 -261.3376 22.4495
-1.1768 58.3948 -261.3376 22.4703
-1.1608 57.3955 -261.3376 22.4911
-1.1443 56.3961 -261.3376 22.5119
-1.1274 55.3967 -261.3376 22.5326
-1.1101 54.3971 -261.3376 22.5534
-1.0925 53.3975 -261.3376 22.5741
-1.0745 52.3978 -261.3376 22.5948
-1.0562 51.3980 -261.3376 22.6154
-1.0377 50.3982 -261.3376 22.6361
-1.0189 49.3983 -261.3376 22.6567
-0.9998 48.3984 -261.3376 22.6773
-0.9805 47.3985 -261.3375 22.6979
-0.9609 46.3985 -261.3375 22.7184
-0.9411 45.3985 -261.3375 22.7390
-0.9212 44.3985 -261.3375 22.7594
-0.9010 43.3986 -261.3375 22.7799
-0.8806 42.3986 -261.3375 22.8004
-0.8601 41.3987 -261.3375 22.8208
-0.8394 40.3987 -261.3375 22.8411
-0.8186 39.3989 -261.3375 22.8615
-0.7977 38.3991 -261.3375 22.8818
-0.7766 37.3994 -261.3375 22.9021
-0.7554 36.3998 -261.3375 22.9224
-0.7342 35.4003 -261.3375 22.9426
-0.7128 34.4009 -261.3375 22.9628
-0.6914 33.4016 -261.3375 22.9829
