VERSION 0.7
FIELDS x y z lapdistance
SIZE 4 4 4 4
TYPE F F F F
COUNT 1 1 1 1
WIDTH 1171
HEIGHT 1
VIEWPOINT 0.520 -0.480 -0.488 -0.511 -389.148 91.073 137.390
POINTS 1171
DATA ascii
-65.29383 92.18526 -33.73995 2227.10719
-66.53383 92.14618 -32.16988 2229.10825
-67.77478 92.10874 -30.60060 2231.10926
-69.01840 92.07291 -29.03351 2233.11017
-70.26788 92.03841 -27.47126 2235.11092
-71.52720 92.00500 -25.91716 2237.11148
-72.79966 91.97238 -24.37388 2239.11198
-74.08696 91.94044 -22.84262 2241.11272
-75.38862 91.90915 -21.32236 2243.11434
-76.70091 91.87865 -19.80849 2245.11805
-78.01973 91.84908 -18.29566 2247.12524
-79.34637 91.82037 -16.78534 2249.13568
-80.69030 91.79210 -15.28893 2251.14722
-82.06774 91.76353 -13.82182 2253.15988
-83.49102 91.73421 -12.39805 2255.17336
-84.96092 91.70514 -11.02583 2257.18454
-86.46978 91.67834 -9.71028 2259.18665
-88.01360 91.65534 -8.46711 2261.16909
-89.59736 91.63627 -7.32797 2263.12040
-91.23141 91.62053 -6.32327 2265.03918
-92.93550 91.60744 -5.46614 2266.94737
-94.72468 91.59674 -4.76427 2268.87005
-96.58368 91.58826 -4.23978 2270.80251
-98.47194 91.58072 -3.92794 2272.71749
-100.35043 91.57240 -3.85691 2274.59869
-102.20905 91.56310 -4.02942 2276.46655
-104.06461 91.55441 -4.42601 2278.36498
-105.91484 91.54906 -5.02733 2280.31133
-107.71110 91.54808 -5.83496 2282.28193
-109.38869 91.55002 -6.85465 2284.24640
-110.91729 91.55308 -8.06220 2286.19555
-112.29727 91.55580 -9.42793 2288.13800
-113.54702 91.55806 -10.94010 2290.10047
-114.68283 91.56196 -12.57689 2292.09322
-115.71592 91.57018 -14.30263 2294.10488
-116.64395 91.58297 -16.08621 2296.11579
-117.45848 91.59891 -17.90491 2298.10890
-118.16370 91.61610 -19.74191 2300.07689
-118.78110 91.63307 -21.59246 2302.02791
-119.33359 91.64967 -23.47080 2303.98599
-119.82973 91.66636 -25.39314 2305.97149
-120.26582 91.68342 -27.35644 2307.98280
-120.63615 91.70033 -29.34845 2310.00912
-120.93662 91.71650 -31.35689 2312.04008
-121.16506 91.73190 -33.37176 2314.06803
-121.32399 91.74734 -35.38521 2316.08789
-121.42166 91.76443 -37.39217 2318.09736
-121.46288 91.78469 -39.39304 2320.09882
-121.44695 91.80908 -41.39302 2322.09909
-121.37453 91.83806 -43.39551 2324.10316
-121.25072 91.87130 -45.40061 2326.11240
-121.08195 91.90734 -47.40657 2328.12581
-120.86945 91.94376 -49.41089 2330.14173
-120.61239 91.97889 -51.41098 2332.15862
-120.31780 92.01250 -53.40515 2334.17472
-120.00097 92.04550 -55.39277 2336.18771
-119.67756 92.07913 -57.37412 2338.19557
-119.35801 92.11430 -59.35094 2340.19836
-119.04556 92.15141 -61.32616 2342.19848
-118.73842 92.19044 -63.30135 2344.19779
-118.43362 92.23110 -65.27699 2346.19722
-118.12936 92.27322 -67.25289 2348.19686
-117.82512 92.31664 -69.22887 2350.19659
-117.52111 92.36137 -71.20490 2352.19637
-117.21778 92.40744 -73.18103 2354.19618
-116.91525 92.45491 -75.15728 2356.19601
-116.61286 92.50382 -77.13354 2358.19587
-116.30908 92.55419 -79.10958 2360.19576
-116.00234 92.60573 -81.08514 2362.19565
-115.69233 92.65825 -83.06016 2364.19555
-115.38003 92.71180 -85.03482 2366.19546
-115.06669 92.76649 -87.00931 2368.19541
-114.75322 92.82223 -88.98377 2370.19538
-114.44015 92.87898 -90.95830 2372.19538
-114.12774 92.93670 -92.93294 2374.19541
-113.81616 92.99554 -94.90772 2376.19549
-113.50555 93.05579 -96.88267 2378.19562
-113.19598 93.11783 -98.85777 2380.19580
-112.88739 93.18198 -100.83304 2382.19606
-112.57957 93.24836 -102.80843 2384.19639
-112.27216 93.31670 -104.78388 2386.19678
-111.96481 93.38647 -106.75934 2388.19722
-111.65719 93.45693 -108.73476 2390.19769
-111.34917 93.52747 -110.71012 2392.19816
-111.04091 93.59775 -112.68543 2394.19862
-110.73273 93.66773 -114.66076 2396.19907
-110.42479 93.73765 -116.63613 2398.19953
-110.11694 93.80770 -118.61155 2400.20001
-109.80875 93.87808 -120.58690 2402.20050
-109.49949 93.94872 -122.56200 2404.20091
-109.18831 94.01938 -124.53669 2406.20122
-108.87417 94.08961 -126.51087 2408.20146
-108.55587 94.15890 -128.48436 2410.20167
-108.23226 94.22673 -130.45703 2412.20185
-107.90277 94.29290 -132.42878 2414.20204
-107.56789 94.35758 -134.39969 2416.20224
-107.22910 94.42127 -136.36998 2418.20247
-106.88814 94.48427 -138.33993 2420.20269
-106.54643 94.54668 -140.30976 2422.20291
-106.20486 94.60826 -142.27962 2424.20312
-105.86371 94.66870 -144.24955 2426.20329
-105.52270 94.72748 -146.21951 2428.20341
-105.18095 94.78364 -148.18935 2430.20346
-104.83739 94.83665 -150.15888 2432.20343
-104.49167 94.88775 -152.12809 2434.20341
-104.14447 94.93913 -154.09713 2436.20349
-103.79650 94.99267 -156.06620 2438.20379
-103.44795 95.04772 -158.03531 2440.20427
-103.09886 95.10238 -160.00441 2442.20482
-102.74939 95.15570 -161.97348 2444.20537
-102.39995 95.20753 -163.94257 2446.20589
-102.05124 95.25785 -165.91178 2448.20637
-101.70437 95.30684 -167.88128 2450.20679
-101.36050 95.35460 -169.85127 2452.20713
-101.02019 95.40116 -171.82180 2454.20737
-100.68299 95.44649 -173.79281 2456.20754
-100.34779 95.49063 -175.76415 2458.20766
-100.01355 95.53367 -177.73563 2460.20773
-99.67962 95.57577 -179.70716 2462.20779
-99.34575 95.61707 -181.67869 2464.20782
-99.01200 95.65766 -183.65023 2466.20782
-98.67879 95.69755 -185.62188 2468.20782
-98.34689 95.73670 -187.59378 2470.20784
-98.01733 95.77505 -189.56615 2472.20793
-97.69067 95.81252 -191.53910 2474.20809
-97.36633 95.84903 -193.51250 2476.20829
-97.04276 95.88462 -195.48605 2478.20851
-96.71850 95.91929 -197.45947 2480.20870
-96.39266 95.95310 -199.43264 2482.20887
-96.06484 95.98609 -201.40548 2484.20904
-95.73487 96.01833 -203.37800 2486.20922
-95.40250 96.04987 -205.35014 2488.20943
-95.06735 96.08081 -207.32183 2490.20964
-94.72897 96.11125 -209.29300 2492.20987
-94.38707 96.14125 -211.26360 2494.21014
-94.04153 96.17083 -213.23364 2496.21047
-93.69233 96.19992 -215.20310 2498.21086
-93.33956 96.22832 -217.17199 2500.21131
-92.98341 96.25572 -219.14035 2502.21181
-92.62450 96.28175 -221.10826 2504.21235
-92.26393 96.30617 -223.07592 2506.21292
-91.90308 96.32878 -225.04354 2508.21349
-91.54285 96.34964 -227.01126 2510.21402
-91.18346 96.36881 -228.97911 2512.21452
-90.82474 96.38637 -230.94708 2514.21499
-90.46642 96.40233 -232.91511 2516.21543
-90.10828 96.41680 -234.88316 2518.21586
-89.75034 96.42996 -236.85125 2520.21627
-89.39302 96.44221 -238.81943 2522.21667
-89.03747 96.45393 -240.78791 2524.21703
-88.68535 96.46535 -242.75693 2526.21732
-88.33757 96.47652 -244.72664 2528.21753
-87.99353 96.48735 -246.69693 2530.21766
-87.65312 96.49763 -248.66781 2532.21775
-87.31843 96.50702 -250.63960 2534.21776
-86.99191 96.51517 -252.61264 2536.21766
-86.67317 96.52197 -254.58683 2538.21743
-86.35893 96.52738 -256.56168 2540.21713
-86.04609 96.53150 -258.53673 2542.21681
-85.73314 96.53427 -260.51174 2544.21646
-85.41966 96.53570 -262.48668 2546.21612
-85.10575 96.53574 -264.46155 2548.21579
-84.79170 96.53444 -266.43641 2550.21546
-84.47799 96.53187 -268.41133 2552.21514
-84.16543 96.52818 -270.38644 2554.21484
-83.85516 96.52346 -272.36194 2556.21456
-83.54809 96.51781 -274.33796 2558.21430
-83.24401 96.51123 -276.31448 2560.21409
-82.94158 96.50385 -278.29130 2562.21392
-82.63947 96.49571 -280.26818 2564.21377
-82.33708 96.48688 -282.24503 2566.21364
-82.03419 96.47734 -284.22182 2568.21351
-81.73065 96.46698 -286.19849 2570.21339
-81.42646 96.45563 -288.17506 2572.21326
-81.12185 96.44314 -290.15158 2574.21315
-80.81701 96.42935 -292.12807 2576.21306
-80.51205 96.41424 -294.10457 2578.21300
-80.20723 96.39778 -296.08111 2580.21297
-79.90332 96.38009 -298.05779 2582.21297
-79.60179 96.36120 -300.03489 2584.21301
-79.30463 96.34111 -302.01276 2586.21318
-79.01310 96.31985 -303.99165 2588.21354
-78.72706 96.29748 -305.97155 2590.21413
-78.44524 96.27405 -307.95223 2592.21489
-78.16628 96.24969 -309.93322 2594.21558
-77.88952 96.22442 -311.91390 2596.21566
-77.61496 96.19830 -313.89318 2598.21406
-77.34290 96.17139 -315.87026 2600.20996
-77.07323 96.14371 -317.84703 2602.20523
-76.80623 96.11520 -319.82628 2604.20261
-76.54445 96.08559 -321.80954 2606.20329
-76.29385 96.05425 -323.79753 2608.20726
-76.06243 96.02091 -325.79046 2610.21387
-75.85742 95.98598 -327.78788 2612.22211
-75.68511 95.95038 -329.78851 2614.23049
-75.55282 95.91446 -331.79001 2616.23671
-75.46709 95.87821 -333.78902 2618.23794
-75.42888 95.84162 -335.78279 2620.23245
-75.43462 95.80453 -337.77326 2622.22331
-75.47880 95.76676 -339.76553 2624.21646
-75.55790 95.72819 -341.76214 2626.21503
-75.67612 95.68877 -343.76188 2628.21869
-75.84314 95.64848 -345.76083 2630.22507
-76.06734 95.60750 -347.75384 2632.23115
-76.35230 95.56574 -349.73577 2634.23397
-76.69754 95.52270 -351.70248 2636.23130
-77.10043 95.47840 -353.65224 2638.22281
-77.55673 95.43302 -355.58706 2640.21129
-78.06124 95.38639 -357.51194 2642.20178
-78.60842 95.33803 -359.43090 2644.19784
-79.19344 95.28749 -361.34495 2646.19996
-79.81337 95.23490 -363.25259 2648.20652
-80.46761 95.18061 -365.15066 2650.21494
-81.15784 95.12529 -367.03472 2652.22225
-81.88795 95.06950 -368.89929 2654.22550
-82.66303 95.01357 -370.73885 2656.22252
-83.48741 94.95771 -372.54995 2658.21327
-84.36312 94.90201 -374.33345 2660.20102
-85.28964 94.84637 -376.09379 2662.19113
-86.26392 94.79072 -377.83497 2664.18719
-87.28238 94.73497 -379.55795 2666.18949
-88.34207 94.67912 -381.26106 2668.19618
-89.44086 94.62313 -382.94120 2670.20454
-90.57708 94.56700 -384.59478 2672.21169
-91.74910 94.51066 -386.21868 2674.21520
-92.95536 94.45405 -387.81128 2676.21390
-94.19480 94.39694 -389.37371 2678.20910
-95.46755 94.33889 -390.90978 2680.20483
-96.77380 94.27971 -392.42314 2682.20487
-98.11270 94.21969 -393.91432 2684.20986
-99.48377 94.15970 -395.38105 2686.21856
-100.88705 94.10060 -396.81968 2688.22916
-102.32184 94.04274 -398.22720 2690.23994
-103.78561 93.98604 -399.60268 2692.24940
-105.27305 93.93063 -400.94900 2694.25644
-106.77661 93.87703 -402.27317 2696.26070
-108.28894 93.82521 -403.58460 2698.26312
-109.80493 93.77566 -404.89184 2700.26551
-111.32256 93.72805 -406.19752 2702.26807
-112.84355 93.68168 -407.49858 2704.27015
-114.37294 93.63581 -408.78870 2706.27155
-115.91535 93.58995 -410.06235 2708.27238
-117.47184 93.54413 -411.31835 2710.27297
-119.04095 93.49887 -412.55860 2712.27357
-120.61874 93.45494 -413.78806 2714.27430
-122.20133 93.41283 -415.01162 2716.27517
-123.78830 93.37188 -416.22987 2718.27624
-125.38177 93.33107 -417.44025 2720.27770
-126.98310 93.28978 -418.64117 2722.27974
-128.59078 93.24848 -419.83425 2724.28219
-130.20186 93.20789 -421.02152 2726.28390
-131.81381 93.16857 -422.20200 2728.28226
-133.42576 93.13102 -423.37066 2730.27363
-135.04325 93.09583 -424.52091 2732.25874
-136.68231 93.06338 -425.64601 2734.24710
-138.35500 93.03350 -426.72368 2736.23724
-140.06144 93.00654 -427.71162 2738.20950
-141.79691 92.98344 -428.55576 2740.14011
-143.56273 92.96561 -429.20645 2742.02308
-145.36510 92.95310 -429.62700 2743.87531
-147.17217 92.94379 -429.78207 2745.69076
-148.90495 92.93743 -429.66672 2747.42906
-150.49049 92.93478 -429.29003 2749.06141
-151.88893 92.93426 -428.56066 2750.64461
-153.09000 92.93185 -427.29000 2752.40008
-154.10941 92.92703 -425.48780 2754.47356
-154.94700 92.91972 -423.41535 2756.70974
-155.60814 92.90620 -421.32776 2758.89994
-156.12578 92.88481 -419.29340 2760.99947
-156.53877 92.85865 -417.29680 2763.03862
-156.88930 92.83438 -415.31442 2765.05193
-157.20708 92.81510 -413.33404 2767.05775
-157.50129 92.80071 -411.35019 2769.06336
-157.78189 92.79008 -409.36314 2771.07016
-158.05974 92.78193 -407.37812 2773.07455
-158.33766 92.77532 -405.39706 2775.07502
-158.61384 92.76980 -403.41835 2777.07291
-158.88667 92.76531 -401.43992 2779.07008
-159.15586 92.76205 -399.46080 2781.06742
-159.42221 92.76040 -397.48095 2783.06511
-159.68759 92.76072 -395.50074 2785.06302
-159.95408 92.76329 -393.52064 2787.06097
-160.22391 92.76811 -391.54111 2789.05882
-160.49923 92.77487 -389.56249 2791.05651
-160.78094 92.78309 -387.58473 2793.05425
-161.06772 92.79235 -385.60710 2795.05259
-161.35713 92.80237 -383.62877 2797.05201
-161.64786 92.81316 -381.64983 2799.05221
-161.94005 92.82472 -379.67084 2801.05269
-162.23412 92.83700 -377.69215 2803.05315
-162.52979 92.84981 -375.71379 2805.05353
-162.82628 92.86294 -373.73564 2807.05381
-163.12291 92.87621 -371.75757 2809.05405
-163.41943 92.88951 -369.77953 2811.05423
-163.71584 92.90272 -367.80152 2813.05437
-164.01219 92.91574 -365.82356 2815.05445
-164.30855 92.92846 -363.84569 2817.05444
-164.60494 92.94080 -361.86796 2819.05429
-164.90133 92.95270 -359.89042 2821.05396
-165.19771 92.96406 -357.91297 2823.05352
-165.49411 92.97479 -355.93555 2825.05307
-165.79070 92.98482 -353.95812 2827.05264
-166.08774 92.99415 -351.98072 2829.05225
-166.38561 93.00276 -350.00341 2831.05189
-166.68453 93.01054 -348.02624 2833.05154
-166.98369 93.01714 -346.04907 2835.05122
-167.28045 93.02201 -344.07153 2837.05092
-167.57135 93.02489 -342.09312 2839.05060
-167.85443 93.02669 -340.11359 2841.05027
-168.13011 93.02874 -338.13301 2843.04995
-168.40028 93.03183 -336.15167 2845.04962
-168.66687 93.03492 -334.16987 2847.04928
-168.93132 93.03720 -332.18780 2849.04891
-169.19450 93.03880 -330.20561 2851.04849
-169.45645 93.03991 -328.22335 2853.04799
-169.71670 93.04069 -326.24090 2855.04746
-169.97478 93.04113 -324.25801 2857.04706
-170.23047 93.04115 -322.27433 2859.04716
-170.48375 93.04075 -320.28966 2861.04792
-170.73466 93.03998 -318.30423 2863.04914
-170.98325 93.03900 -316.31830 2865.05057
-171.22959 93.03799 -314.33199 2867.05210
-171.47380 93.03712 -312.34534 2869.05371
-171.71596 93.03651 -310.35835 2871.05540
-171.95616 93.03619 -308.37105 2873.05716
-172.19450 93.03617 -306.38345 2875.05900
-172.43113 93.03647 -304.39561 2877.06088
-172.66621 93.03711 -302.40753 2879.06280
-172.89965 93.03812 -300.41922 2881.06478
-173.13058 93.03944 -298.43058 2883.06678
-173.35666 93.04092 -296.44141 2885.06875
-173.57421 93.04232 -294.45137 2887.07065
-173.77961 93.04342 -292.46014 2889.07245
-173.97122 93.04411 -290.46761 2891.07418
-174.14971 93.04441 -288.47396 2893.07580
-174.31684 93.04436 -286.47956 2895.07719
-174.47391 93.04397 -284.48482 2897.07812
-174.62075 93.04312 -282.48995 2899.07839
-174.75590 93.04155 -280.49471 2901.07820
-174.87820 93.03918 -278.49862 2903.07803
-174.98898 93.03649 -276.50153 2905.07821
-175.09179 93.03414 -274.50364 2907.07874
-175.18988 93.03246 -272.50525 2909.07954
-175.28509 93.03156 -270.50654 2911.08051
-175.37835 93.03143 -268.50763 2913.08160
-175.47043 93.03195 -266.50859 2915.08276
-175.56202 93.03278 -264.50949 2917.08396
-175.65352 93.03351 -262.51035 2919.08519
-175.74507 93.03371 -260.51118 2921.08645
-175.83668 93.03313 -258.51199 2923.08774
-175.92836 93.03179 -256.51279 2925.08904
-176.02025 93.02985 -254.51358 2927.09037
-176.11249 93.02754 -252.51434 2929.09173
-176.20512 93.02505 -250.51505 2931.09316
-176.29792 93.02249 -248.51567 2933.09470
-176.39065 93.01996 -246.51618 2935.09635
-176.48314 93.01759 -244.51671 2937.09795
-176.57524 93.01555 -242.51762 2939.09916
-176.66683 93.01399 -240.51913 2941.09975
-176.75783 93.01302 -238.52104 2943.09991
-176.84824 93.01262 -236.52307 2945.09993
-176.93810 93.01270 -234.52512 2947.09989
-177.02748 93.01306 -232.52715 2949.09986
-177.11643 93.01358 -230.52914 2951.09986
-177.20502 93.01413 -228.53110 2953.09986
-177.29327 93.01468 -226.53305 2955.09985
-177.38119 93.01521 -224.53499 2957.09984
-177.46873 93.01569 -222.53692 2959.09983
-177.55587 93.01611 -220.53882 2961.09984
-177.64257 93.01644 -218.54068 2963.09985
-177.72886 93.01665 -216.54255 2965.09985
-177.81478 93.01670 -214.54442 2967.09983
-177.90042 93.01651 -212.54628 2969.09980
-177.98590 93.01598 -210.54813 2971.09978
-178.07127 93.01502 -208.54996 2973.09977
-178.15658 93.01358 -206.55178 2975.09977
-178.24177 93.01177 -204.55359 2977.09978
-178.32682 93.00979 -202.55540 2979.09978
-178.41167 93.00796 -200.55721 2981.09977
-178.49632 93.00657 -198.55901 2983.09976
-178.58077 93.00576 -196.56081 2985.09974
-178.66511 93.00557 -194.56260 2987.09973
-178.74945 93.00584 -192.56438 2989.09973
-178.83390 93.00635 -190.56617 2991.09972
-178.91852 93.00688 -188.56797 2993.09971
-179.00337 93.00725 -186.56978 2995.09971
-179.08841 93.00740 -184.57159 2997.09971
-179.17358 93.00736 -182.57340 2999.09971
-179.25877 93.00722 -180.57521 3001.09972
-179.34389 93.00708 -178.57701 3003.09972
-179.42889 93.00702 -176.57882 3005.09973
-179.51373 93.00707 -174.58062 3007.09972
-179.59841 93.00722 -172.58242 3009.09972
-179.68295 93.00740 -170.58420 3011.09973
-179.76737 93.00756 -168.58598 3013.09973
-179.85168 93.00765 -166.58776 3015.09972
-179.93587 93.00765 -164.58954 3017.09972
-180.01993 93.00758 -162.59130 3019.09972
-180.10387 93.00748 -160.59306 3021.09973
-180.18773 93.00742 -158.59482 3023.09973
-180.27154 93.00744 -156.59658 3025.09973
-180.35534 93.00756 -154.59833 3027.09974
-180.43913 93.00777 -152.60007 3029.09974
-180.52292 93.00809 -150.60182 3031.09975
-180.60670 93.00850 -148.60357 3033.09976
-180.69047 93.00902 -146.60534 3035.09974
-180.77424 93.00961 -144.60712 3037.09972
-180.85797 93.01024 -142.60891 3039.09968
-180.94164 93.01084 -140.61070 3041.09965
-181.02522 93.01136 -138.61248 3043.09961
-181.10871 93.01175 -136.61425 3045.09959
-181.19211 93.01201 -134.61600 3047.09957
-181.27541 93.01214 -132.61775 3049.09956
-181.35861 93.01218 -130.61950 3051.09954
-181.44172 93.01216 -128.62128 3053.09949
-181.52474 93.01213 -126.62305 3055.09944
-181.60766 93.01211 -124.62481 3057.09940
-181.69047 93.01211 -122.62655 3059.09938
-181.77315 93.01213 -120.62827 3061.09937
-181.85569 93.01217 -118.62998 3063.09936
-181.93810 93.01224 -116.63171 3065.09933
-182.02041 93.01232 -114.63344 3067.09930
-182.10265 93.01243 -112.63515 3069.09927
-182.18484 93.01255 -110.63686 3071.09925
-182.26698 93.01265 -108.63858 3073.09922
-182.34909 93.01272 -106.64031 3075.09918
-182.43116 93.01276 -104.64203 3077.09915
-182.51319 93.01276 -102.64373 3079.09913
-182.59518 93.01270 -100.64543 3081.09910
-182.67712 93.01258 -98.64715 3083.09907
-182.75901 93.01239 -96.64886 3085.09904
-182.84083 93.01214 -94.65055 3087.09901
-182.92259 93.01181 -92.65223 3089.09901
-183.00429 93.01138 -90.65388 3091.09903
-183.08594 93.01073 -88.65554 3093.09904
-183.16755 93.00968 -86.65720 3095.09904
-183.24911 93.00804 -84.65887 3097.09904
-183.33062 93.00563 -82.66054 3099.09903
-183.41209 93.00248 -80.66221 3101.09902
-183.49353 92.99883 -78.66386 3103.09903
-183.57499 92.99520 -76.66551 3105.09905
-183.65648 92.99226 -74.66716 3107.09907
-183.73803 92.99063 -72.66883 3109.09906
-183.81960 92.99070 -70.67051 3111.09904
-183.90115 92.99241 -68.67219 3113.09903
-183.98259 92.99535 -66.67386 3115.09902
-184.06383 92.99888 -64.67550 3117.09902
-184.14478 93.00237 -62.67714 3119.09903
-184.22541 93.00540 -60.67878 3121.09902
-184.30574 93.00783 -58.68040 3123.09902
-184.38583 93.00961 -56.68201 3125.09901
-184.46580 93.01080 -54.68361 3127.09901
-184.54572 93.01139 -52.68521 3129.09901
-184.62567 93.01135 -50.68681 3131.09901
-184.70569 93.01072 -48.68841 3133.09901
-184.78576 93.00962 -46.69000 3135.09902
-184.86586 93.00823 -44.69160 3137.09903
-184.94599 93.00679 -42.69322 3139.09902
-185.02612 93.00546 -40.69485 3141.09898
-185.10624 93.00435 -38.69650 3143.09895
-185.18635 93.00348 -36.69812 3145.09893
-185.26641 93.00277 -34.69973 3147.09893
-185.34640 93.00214 -32.70133 3149.09892
-185.42630 93.00154 -30.70292 3151.09892
-185.50613 93.00093 -28.70452 3153.09892
-185.58602 93.00029 -26.70612 3155.09892
-185.66621 92.99963 -24.70774 3157.09891
-185.74703 92.99897 -22.70940 3159.09888
-185.82878 92.99836 -20.71109 3161.09886
-185.91164 92.99786 -18.71282 3163.09885
-185.99569 92.99750 -16.71460 3165.09884
-186.08084 92.99730 -14.71641 3167.09884
-186.16692 92.99724 -12.71825 3169.09885
-186.25364 92.99731 -10.72010 3171.09888
-186.34076 92.99745 -8.72196 3173.09893
-186.42806 92.99764 -6.72381 3175.09898
-186.51544 92.99784 -4.72567 3177.09903
-186.60283 92.99805 -2.72753 3179.09908
-186.69020 92.99825 -0.72941 3181.09911
-186.77754 92.99842 1.26872 3183.09915
-186.86484 92.99852 3.26684 3185.09918
-186.95208 92.99856 5.26498 3187.09921
-187.03925 92.99854 7.26312 3189.09925
-187.12635 92.99856 9.26125 3191.09929
-187.21346 92.99873 11.25938 3193.09932
-187.30076 92.99915 13.25751 3195.09934
-187.38854 92.99984 15.25562 3197.09938
-187.47714 93.00078 17.25369 3199.09942
-187.56682 93.00181 19.25173 3201.09947
-187.65781 93.00280 21.24972 3203.09953
-187.75036 93.00360 23.24764 3205.09959
-187.84488 93.00414 25.24547 3207.09966
-187.94206 93.00444 27.24316 3209.09972
-188.04287 93.00458 29.24069 3211.09979
-188.14826 93.00465 31.23802 3213.09990
-188.25890 93.00473 33.23513 3215.10007
-188.37501 93.00485 35.23202 3217.10033
-188.49625 93.00500 37.22868 3219.10067
-188.62186 93.00521 39.22515 3221.10108
-188.75077 93.00547 41.22145 3223.10154
-188.88182 93.00579 43.21764 3225.10204
-189.01394 93.00617 45.21378 3227.10254
-189.14638 93.00663 47.20990 3229.10305
-189.27868 93.00719 49.20601 3231.10354
-189.41063 93.00784 51.20213 3233.10402
-189.54215 93.00856 53.19827 3235.10448
-189.67324 93.00931 55.19441 3237.10493
-189.80387 93.01006 57.19057 3239.10535
-189.93380 93.01081 59.18674 3241.10575
-190.06241 93.01156 61.18296 3243.10611
-190.18863 93.01231 63.17930 3245.10643
-190.31093 93.01309 65.17581 3247.10669
-190.42767 93.01389 67.17257 3249.10686
-190.53764 93.01468 69.16964 3251.10695
-190.64056 93.01544 71.16702 3253.10698
-190.73733 93.01615 73.16469 3255.10700
-190.82973 93.01682 75.16257 3257.10701
-190.91958 93.01751 77.16055 3259.10701
-191.00807 93.01821 79.15858 3261.10700
-191.09560 93.01892 81.15665 3263.10699
-191.18184 93.01954 83.15479 3265.10699
-191.26595 93.01997 85.15304 3267.10701
-191.34713 93.02006 87.15142 3269.10703
-191.42516 93.01974 89.14993 3271.10707
-191.50079 93.01905 91.14853 3273.10710
-191.57548 93.01811 93.14718 3275.10714
-191.65095 93.01706 95.14580 3277.10719
-191.72867 93.01604 97.14435 3279.10725
-191.80949 93.01514 99.14276 3281.10729
-191.89357 93.01440 101.14101 3283.10731
-191.98038 93.01381 103.13914 3285.10733
-192.06892 93.01336 105.13721 3287.10735
-192.15826 93.01305 107.13524 3289.10739
-192.24776 93.01286 109.13327 3291.10742
-192.33708 93.01279 111.13130 3293.10744
-192.42609 93.01285 113.12934 3295.10746
-192.51479 93.01302 115.12740 3297.10750
-192.60319 93.01330 117.12549 3299.10754
-192.69132 93.01371 119.12360 3301.10759
-192.77922 93.01427 121.12170 3303.10763
-192.86690 93.01504 123.11982 3305.10766
-192.95443 93.01611 125.11793 3307.10770
-193.04184 93.01739 127.11605 3309.10773
-193.12909 93.01845 129.11417 3311.10775
-193.21620 93.01895 131.11227 3313.10775
-193.30357 93.01883 133.11031 3315.10769
-193.39191 93.01845 135.10826 3317.10760
-193.48158 93.01822 137.10613 3319.10748
-193.57236 93.01830 139.10394 3321.10735
-193.66376 93.01859 141.10172 3323.10722
-193.75537 93.01893 143.09949 3325.10709
-193.84698 93.01925 145.09726 3327.10696
-193.93858 93.01953 147.09503 3329.10683
-194.03029 93.01975 149.09280 3331.10670
-194.12227 93.01991 151.09055 3333.10657
-194.21466 93.01999 153.08828 3335.10644
-194.30751 93.01996 155.08601 3337.10632
-194.40087 93.01981 157.08372 3339.10621
-194.49484 93.01957 159.08140 3341.10610
-194.58964 93.01925 161.07903 3343.10598
-194.68561 93.01889 163.07661 3345.10586
-194.78304 93.01854 165.07413 3347.10575
-194.88209 93.01826 167.07159 3349.10567
-194.98267 93.01807 169.06901 3351.10562
-195.08440 93.01801 171.06644 3353.10565
-195.18680 93.01811 173.06392 3355.10574
-195.28945 93.01842 175.06143 3357.10589
-195.39214 93.01896 177.05896 3359.10605
-195.49474 93.01977 179.05650 3361.10623
-195.59722 93.02083 181.05406 3363.10642
-195.69954 93.02205 183.05162 3365.10659
-195.80168 93.02333 185.04918 3367.10676
-195.90361 93.02455 187.04675 3369.10694
-196.00534 93.02560 189.04433 3371.10711
-196.10687 93.02642 191.04193 3373.10728
-196.20820 93.02695 193.03953 3375.10745
-196.30933 93.02715 195.03714 3377.10762
-196.41026 93.02693 197.03477 3379.10780
-196.51102 93.02625 199.03241 3381.10798
-196.61167 93.02514 201.03005 3383.10816
-196.71226 93.02375 203.02770 3385.10833
-196.81276 93.02240 205.02537 3387.10853
-196.91281 93.02144 207.02305 3389.10872
-197.01142 93.02118 209.02080 3391.10890
-197.10687 93.02171 211.01868 3393.10906
-197.19721 93.02286 213.01679 3395.10921
-197.28120 93.02427 215.01517 3397.10935
-197.35908 93.02550 217.01381 3399.10951
-197.43231 93.02623 219.01265 3401.10970
-197.50262 93.02630 221.01162 3403.10990
-197.57112 93.02582 223.01067 3405.11012
-197.63832 93.02508 225.00977 3407.11035
-197.70430 93.02452 227.00892 3409.11059
-197.76901 93.02458 229.00812 3411.11084
-197.83250 93.02548 231.00740 3413.11112
-197.89511 93.02723 233.00676 3415.11147
-197.95736 93.02939 235.00620 3417.11187
-198.01961 93.03134 237.00562 3419.11227
-198.08201 93.03237 239.00479 3421.11241
-198.14457 93.03201 241.00330 3423.11190
-198.20709 93.03024 243.00084 3425.11042
-198.26890 93.02737 244.99764 3427.10818
-198.32890 93.02393 246.99519 3429.10663
-198.38597 93.02048 248.99499 3431.10725
-198.43760 93.01742 250.99759 3433.11051
-198.47791 93.01494 253.00291 3435.11625
-198.49863 93.01302 255.01020 3437.12366
-198.49154 93.01168 257.01728 3439.13078
-198.44816 93.01129 259.01940 3441.13340
-198.35713 93.01226 261.00875 3443.12489
-198.20345 93.01486 262.97774 3445.09999
-197.97020 93.01920 264.93147 3447.06776
-197.63694 93.02521 266.90801 3449.07242
-197.18127 93.03317 268.96082 3451.17544
-196.59704 93.04336 271.07123 3453.36551
-195.90814 93.05558 273.11900 3455.52638
-195.13803 93.06921 275.02982 3457.58690
-194.30578 93.08329 276.77749 3459.52298
-193.42387 93.09693 278.36636 3461.34054
-192.47228 93.11007 279.86116 3463.11281
-191.41837 93.12299 281.33580 3464.92560
-190.25019 93.13576 282.80256 3466.80098
-188.92796 93.14910 284.28300 3468.78625
-187.38006 93.16462 285.82650 3470.97253
-185.56804 93.18389 287.46019 3473.41255
-183.65202 93.20596 289.05621 3475.90647
-181.92266 93.22703 290.39178 3478.09176
-180.45560 93.24520 291.42619 3479.88710
-179.14456 93.26121 292.24449 3481.43287
-177.76623 93.27765 292.99564 3483.00286
-176.19345 93.29602 293.76514 3484.75400
-174.45499 93.31641 294.54220 3486.65841
-172.61418 93.33871 295.29687 3488.64812
-170.72073 93.36319 296.00433 3490.66965
-168.79924 93.38953 296.64592 3492.69572
-166.85716 93.41731 297.20820 3494.71790
-164.89725 93.44581 297.68682 3496.73575
-162.92397 93.47496 298.08845 3498.74980
-160.94372 93.50548 298.42752 3500.75916
-158.96220 93.53837 298.72003 3502.76246
-156.98162 93.57324 298.97745 3504.76003
-154.99984 93.60710 299.20449 3506.75508
-153.01297 93.63823 299.40032 3508.75184
-151.01909 93.66749 299.56241 3510.75254
-149.01870 93.69688 299.69042 3512.75726
-147.01363 93.72751 299.78727 3514.76491
-145.00596 93.75900 299.85737 3516.77407
-142.99741 93.79096 299.90513 3518.78344
-140.98942 93.82341 299.93324 3520.79191
-138.98330 93.85648 299.94029 3522.79832
-136.98056 93.89013 299.91991 3524.80147
-134.98265 93.92415 299.86311 3526.80051
-132.99012 93.95828 299.76385 3528.79584
-131.00184 93.99242 299.62094 3530.78958
-129.01568 94.02636 299.43602 3532.78466
-127.03037 94.06004 299.21236 3534.78284
-125.04575 94.09363 298.95479 3536.78440
-123.06219 94.12772 298.66935 3538.78870
-121.08024 94.16271 298.36156 3540.79472
-119.10078 94.19893 298.03366 3542.80149
-117.12519 94.23654 297.68442 3544.80807
-115.15528 94.27561 297.31060 3546.81353
-113.19307 94.31571 296.90890 3548.81687
-111.24041 94.35664 296.47684 3550.81719
-109.29866 94.39815 296.01242 3552.81417
-107.36797 94.44016 295.51361 3554.80872
-105.44663 94.48263 294.97990 3556.80329
-103.53213 94.52580 294.41322 3558.80038
-101.62333 94.56978 293.81579 3560.80100
-99.72056 94.61468 293.18901 3562.80486
-97.82475 94.66048 292.53436 3564.81106
-95.93666 94.70728 291.85417 3566.81849
-94.05683 94.75513 291.15108 3568.82608
-92.18614 94.80407 290.42667 3570.83275
-90.32590 94.85402 289.68114 3572.83746
-88.47782 94.90500 288.91330 3574.83936
-86.64354 94.95700 288.12068 3576.83826
-84.82380 95.01012 287.30002 3578.83523
-83.01802 95.06441 286.44797 3580.83270
-81.22537 95.11989 285.56211 3582.83307
-79.44607 95.17632 284.64130 3584.83734
-77.68142 95.23344 283.68532 3586.84515
-75.93315 95.29087 282.69453 3588.85551
-74.20304 95.34839 281.66965 3590.86725
-72.49272 95.40585 280.61159 3592.87924
-70.80374 95.46335 279.52137 3594.89037
-69.13742 95.52106 278.40049 3596.89946
-67.49464 95.57940 277.25137 3598.90513
-65.87537 95.63879 276.07752 3600.90602
-64.27848 95.69961 274.88254 3602.90147
-62.70206 95.76166 273.66703 3604.89308
-61.14523 95.82437 272.42659 3606.88467
-59.60933 95.88749 271.15561 3608.87928
-58.09449 95.95110 269.85334 3610.87798
-56.59761 96.01526 268.52502 3612.88029
-55.11434 96.08036 267.17778 3614.88514
-53.64162 96.14628 265.81683 3616.89150
-52.17834 96.21281 264.44464 3618.89862
-50.72480 96.27975 263.06182 3620.90597
-49.28181 96.34707 261.66833 3622.91311
-47.85004 96.41479 260.26446 3624.91945
-46.43042 96.48282 258.85063 3626.92416
-45.02457 96.55095 257.42685 3628.92622
-43.63410 96.61892 255.99274 3630.92490
-42.25973 96.68650 254.54680 3632.92096
-40.90127 96.75366 253.08621 3634.91678
-39.55878 96.82046 251.60860 3636.91430
-38.23268 96.88711 250.11310 3638.91419
-36.92368 96.95381 248.59985 3640.91618
-35.63269 97.02084 247.06935 3642.91957
-34.36082 97.08852 245.52209 3644.92364
-33.10862 97.15710 243.95892 3646.92771
-31.87542 97.22647 242.38155 3648.93114
-30.66045 97.29613 240.79182 3650.93320
-29.46533 97.36555 239.18980 3652.93312
-28.29453 97.43441 237.57334 3654.93026
-27.15372 97.50262 235.93890 3656.92465
-26.04692 97.57035 234.28299 3658.91758
-24.97400 97.63792 232.60398 3660.91131
-23.93048 97.70575 230.90374 3662.90741
-22.91007 97.77404 229.18654 3664.90609
-21.90756 97.84287 227.45654 3666.90677
-20.91932 97.91209 225.71693 3668.90868
-19.94378 97.98156 223.96954 3670.91115
-18.98233 98.05109 222.21442 3672.91358
-18.03759 98.12057 220.45095 3674.91538
-17.11221 98.18989 218.67872 3676.91587
-16.20778 98.25897 216.89792 3678.91438
-15.32338 98.32771 215.10989 3680.91037
-14.45820 98.39611 213.31518 3682.90392
-13.61084 98.46415 211.51318 3684.89638
-12.77917 98.53199 209.70209 3686.89046
-11.96301 98.59970 207.88038 3688.88780
-11.16442 98.66731 206.04845 3690.88738
-10.38420 98.73483 204.20753 3692.88796
-9.62125 98.80228 202.35907 3694.88883
-8.87587 98.86975 200.50341 3696.88974
-8.15092 98.93747 198.63956 3698.89077
-7.44880 99.00561 196.76672 3700.89207
-6.76860 99.07425 194.88550 3702.89367
-6.10572 99.14334 192.99795 3704.89543
-5.45313 99.21272 191.10702 3706.89701
-4.80290 99.28218 189.21589 3708.89801
-4.14828 99.35152 187.32701 3710.89831
-3.48530 99.42059 185.44151 3712.89816
-2.81387 99.48939 183.55899 3714.89803
-2.13705 99.55802 181.67815 3716.89811
-1.45758 99.62657 179.79818 3718.89828
-0.77596 99.69505 177.91902 3720.89841
-0.09108 99.76352 176.04111 3722.89849
0.59764 99.83202 174.16464 3724.89853
1.28942 99.90070 172.28932 3726.89855
1.98434 99.96957 170.41518 3728.89857
2.68471 100.03853 168.54309 3730.89857
3.39412 100.10731 166.67438 3732.89859
4.11511 100.17570 164.80997 3734.89873
4.84823 100.24353 162.95000 3736.89912
5.59229 100.31079 161.09402 3738.89982
6.34569 100.37760 159.24156 3740.90075
7.10743 100.44420 157.39281 3742.90139
7.87678 100.51091 155.54849 3744.90086
8.65445 100.57807 153.70878 3746.89931
9.44241 100.64574 151.87350 3748.89774
10.24302 100.71393 150.04311 3750.89673
11.05828 100.78256 148.21877 3752.89614
11.88925 100.85145 146.40168 3754.89540
12.73706 100.92039 144.59343 3756.89375
13.60403 100.98916 142.79643 3758.89015
14.49436 101.05761 141.01433 3760.88347
15.41491 101.12572 139.25210 3762.87286
16.37361 101.19357 137.51431 3764.85876
17.37488 101.26141 135.80179 3766.84372
18.41570 101.32939 134.11005 3768.83119
19.48726 101.39755 132.43259 3770.82288
20.58331 101.46582 130.76611 3772.81867
21.70326 101.53416 129.11179 3774.81762
22.84802 101.60250 127.47208 3776.81859
24.01762 101.67075 125.84883 3778.82049
25.21124 101.73875 124.24333 3780.82225
26.42818 101.80642 122.65708 3782.82270
27.66858 101.87379 121.09236 3784.82060
28.93369 101.94104 119.55233 3786.81480
30.22480 102.00837 118.03954 3788.80481
31.54125 102.07598 116.55317 3790.79152
32.88047 102.14393 115.08833 3792.77746
34.23960 102.21224 113.63920 3794.76540
35.61685 102.28066 112.20267 3796.75667
37.01278 102.34875 110.77967 3798.75123
38.42990 102.41624 109.37430 3800.74820
39.87189 102.48316 107.99263 3802.74644
41.34154 102.54970 106.64026 3804.74477
42.83902 102.61627 105.32032 3806.74209
44.36231 102.68310 104.03356 3808.73728
45.90785 102.75040 102.77850 3810.72938
47.47130 102.81820 101.55136 3812.71808
49.04950 102.88643 100.34734 3814.70431
50.64279 102.95476 99.16352 3816.69044
52.25413 103.02270 98.00022 3818.67900
53.88617 103.08983 96.85975 3820.67120
55.53975 103.15587 95.74440 3822.66688
57.21405 103.22081 94.65572 3824.66509
58.90762 103.28479 93.59484 3826.66455
60.61875 103.34800 92.56270 3828.66389
62.34573 103.41057 91.56031 3830.66170
64.08712 103.47252 90.58907 3832.65661
65.84165 103.53383 89.65012 3834.64756
67.60800 103.59456 88.74259 3836.63436
69.38527 103.65485 87.86261 3838.61848
71.17376 103.71493 87.00492 3840.60292
72.97412 103.77500 86.16552 3842.59026
74.78681 103.83511 85.34393 3844.58137
76.61276 103.89520 84.54388 3846.57583
78.45278 103.95507 83.77065 3848.57263
80.30663 104.01443 83.02778 3850.57068
82.17296 104.07296 82.31629 3852.56891
84.04951 104.13045 81.63475 3854.56624
85.93394 104.18678 80.98134 3856.56156
87.82489 104.24203 80.35626 3858.55393
89.72238 104.29638 79.76178 3860.54313
91.62826 104.35007 79.20174 3862.53034
93.54531 104.40332 78.67896 3864.51814
95.47507 104.45624 78.19291 3866.50891
97.41684 104.50875 77.74007 3868.50349
99.36871 104.56070 77.31672 3870.50144
101.32882 104.61190 76.92151 3872.50167
103.29568 104.66219 76.55560 3874.50292
105.26799 104.71155 76.22161 3876.50395
107.24435 104.75999 75.92200 3878.50350
109.22308 104.80758 75.65810 3880.50034
111.20261 104.85443 75.43024 3882.49353
113.18218 104.90067 75.23834 3884.48294
115.16251 104.94636 75.08195 3886.46999
117.14571 104.99141 74.96026 3888.45745
119.13344 105.03576 74.87172 3890.44767
121.12577 105.07935 74.81412 3892.44133
123.12167 105.12217 74.78579 3894.43791
125.11966 105.16416 74.78634 3896.43635
127.11813 105.20535 74.81696 3898.43551
129.11546 105.24586 74.87962 3900.43425
131.10995 105.28601 74.97490 3902.43144
133.10006 105.32618 75.10128 3904.42598
135.08452 105.36664 75.25645 3906.41692
137.06288 105.40740 75.43832 3908.40406
139.03612 105.44828 75.64531 3910.38856
141.00668 105.48887 75.87669 3912.37308
142.97709 105.52864 76.13233 3914.36042
144.94858 105.56718 76.41236 3916.35208
146.92089 105.60422 76.71690 3918.34813
148.89278 105.63970 77.04640 3920.34768
150.86232 105.67354 77.40242 3922.34944
152.82691 105.70556 77.78819 3924.35183
154.78336 105.73611 78.20833 3926.35314
156.72833 105.76540 78.66754 3928.35185
158.65932 105.79402 79.16890 3930.34711
160.57615 105.82246 79.71214 3932.33966
162.48190 105.85119 80.29357 3934.33237
164.38173 105.88068 80.90689 3936.32899
166.27841 105.91122 81.54595 3938.33067
168.17113 105.94270 82.20825 3940.33619
170.05776 105.97487 82.89412 3942.34389
171.93652 106.00693 83.60408 3944.35259
173.80655 106.03782 84.33754 3946.36156
175.66795 106.06720 85.09213 3948.37032
177.52072 106.09448 85.86576 3950.37831
179.36390 106.11997 86.65847 3952.38490
181.19644 106.14449 87.47043 3954.38943
183.01829 106.16817 88.30005 3956.39142
184.83040 106.19140 89.14527 3958.39110
186.63479 106.21448 90.00467 3960.38984
188.43348 106.23739 90.87676 3962.38893
190.22760 106.25983 91.75930 3964.38849
192.01852 106.28138 92.64892 3966.38831
193.80815 106.30180 93.54135 3968.38822
195.59784 106.32098 94.43368 3970.38812
197.38805 106.33905 95.32499 3972.38802
199.17876 106.35619 96.21525 3974.38790
200.97004 106.37265 97.10437 3976.38778
202.76203 106.38860 97.99211 3978.38766
204.55472 106.40412 98.87851 3980.38758
206.34784 106.41912 99.76423 3982.38759
208.14087 106.43346 100.65042 3984.38771
209.93323 106.44693 101.53811 3986.38790
211.72467 106.45941 102.42776 3988.38812
213.51512 106.47083 103.31942 3990.38834
215.30461 106.48120 104.21301 3992.38856
217.09323 106.49054 105.10837 3994.38879
218.88116 106.49891 106.00513 3996.38903
220.66868 106.50629 106.90272 3998.38927
222.45614 106.51272 107.80043 4000.38950
224.24383 106.51822 108.69770 4002.38974
226.03184 106.52301 109.59434 4004.38998
227.82012 106.52751 110.49044 4006.39022
229.60854 106.53227 111.38624 4008.39045
231.39701 106.53768 112.28194 4010.39069
233.18547 106.54382 113.17767 4012.39092
234.97389 106.55041 114.07347 4014.39116
236.76229 106.55679 114.96933 4016.39140
238.55068 106.56212 115.86519 4018.39164
240.33909 106.56582 116.76106 4020.39189
242.12752 106.56755 117.65687 4022.39213
243.91603 106.56745 118.55256 4024.39239
245.70464 106.56584 119.44807 4026.39266
247.49335 106.56306 120.34339 4028.39293
249.28213 106.55937 121.23856 4030.39320
251.07092 106.55496 122.13366 4032.39344
252.85960 106.55001 123.02883 4034.39363
254.64816 106.54475 123.92420 4036.39379
256.43686 106.53932 124.81992 4038.39424
258.22632 106.53369 125.71642 4040.39572
260.01702 106.52777 126.61468 4042.39909
261.80790 106.52157 127.51654 4044.40425
263.59627 106.51512 128.42557 4046.41040
265.37874 106.50850 129.34708 4048.41700
267.15212 106.50150 130.28602 4050.42363
268.91423 106.49269 131.24513 4052.42989
270.66386 106.48107 132.22507 4054.43530
272.40027 106.46738 133.22547 4056.43933
274.12241 106.45262 134.24672 4058.44159
275.82825 106.43757 135.29138 4060.44195
277.51516 106.42251 136.36395 4062.44106
279.18112 106.40734 137.46912 4064.44036
280.82575 106.39184 138.60972 4066.44190
282.44962 106.37566 139.78567 4068.44694
284.05344 106.35857 140.99416 4070.45520
285.63737 106.34046 142.23155 4072.46527
287.19941 106.32140 143.49629 4074.47525
288.73523 106.30154 144.78955 4076.48318
290.24031 106.28132 146.11298 4078.48750
291.71223 106.26131 147.46712 4080.48771
293.15132 106.24208 148.85220 4082.48520
294.55989 106.22377 150.26912 4084.48325
295.93994 106.20624 151.71850 4086.48468
297.29249 106.18895 153.19918 4088.49023
298.61976 106.17137 154.70690 4090.49903
299.92497 106.15313 156.23586 4092.50942
301.20831 106.13391 157.78287 4094.51956
302.46606 106.11347 159.34804 4096.52759
303.69298 106.09154 160.93263 4098.53181
304.88547 106.06782 162.53689 4100.53090
306.04193 106.04194 164.16110 4102.52495
307.16175 106.01355 165.80775 4104.51655
308.24459 105.98261 167.48097 4106.50987
309.28839 105.94972 169.18382 4108.50750
310.28988 105.91581 170.91705 4110.50961
311.24701 105.88181 172.67858 4112.51472
312.15942 105.84851 174.46354 4114.51969
313.02589 105.81633 176.26547 4116.51942
313.84229 105.78535 178.07833 4118.50793
314.60378 105.75511 179.90059 4120.48320
315.30786 105.72465 181.74022 4122.45327
315.95199 105.69265 183.60543 4124.42694
316.53224 105.65825 185.49664 4126.40556
317.04164 105.62149 187.40832 4128.38442
317.46838 105.58282 189.33273 4130.35612
317.79646 105.54254 191.26242 4132.31415
318.00973 105.50070 193.19226 4134.25651
318.09710 105.45692 195.12129 4136.18837
318.05561 105.41117 197.05102 4138.11944
317.88928 105.36468 198.97520 4140.05168
317.60605 105.31962 200.87860 4141.97685
317.21792 105.27694 202.74822 4143.88704
316.73912 105.23740 204.58552 4145.78628
316.17948 105.20102 206.40646 4147.69176
315.54127 105.16698 208.22269 4149.61729
314.82241 105.13327 210.03105 4151.56371
314.02300 105.09814 211.82162 4153.52509
313.14996 105.06129 213.58919 4155.49696
312.21074 105.02328 215.33609 4157.48080
311.20401 104.98466 217.06464 4159.48163
310.12246 104.94582 218.76446 4161.49688
308.96111 104.90651 220.41829 4163.51832
307.72354 104.86620 222.01601 4165.53986
306.42278 104.82459 223.55881 4167.55837
305.07647 104.78194 225.05570 4169.57215
303.69797 104.73859 226.51567 4171.58058
302.29168 104.69438 227.94381 4173.58542
300.85628 104.64874 229.34326 4175.59067
299.39108 104.60131 230.71661 4177.59946
297.89864 104.55284 232.06634 4179.61232
296.38288 104.50483 233.39449 4181.62824
294.84643 104.45767 234.70112 4183.64572
293.29052 104.41154 235.98461 4185.66324
291.71589 104.36684 237.24285 4187.67936
290.12330 104.32329 238.47385 4189.69274
288.51359 104.28031 239.67629 4191.70245
286.88691 104.23760 240.84998 4193.70883
285.24204 104.19511 241.99599 4195.71403
283.57781 104.15292 243.11535 4197.72015
281.89438 104.11098 244.20857 4199.72786
280.19316 104.06932 245.27656 4201.73698
278.47665 104.02805 246.32162 4203.74704
276.74845 103.98748 247.34810 4205.75751
275.01303 103.94797 248.36218 4207.76789
273.27486 103.90987 249.37014 4209.77753
271.53768 103.87336 250.37664 4211.78555
269.80415 103.83841 251.38386 4213.79076
268.07496 103.80473 252.39266 4215.79299
266.34872 103.77172 253.40360 4217.79374
264.62394 103.73878 254.41651 4219.79422
262.89959 103.70570 255.43047 4221.79487
261.17476 103.67267 256.44403 4223.79573
259.44828 103.64009 257.45500 4225.79669
257.71832 103.60831 258.45993 4227.79760
255.98258 103.57754 259.45454 4229.79836
254.23885 103.54770 260.43474 4231.79893
252.48587 103.51849 261.39822 4233.79946
250.72425 103.48945 262.34611 4235.80013
248.95661 103.46024 263.28314 4237.80098
247.18615 103.43074 264.21499 4239.80192
245.41502 103.40104 265.14555 4241.80285
243.64430 103.37151 266.07677 4243.80373
241.87456 103.34266 267.00968 4245.80451
240.10626 103.31491 267.94510 4247.80517
238.33949 103.28858 268.88324 4249.80575
236.57390 103.26365 269.82345 4251.80622
234.80935 103.23990 270.76533 4253.80656
233.04635 103.21699 271.70977 4255.80672
231.28585 103.19460 272.65851 4257.80672
229.52819 103.17254 273.61234 4259.80663
227.77258 103.15075 274.56989 4261.80652
226.01786 103.12926 275.52910 4263.80641
224.26328 103.10817 276.48859 4265.80632
222.50852 103.08757 277.44780 4267.80624
220.75351 103.06762 278.40659 4269.80618
218.99833 103.04849 279.36505 4271.80609
217.24312 103.03022 280.32340 4273.80597
215.48811 103.01281 281.28206 4275.80582
213.73351 102.99623 282.24146 4277.80566
211.97933 102.98049 283.20168 4279.80551
210.22539 102.96558 284.16234 4281.80536
208.47145 102.95143 285.12298 4283.80520
206.71734 102.93788 286.08331 4285.80502
204.96300 102.92474 287.04324 4287.80486
203.20843 102.91187 288.00277 4289.80471
201.45366 102.89926 288.96195 4291.80456
199.69873 102.88699 289.92085 4293.80441
197.94371 102.87520 290.87950 4295.80422
196.18860 102.86405 291.83795 4297.80401
194.43341 102.85373 292.79623 4299.80379
192.67816 102.84435 293.75442 4301.80357
190.92281 102.83598 294.71259 4303.80343
189.16735 102.82858 295.67077 4305.80338
187.41178 102.82207 296.62899 4307.80344
185.65617 102.81638 297.58723 4309.80355
183.90052 102.81152 298.54551 4311.80370
182.14488 102.80748 299.50387 4313.80388
180.38932 102.80422 300.46237 4315.80407
178.63388 102.80163 301.42103 4317.80422
176.87854 102.79958 302.37987 4319.80436
175.12327 102.79799 303.33882 4321.80451
173.36799 102.79680 304.29784 4323.80469
171.61271 102.79596 305.25682 4325.80485
169.85737 102.79539 306.21568 4327.80501
168.10192 102.79514 307.17438 4329.80518
166.34638 102.79547 308.13292 4331.80537
164.59077 102.79655 309.09133 4333.80554
162.83513 102.79844 310.04965 4335.80572
161.07948 102.80123 311.00794 4337.80587
159.32389 102.80535 311.96630 4339.80601
157.56848 102.81141 312.92501 4341.80617
155.81342 102.81959 313.88439 4343.80635
154.05878 102.82840 314.84460 4345.80655
152.30457 102.83610 315.80554 4347.80673
150.55073 102.84329 316.76712 4349.80690
148.79709 102.85082 317.72908 4351.80706
147.04342 102.85865 318.69093 4353.80721
145.28944 102.86674 319.65215 4355.80732
143.53493 102.87489 320.61232 4357.80740
141.77982 102.88297 321.57140 4359.80748
140.02431 102.89092 322.52974 4361.80755
138.26866 102.89877 323.48777 4363.80760
136.51308 102.90677 324.44590 4365.80763
134.75770 102.91530 325.40433 4367.80764
133.00257 102.92440 326.36318 4369.80762
131.24764 102.93302 327.32240 4371.80762
129.49264 102.93885 328.28156 4373.80763
127.73725 102.94094 329.24001 4375.80763
125.98125 102.94069 330.19730 4377.80762
124.22470 102.93984 331.15358 4379.80760
122.46787 102.93963 332.10935 4381.80759
120.71102 102.93971 333.06512 4383.80760
118.95423 102.93942 334.02103 4385.80761
117.19748 102.93843 334.97700 4387.80763
115.44071 102.93669 335.93291 4389.80763
113.68400 102.93421 336.88889 4391.80761
111.92760 102.93108 337.84549 4393.80762
110.17202 102.92732 338.80362 4395.80764
108.41774 102.92292 339.76412 4397.80766
106.66482 102.91785 340.72705 4399.80766
104.91282 102.91202 341.69163 4401.80765
103.16122 102.90536 342.65691 4403.80763
101.40966 102.89788 343.62227 4405.80761
99.65796 102.88957 344.58740 4407.80761
97.90607 102.88051 345.55228 4409.80765
96.15407 102.87073 346.51694 4411.80770
94.40203 102.86025 347.48146 4413.80772
92.64997 102.84903 348.44587 4415.80770
90.89784 102.83693 349.41015 4417.80768
89.14561 102.82376 350.37429 4419.80769
87.39328 102.80935 351.33829 4421.80773
85.64090 102.79359 352.30221 4423.80779
83.88855 102.77655 353.26616 4425.80785
82.13625 102.75844 354.23022 4427.80792
80.38403 102.73963 355.19441 4429.80799
78.63188 102.72042 356.15876 4431.80809
76.87981 102.70104 357.12325 4433.80817
75.12782 102.68145 358.08785 4435.80825
73.37591 102.66146 359.05259 4437.80833
71.62407 102.64078 360.01748 4439.80842
69.87234 102.61914 360.98259 4441.80854
68.12075 102.59641 361.94795 4443.80867
66.36932 102.57260 362.91357 4445.80879
64.61803 102.54784 363.87945 4447.80894
62.86685 102.52232 364.84560 4449.80912
61.11584 102.49620 365.81200 4451.80928
59.36500 102.46957 366.77864 4453.80941
57.61434 102.44240 367.74548 4455.80949
55.86385 102.41453 368.71244 4457.80949
54.11348 102.38571 369.67944 4459.80942
52.36316 102.35573 370.64642 4461.80932
50.61283 102.32446 371.61336 4463.80922
48.86249 102.29194 372.58022 4465.80911
47.11215 102.25832 373.54702 4467.80899
45.36177 102.22389 374.51376 4469.80889
43.61135 102.18889 375.48044 4471.80880
41.86090 102.15347 376.44708 4473.80874
40.11038 102.11759 377.41368 4475.80872
38.35980 102.08103 378.38022 4477.80873
36.60922 102.04351 379.34665 4479.80871
34.85861 102.00476 380.31294 4481.80868
33.10794 101.96465 381.27912 4483.80867
31.35717 101.92329 382.24519 4485.80871
29.60633 101.88090 383.21115 4487.80880
27.85540 101.83786 384.17702 4489.80892
26.10441 101.79450 385.14277 4491.80906
24.35338 101.75104 386.10841 4493.80917
22.60232 101.70746 387.07394 4495.80926
20.85123 101.66357 388.03939 4497.80934
19.10008 101.61906 389.00479 4499.80947
17.34889 101.57370 389.97014 4501.80962
15.59768 101.52733 390.93544 4503.80979
13.84654 101.47992 391.90064 4505.80988
12.09552 101.43146 392.86569 4507.80982
10.34460 101.38197 393.83059 4509.80963
8.59368 101.33145 394.79538 4511.80939
6.84273 101.27989 395.76006 4513.80917
5.09174 101.22738 396.72467 4515.80897
3.34071 101.17412 397.68920 4517.80878
1.58965 101.12034 398.65369 4519.80861
-0.16144 101.06631 399.61816 4521.80848
-1.91255 101.01216 400.58264 4523.80837
-3.66366 100.95789 401.54714 4525.80825
-5.41473 100.90341 402.51165 4527.80814
-7.16577 100.84858 403.47621 4529.80802
-8.91680 100.79327 404.44082 4531.80792
-10.66781 100.73744 405.40548 4533.80785
-12.41877 100.68094 406.37021 4535.80780
-14.16966 100.62343 407.33506 4537.80776
-15.92048 100.56439 408.30008 4539.80779
-17.67117 100.50325 409.26531 4541.80787
-19.42174 100.43962 410.23076 4543.80802
-21.17219 100.37363 411.19639 4545.80825
-22.92257 100.30581 412.16217 4547.80854
-24.67292 100.23709 413.12802 4549.80886
-26.42324 100.16837 414.09387 4551.80916
-28.17352 100.10019 415.05966 4553.80939
-29.92376 100.03269 416.02540 4555.80952
-31.67389 99.96551 416.99106 4557.80952
-33.42394 99.89809 417.95671 4559.80944
-35.17393 99.82990 418.92239 4561.80935
-36.92389 99.76061 419.88812 4563.80930
