VERSION 0.7
FIELDS x y z lapdistance
SIZE 4 4 4 4
TYPE F F F F
COUNT 1 1 1 1
WIDTH 1172
HEIGHT 1
VIEWPOINT 0.520 -0.480 -0.488 -0.511 -389.148 91.073 137.390
POINTS 1172
DATA ascii
-71.49337 95.66839 -354.64899 2642.00000
-71.99117 95.62092 -356.71916 2644.00000
-72.54931 95.57191 -358.77861 2646.00000
-73.16201 95.52159 -360.83001 2648.00000
-73.82364 95.47018 -362.87277 2650.00000
-74.52962 95.41786 -364.90447 2652.00000
-75.27692 95.36470 -366.92185 2654.00000
-76.06339 95.31086 -368.92143 2656.00000
-76.88727 95.25661 -370.89989 2658.00000
-77.74701 95.20226 -372.85443 2660.00000
-78.64143 95.14807 -374.78385 2662.00000
-79.57045 95.09420 -376.68996 2664.00000
-80.53585 95.04050 -378.57757 2666.00000
-81.54032 94.98672 -380.45059 2668.00000
-82.58637 94.93246 -382.30889 2670.00000
-83.67627 94.87739 -384.14879 2672.00000
-84.81145 94.82129 -385.96515 2674.00000
-85.99181 94.76421 -387.75296 2676.00000
-87.21603 94.70646 -389.50753 2678.00000
-88.48171 94.64866 -391.22486 2680.00000
-89.78490 94.59120 -392.90270 2682.00000
-91.12093 94.53393 -394.54186 2684.00000
-92.48639 94.47656 -396.14744 2686.00000
-93.87968 94.41901 -397.72675 2688.00000
-95.29944 94.36191 -399.28509 2690.00000
-96.74490 94.30597 -400.82397 2692.00000
-98.21703 94.25101 -402.34109 2694.00000
-99.71814 94.19622 -403.83145 2696.00000
-101.24851 94.14160 -405.29027 2698.00000
-102.80069 94.08814 -406.71685 2700.00000
-104.35752 94.03624 -408.11447 2702.00000
-105.89924 93.98747 -409.48541 2704.00000
-107.41893 93.94143 -410.83097 2706.00000
-108.92909 93.89651 -412.15379 2708.00000
-110.44900 93.85105 -413.45080 2710.00000
-111.99257 93.80406 -414.71650 2712.00000
-113.56301 93.75576 -415.95085 2714.00000
-115.15658 93.70737 -417.15867 2716.00000
-116.76404 93.66073 -418.35085 2718.00000
-118.37580 93.61698 -419.53870 2720.00000
-119.98734 93.57512 -420.72662 2722.00000
-121.59660 93.53342 -421.91398 2724.00000
-123.19999 93.49106 -423.09936 2726.00000
-124.79335 93.44931 -424.28209 2728.00000
-126.37832 93.40991 -425.46544 2730.00000
-127.97419 93.37411 -426.66526 2732.00000
-129.63096 93.34213 -427.92121 2734.00000
-131.42474 93.31347 -429.29287 2736.00000
-133.39661 93.28759 -430.80518 2738.00000
-135.51195 93.26380 -432.39670 2740.00000
-137.74364 93.24109 -433.95772 2742.00000
-140.12489 93.21941 -435.36265 2744.00000
-142.74018 93.19960 -436.50384 2746.00000
-145.63472 93.18377 -437.31151 2748.00000
-148.70024 93.17426 -437.72891 2750.00000
-151.73104 93.17238 -437.73579 2752.00000
-154.54081 93.17814 -437.31158 2754.00000
-157.00987 93.18681 -436.23373 2756.00000
-159.08288 93.19047 -434.10496 2758.00000
-160.76173 93.18999 -430.98907 2760.00000
-162.00646 93.18611 -427.53006 2762.00000
-162.79973 93.17176 -424.38275 2764.00000
-163.26388 93.14382 -421.69114 2766.00000
-163.57407 93.10766 -419.28894 2768.00000
-163.84644 93.07182 -417.00357 2770.00000
-164.11780 93.04086 -414.75552 2772.00000
-164.38142 93.01540 -412.54853 2774.00000
-164.62760 92.99480 -410.42369 2776.00000
-164.85793 92.97783 -408.39170 2778.00000
-165.08017 92.96359 -406.41678 2780.00000
-165.30086 92.95176 -404.46262 2782.00000
-165.52315 92.94228 -402.50964 2784.00000
-165.74767 92.93510 -400.55230 2786.00000
-165.97474 92.93036 -398.59154 2788.00000
-166.20549 92.92809 -396.62973 2790.00000
-166.44206 92.92838 -394.66869 2792.00000
-166.68800 92.93114 -392.70915 2794.00000
-166.94706 92.93605 -390.75011 2796.00000
-167.22062 92.94266 -388.78794 2798.00000
-167.50595 92.95076 -386.81730 2800.00000
-167.79783 92.96031 -384.83669 2802.00000
-168.09303 92.97148 -382.85016 2804.00000
-168.39144 92.98428 -380.86201 2806.00000
-168.69373 92.99843 -378.87443 2808.00000
-168.99938 93.01335 -376.88788 2810.00000
-169.30680 93.02843 -374.90200 2812.00000
-169.61465 93.04325 -372.91634 2814.00000
-169.92230 93.05762 -370.93063 2816.00000
-170.22962 93.07144 -368.94487 2818.00000
-170.53665 93.08460 -366.95930 2820.00000
-170.84345 93.09703 -364.97442 2822.00000
-171.15001 93.10864 -362.99088 2824.00000
-171.45635 93.11946 -361.00871 2826.00000
-171.76254 93.12957 -359.02732 2828.00000
-172.06870 93.13911 -357.04615 2830.00000
-172.37494 93.14825 -355.06494 2832.00000
-172.68139 93.15716 -353.08364 2834.00000
-172.98795 93.16583 -351.10227 2836.00000
-173.29362 93.17392 -349.12072 2838.00000
-173.59549 93.18051 -347.13861 2840.00000
-173.88838 93.18435 -345.15518 2842.00000
-174.16685 93.18489 -343.16969 2844.00000
-174.42859 93.18400 -341.18186 2846.00000
-174.67540 93.18420 -339.19194 2848.00000
-174.91153 93.18688 -337.20060 2850.00000
-175.14089 93.18978 -335.20844 2852.00000
-175.36625 93.19141 -333.21590 2854.00000
-175.58965 93.19221 -331.22333 2856.00000
-175.81218 93.19267 -329.23080 2858.00000
-176.03421 93.19301 -327.23791 2860.00000
-176.25579 93.19306 -325.24355 2862.00000
-176.47695 93.19257 -323.24626 2864.00000
-176.69770 93.19145 -321.24574 2866.00000
-176.91795 93.18970 -319.24330 2868.00000
-177.13761 93.18755 -317.24018 2870.00000
-177.35670 93.18530 -315.23699 2872.00000
-177.57530 93.18324 -313.23389 2874.00000
-177.79347 93.18157 -311.23086 2876.00000
-178.01131 93.18034 -309.22784 2878.00000
-178.22893 93.17955 -307.22482 2880.00000
-178.44646 93.17921 -305.22183 2882.00000
-178.66413 93.17933 -303.21889 2884.00000
-178.88191 93.17991 -301.21599 2886.00000
-179.09889 93.18090 -299.21301 2888.00000
-179.31230 93.18219 -297.20969 2890.00000
-179.51747 93.18357 -295.20562 2892.00000
-179.70996 93.18488 -293.20039 2894.00000
-179.88825 93.18607 -291.19391 2896.00000
-180.05446 93.18721 -289.18647 2898.00000
-180.21231 93.18832 -287.17847 2900.00000
-180.36434 93.18922 -285.17011 2902.00000
-180.51016 93.18949 -283.16121 2904.00000
-180.64639 93.18848 -281.15133 2906.00000
-180.76935 93.18593 -279.14010 2908.00000
-180.87874 93.18261 -277.12754 2910.00000
-180.97777 93.17957 -275.11401 2912.00000
-181.06967 93.17717 -273.09985 2914.00000
-181.15627 93.17535 -271.08527 2916.00000
-181.23876 93.17400 -269.07038 2918.00000
-181.31854 93.17304 -267.05532 2920.00000
-181.39704 93.17222 -265.04021 2922.00000
-181.47513 93.17128 -263.02511 2924.00000
-181.55311 93.16991 -261.01005 2926.00000
-181.63102 93.16794 -258.99504 2928.00000
-181.70889 93.16544 -256.98010 2930.00000
-181.78699 93.16266 -254.96517 2932.00000
-181.86568 93.15997 -252.95015 2934.00000
-181.94507 93.15772 -250.93495 2936.00000
-182.02478 93.15606 -248.91970 2938.00000
-182.10441 93.15503 -246.90509 2940.00000
-182.18366 93.15445 -244.89291 2942.00000
-182.26235 93.15413 -242.88549 2944.00000
-182.34048 93.15385 -240.88336 2946.00000
-182.41814 93.15351 -238.88441 2948.00000
-182.49548 93.15310 -236.88659 2950.00000
-182.57258 93.15269 -234.88889 2952.00000
-182.64951 93.15235 -232.89098 2954.00000
-182.72634 93.15213 -230.89286 2956.00000
-182.80316 93.15207 -228.89463 2958.00000
-182.88002 93.15221 -226.89638 2960.00000
-182.95691 93.15251 -224.89813 2962.00000
-183.03383 93.15286 -222.89988 2964.00000
-183.11075 93.15310 -220.90164 2966.00000
-183.18769 93.15310 -218.90339 2968.00000
-183.26466 93.15279 -216.90516 2970.00000
-183.34176 93.15221 -214.90695 2972.00000
-183.41912 93.15142 -212.90876 2974.00000
-183.49693 93.15050 -210.91057 2976.00000
-183.57533 93.14954 -208.91239 2978.00000
-183.65433 93.14858 -206.91420 2980.00000
-183.73390 93.14763 -204.91603 2982.00000
-183.81397 93.14670 -202.91788 2984.00000
-183.89449 93.14581 -200.91976 2986.00000
-183.97543 93.14499 -198.92168 2988.00000
-184.05680 93.14427 -196.92363 2990.00000
-184.13859 93.14363 -194.92559 2992.00000
-184.22085 93.14306 -192.92757 2994.00000
-184.30360 93.14254 -190.92957 2996.00000
-184.38687 93.14202 -188.93158 2998.00000
-184.47064 93.14148 -186.93360 3000.00000
-184.55483 93.14092 -184.93563 3002.00000
-184.63930 93.14036 -182.93767 3004.00000
-184.72384 93.13984 -180.93971 3006.00000
-184.80830 93.13945 -178.94174 3008.00000
-184.89257 93.13922 -176.94376 3010.00000
-184.97658 93.13918 -174.94577 3012.00000
-185.06033 93.13929 -172.94777 3014.00000
-185.14383 93.13944 -170.94977 3016.00000
-185.22711 93.13955 -168.95177 3018.00000
-185.31018 93.13951 -166.95377 3020.00000
-185.39304 93.13930 -164.95577 3022.00000
-185.47572 93.13896 -162.95774 3024.00000
-185.55822 93.13858 -160.95970 3026.00000
-185.64054 93.13828 -158.96165 3028.00000
-185.72271 93.13816 -156.96360 3030.00000
-185.80473 93.13825 -154.96552 3032.00000
-185.88660 93.13854 -152.96745 3034.00000
-185.96830 93.13897 -150.96937 3036.00000
-186.04983 93.13945 -148.97129 3038.00000
-186.13120 93.13993 -146.97321 3040.00000
-186.21241 93.14037 -144.97515 3042.00000
-186.29346 93.14075 -142.97708 3044.00000
-186.37437 93.14105 -140.97902 3046.00000
-186.45513 93.14124 -138.98095 3048.00000
-186.53575 93.14129 -136.98286 3050.00000
-186.61621 93.14118 -134.98474 3052.00000
-186.69652 93.14094 -132.98661 3054.00000
-186.77668 93.14061 -130.98850 3056.00000
-186.85669 93.14022 -128.99041 3058.00000
-186.93656 93.13981 -126.99232 3060.00000
-187.01630 93.13941 -124.99421 3062.00000
-187.09587 93.13903 -122.99606 3064.00000
-187.17523 93.13868 -120.99790 3066.00000
-187.25436 93.13833 -118.99974 3068.00000
-187.33327 93.13800 -117.00159 3070.00000
-187.41203 93.13767 -115.00342 3072.00000
-187.49068 93.13734 -113.00524 3074.00000
-187.56927 93.13701 -111.00705 3076.00000
-187.64781 93.13669 -109.00887 3078.00000
-187.72631 93.13641 -107.01071 3080.00000
-187.80476 93.13619 -105.01255 3082.00000
-187.88316 93.13604 -103.01437 3084.00000
-187.96151 93.13594 -101.01618 3086.00000
-188.03981 93.13583 -99.01798 3088.00000
-188.11805 93.13567 -97.01972 3090.00000
-188.19624 93.13543 -95.02133 3092.00000
-188.27437 93.13507 -93.02277 3094.00000
-188.35244 93.13455 -91.02410 3096.00000
-188.43046 93.13373 -89.02539 3098.00000
-188.50842 93.13236 -87.02668 3100.00000
-188.58633 93.13018 -85.02797 3102.00000
-188.66419 93.12695 -83.02928 3104.00000
-188.74200 93.12273 -81.03060 3106.00000
-188.81979 93.11799 -79.03191 3108.00000
-188.89756 93.11365 -77.03319 3110.00000
-188.97532 93.11101 -75.03448 3112.00000
-189.05308 93.11122 -73.03578 3114.00000
-189.13080 93.11498 -71.03710 3116.00000
-189.20845 93.12198 -69.03842 3118.00000
-189.28600 93.13101 -67.03972 3120.00000
-189.36340 93.14032 -65.04100 3122.00000
-189.44061 93.14806 -63.04227 3124.00000
-189.51761 93.15316 -61.04354 3126.00000
-189.59440 93.15531 -59.04481 3128.00000
-189.67103 93.15494 -57.04608 3130.00000
-189.74757 93.15286 -55.04735 3132.00000
-189.82407 93.14981 -53.04863 3134.00000
-189.90059 93.14634 -51.04990 3136.00000
-189.97716 93.14272 -49.05116 3138.00000
-190.05375 93.13907 -47.05240 3140.00000
-190.13037 93.13554 -45.05364 3142.00000
-190.20700 93.13234 -43.05491 3144.00000
-190.28364 93.12969 -41.05620 3146.00000
-190.36028 93.12774 -39.05749 3148.00000
-190.43691 93.12643 -37.05878 3150.00000
-190.51352 93.12560 -35.06007 3152.00000
-190.59010 93.12500 -33.06136 3154.00000
-190.66664 93.12443 -31.06262 3156.00000
-190.74313 93.12376 -29.06388 3158.00000
-190.81957 93.12293 -27.06515 3160.00000
-190.89599 93.12192 -25.06641 3162.00000
-190.97239 93.12080 -23.06769 3164.00000
-191.04882 93.11965 -21.06894 3166.00000
-191.12530 93.11858 -19.07017 3168.00000
-191.20187 93.11760 -17.07142 3170.00000
-191.27852 93.11674 -15.07271 3172.00000
-191.35528 93.11598 -13.07412 3174.00000
-191.43216 93.11532 -11.07572 3176.00000
-191.50916 93.11475 -9.07753 3178.00000
-191.58626 93.11422 -7.07951 3180.00000
-191.66344 93.11374 -5.08156 3182.00000
-191.74064 93.11328 -3.08362 3184.00000
-191.81780 93.11285 -1.08567 3186.00000
-191.89488 93.11243 0.91232 3188.00000
-191.97184 93.11201 2.91031 3190.00000
-192.04865 93.11155 4.90830 3192.00000
-192.12526 93.11108 6.90629 3194.00000
-192.20173 93.11061 8.90429 3196.00000
-192.27820 93.11017 10.90230 3198.00000
-192.35508 93.10980 12.90030 3200.00000
-192.43295 93.10950 14.89826 3202.00000
-192.51248 93.10928 16.89617 3204.00000
-192.59425 93.10913 18.89398 3206.00000
-192.67870 93.10903 20.89169 3208.00000
-192.76630 93.10895 22.88926 3210.00000
-192.85785 93.10888 24.88665 3212.00000
-192.95474 93.10887 26.88379 3214.00000
-193.05889 93.10898 28.88062 3216.00000
-193.17225 93.10930 30.87706 3218.00000
-193.29617 93.10989 32.87304 3220.00000
-193.43106 93.11078 34.86855 3222.00000
-193.57627 93.11195 36.86361 3224.00000
-193.73029 93.11339 38.85828 3226.00000
-193.89108 93.11506 40.85263 3228.00000
-194.05636 93.11692 42.84676 3230.00000
-194.22407 93.11890 44.84077 3232.00000
-194.39279 93.12103 46.83473 3234.00000
-194.56166 93.12334 48.82866 3236.00000
-194.73026 93.12583 50.82259 3238.00000
-194.89841 93.12849 52.81651 3240.00000
-195.06605 93.13126 54.81044 3242.00000
-195.23306 93.13407 56.80440 3244.00000
-195.39887 93.13687 58.79844 3246.00000
-195.56221 93.13961 60.79268 3248.00000
-195.72086 93.14221 62.78726 3250.00000
-195.87181 93.14457 64.78225 3252.00000
-196.01177 93.14658 66.77776 3254.00000
-196.13829 93.14816 68.77388 3256.00000
-196.25082 93.14928 70.77063 3258.00000
-196.35115 93.14999 72.76795 3260.00000
-196.44284 93.15041 74.76566 3262.00000
-196.52949 93.15066 76.76356 3264.00000
-196.61350 93.15083 78.76157 3266.00000
-196.69568 93.15094 80.75967 3268.00000
-196.77532 93.15093 82.75790 3270.00000
-196.85076 93.15070 84.75633 3272.00000
-196.92041 93.15016 86.75501 3274.00000
-196.98381 93.14927 88.75394 3276.00000
-197.04244 93.14808 90.75307 3278.00000
-197.09927 93.14672 92.75230 3280.00000
-197.15773 93.14533 94.75148 3282.00000
-197.22076 93.14406 96.75048 3284.00000
-197.29010 93.14297 98.74921 3286.00000
-197.36604 93.14212 100.74764 3288.00000
-197.44750 93.14147 102.74583 3290.00000
-197.53253 93.14101 104.74387 3292.00000
-197.61924 93.14071 106.74184 3294.00000
-197.70635 93.14056 108.73979 3296.00000
-197.79317 93.14054 110.73775 3298.00000
-197.87947 93.14064 112.73572 3300.00000
-197.96522 93.14088 114.73372 3302.00000
-198.05047 93.14123 116.73176 3304.00000
-198.13526 93.14175 118.72984 3306.00000
-198.21966 93.14251 120.72792 3308.00000
-198.30374 93.14367 122.72600 3310.00000
-198.38761 93.14541 124.72406 3312.00000
-198.47133 93.14762 126.72213 3314.00000
-198.55484 93.14949 128.72024 3316.00000
-198.63817 93.15029 130.71842 3318.00000
-198.72211 93.14993 132.71669 3320.00000
-198.80808 93.14907 134.71502 3322.00000
-198.89680 93.14849 136.71335 3324.00000
-198.98785 93.14853 138.71162 3326.00000
-199.08021 93.14895 140.70984 3328.00000
-199.17308 93.14944 142.70803 3330.00000
-199.26603 93.14989 144.70622 3332.00000
-199.35905 93.15026 146.70441 3334.00000
-199.45237 93.15052 148.70258 3336.00000
-199.54635 93.15069 150.70071 3338.00000
-199.64123 93.15070 152.69881 3340.00000
-199.73711 93.15052 154.69686 3342.00000
-199.83409 93.15016 156.69487 3344.00000
-199.93239 93.14963 158.69282 3346.00000
-200.03243 93.14899 160.69069 3348.00000
-200.13487 93.14830 162.68844 3350.00000
-200.24031 93.14764 164.68606 3352.00000
-200.34907 93.14709 166.68355 3354.00000
-200.46095 93.14670 168.68095 3356.00000
-200.57521 93.14653 170.67829 3358.00000
-200.69085 93.14663 172.67565 3360.00000
-200.80706 93.14709 174.67304 3362.00000
-200.92339 93.14800 176.67045 3364.00000
-201.03965 93.14939 178.66785 3366.00000
-201.15579 93.15124 180.66527 3368.00000
-201.27183 93.15340 182.66269 3370.00000
-201.38780 93.15566 184.66011 3372.00000
-201.50372 93.15779 186.65754 3374.00000
-201.61961 93.15962 188.65498 3376.00000
-201.73546 93.16101 190.65242 3378.00000
-201.85126 93.16187 192.64987 3380.00000
-201.96700 93.16210 194.64734 3382.00000
-202.08270 93.16159 196.64482 3384.00000
-202.19842 93.16024 198.64230 3386.00000
-202.31429 93.15813 200.63977 3388.00000
-202.43047 93.15554 202.63723 3390.00000
-202.54689 93.15305 204.63471 3392.00000
-202.66284 93.15125 206.63217 3394.00000
-202.77634 93.15069 208.62963 3396.00000
-202.88398 93.15153 210.62724 3398.00000
-202.98188 93.15354 212.62520 3400.00000
-203.06762 93.15620 214.62365 3402.00000
-203.14163 93.15889 216.62258 3404.00000
-203.20681 93.16116 218.62188 3406.00000
-203.26651 93.16277 220.62141 3408.00000
-203.32295 93.16378 222.62110 3410.00000
-203.37710 93.16441 224.62093 3412.00000
-203.42914 93.16478 226.62089 3414.00000
-203.47900 93.16497 228.62097 3416.00000
-203.52685 93.16503 230.62110 3418.00000
-203.57339 93.16492 232.62108 3420.00000
-203.61961 93.16462 234.62045 3422.00000
-203.66622 93.16400 236.61879 3424.00000
-203.71337 93.16296 238.61638 3426.00000
-203.76089 93.16140 240.61581 3428.00000
-203.80809 93.15936 242.62422 3430.00000
-203.85350 93.15699 244.65244 3432.00000
-203.89563 93.15461 246.70617 3434.00000
-203.93496 93.15267 248.77852 3436.00000
-203.97335 93.15167 250.85989 3438.00000
-204.01180 93.15195 252.94417 3440.00000
-204.04942 93.15363 255.02769 3442.00000
-204.08231 93.15659 257.10675 3444.00000
-204.10293 93.16088 259.17768 3446.00000
-204.09942 93.16628 261.24305 3448.00000
-204.05126 93.17250 263.32565 3450.00000
-203.92265 93.18000 265.48411 3452.00000
-203.66154 93.18988 267.80417 3454.00000
-203.21621 93.20339 270.34524 3456.00000
-202.57346 93.22109 273.02746 3458.00000
-201.78458 93.24214 275.59656 3460.00000
-200.90324 93.26515 277.91316 3462.00000
-199.97402 93.28821 279.94543 3464.00000
-199.02032 93.30970 281.72157 3466.00000
-197.99083 93.32973 283.38033 3468.00000
-196.80823 93.34905 285.06436 3470.00000
-195.44912 93.36776 286.78157 3472.00000
-193.84726 93.38707 288.55874 3474.00000
-191.86870 93.41000 290.49032 3476.00000
-189.43646 93.43943 292.63745 3478.00000
-186.86402 93.47330 294.75594 3480.00000
-184.72152 93.50395 296.41191 3482.00000
-183.14677 93.52767 297.53291 3484.00000
-181.91544 93.54614 298.29246 3486.00000
-180.57852 93.56458 298.98315 3488.00000
-178.89686 93.58580 299.75881 3490.00000
-176.95933 93.60932 300.57302 3492.00000
-174.90926 93.63434 301.35413 3494.00000
-172.82720 93.66117 302.07017 3496.00000
-170.73906 93.69022 302.71724 3498.00000
-168.64601 93.72199 303.29963 3500.00000
-166.54410 93.75665 303.82146 3502.00000
-164.43204 93.79466 304.28499 3504.00000
-162.31216 93.83648 304.69158 3506.00000
-160.18921 93.88236 305.04291 3508.00000
-158.06876 93.93007 305.34155 3510.00000
-155.95508 93.97286 305.59059 3512.00000
-153.84782 94.00747 305.79327 3514.00000
-151.74156 94.03615 305.95196 3516.00000
-149.63195 94.06356 306.06772 3518.00000
-147.51818 94.09225 306.14301 3520.00000
-145.40176 94.12178 306.18433 3522.00000
-143.28484 94.15156 306.20129 3524.00000
-141.16920 94.18163 306.20092 3526.00000
-139.05627 94.21224 306.18334 3528.00000
-136.94758 94.24339 306.14156 3530.00000
-134.84490 94.27482 306.06584 3532.00000
-132.74976 94.30626 305.95080 3534.00000
-130.66241 94.33760 305.79637 3536.00000
-128.58108 94.36860 305.60429 3538.00000
-126.50290 94.39920 305.37652 3540.00000
-124.42605 94.42979 305.11620 3542.00000
-122.34994 94.46139 304.82852 3544.00000
-120.27468 94.49456 304.51940 3546.00000
-118.20091 94.52958 304.19226 3548.00000
-116.12962 94.56658 303.84769 3550.00000
-114.06223 94.60543 303.48410 3552.00000
-112.00058 94.64527 303.09788 3554.00000
-109.94683 94.68550 302.68354 3556.00000
-107.90317 94.72581 302.23305 3558.00000
-105.87094 94.76600 301.73707 3560.00000
-103.84948 94.80611 301.19094 3562.00000
-101.83728 94.84656 300.59692 3564.00000
-99.83392 94.88766 299.95934 3566.00000
-97.84003 94.92954 299.28212 3568.00000
-95.85594 94.97223 298.57030 3570.00000
-93.88082 95.01595 297.83137 3572.00000
-91.91339 95.06088 297.07297 3574.00000
-89.95340 95.10715 296.29901 3576.00000
-88.00205 95.15472 295.50950 3578.00000
-86.06173 95.20352 294.70163 3580.00000
-84.13533 95.25345 293.87099 3582.00000
-82.22490 95.30451 293.01313 3584.00000
-80.33026 95.35664 292.12441 3586.00000
-78.44985 95.40981 291.20205 3588.00000
-76.58317 95.46376 290.24432 3590.00000
-74.73135 95.51825 289.25026 3592.00000
-72.89633 95.57299 288.21965 3594.00000
-71.08010 95.62780 287.15295 3596.00000
-69.28443 95.68258 286.05096 3598.00000
-67.51090 95.73751 284.91475 3600.00000
-65.76082 95.79289 283.74617 3602.00000
-64.03480 95.84939 282.54900 3604.00000
-62.33226 95.90782 281.32987 3606.00000
-60.65134 95.96865 280.09680 3608.00000
-58.98934 96.03100 278.85289 3610.00000
-57.34566 96.09284 277.59038 3612.00000
-55.72479 96.15291 276.29585 3614.00000
-54.13141 96.21135 274.96095 3616.00000
-52.56556 96.26875 273.58698 3618.00000
-51.02302 96.32673 272.18170 3620.00000
-49.49903 96.38544 270.75332 3622.00000
-47.99063 96.44476 269.30729 3624.00000
-46.49655 96.50473 267.84650 3626.00000
-45.01659 96.56563 266.37233 3628.00000
-43.55067 96.62767 264.88608 3630.00000
-42.09859 96.69065 263.38957 3632.00000
-40.66041 96.75417 261.88479 3634.00000
-39.23686 96.81765 260.37277 3636.00000
-37.82866 96.88058 258.85233 3638.00000
-36.43589 96.94275 257.31978 3640.00000
-35.05907 97.00428 255.77151 3642.00000
-33.69895 97.06558 254.20574 3644.00000
-32.35635 97.12707 252.62229 3646.00000
-31.03247 97.18912 251.02147 3648.00000
-29.72911 97.25165 249.40331 3650.00000
-28.44848 97.31443 247.76751 3652.00000
-27.19248 97.37695 246.11407 3654.00000
-25.96233 97.43877 244.44365 3656.00000
-24.75883 97.49951 242.75720 3658.00000
-23.58246 97.55899 241.05556 3660.00000
-22.43310 97.61728 239.33894 3662.00000
-21.30922 97.67467 237.60690 3664.00000
-20.20756 97.73154 235.85912 3666.00000
-19.12392 97.78822 234.09694 3668.00000
-18.05502 97.84490 232.32257 3670.00000
-16.99955 97.90162 230.53765 3672.00000
-15.95748 97.95833 228.74313 3674.00000
-14.92930 98.01499 226.93958 3676.00000
-13.91579 98.07147 225.12734 3678.00000
-12.91808 98.12771 223.30646 3680.00000
-11.93784 98.18368 221.47666 3682.00000
-10.97710 98.23954 219.63762 3684.00000
-10.03775 98.29554 217.78964 3686.00000
-9.12170 98.35206 215.93433 3688.00000
-8.23149 98.40927 214.07513 3690.00000
-7.36973 98.46726 212.21677 3692.00000
-6.53733 98.52594 210.36131 3694.00000
-5.73234 98.58542 208.50475 3696.00000
-4.95248 98.64571 206.64185 3698.00000
-4.19667 98.70685 204.76951 3700.00000
-3.46472 98.76887 202.88677 3702.00000
-2.75614 98.83182 200.99405 3704.00000
-2.06883 98.89564 199.09271 3706.00000
-1.39799 98.96017 197.18511 3708.00000
-0.73716 99.02511 195.27401 3710.00000
-0.08108 99.09026 193.36156 3712.00000
0.57370 99.15543 191.44927 3714.00000
1.22960 99.22048 189.53875 3716.00000
1.88839 99.28522 187.63233 3718.00000
2.55067 99.34948 185.73274 3720.00000
3.21517 99.41316 183.84073 3722.00000
3.88076 99.47633 181.95397 3724.00000
4.54807 99.53914 180.06997 3726.00000
5.21904 99.60178 178.18777 3728.00000
5.89478 99.66443 176.30717 3730.00000
6.57377 99.72734 174.42755 3732.00000
7.25454 99.79065 172.54843 3734.00000
7.93884 99.85436 170.67035 3736.00000
8.63256 99.91823 168.79509 3738.00000
9.34324 99.98202 166.92497 3740.00000
10.07400 100.04555 165.06149 3742.00000
10.81989 100.10895 163.20588 3744.00000
11.57017 100.17240 161.36225 3746.00000
12.31469 100.23600 159.53951 3748.00000
13.04981 100.30002 157.74342 3750.00000
13.78034 100.36517 155.96691 3752.00000
14.51272 100.43195 154.19919 3754.00000
15.25061 100.50045 152.43367 3756.00000
15.99563 100.57032 150.66859 3758.00000
16.74957 100.64086 148.90504 3760.00000
17.51549 100.71137 147.14560 3762.00000
18.29836 100.78129 145.39417 3764.00000
19.10678 100.85031 143.65692 3766.00000
19.95461 100.91845 141.94323 3768.00000
20.85721 100.98597 140.26332 3770.00000
21.82186 101.05323 138.62193 3772.00000
22.84072 101.12043 137.01341 3774.00000
23.89543 101.18756 135.42532 3776.00000
24.97306 101.25459 133.84945 3778.00000
26.07115 101.32164 132.28509 3780.00000
27.18967 101.38882 130.73354 3782.00000
28.32753 101.45629 129.19550 3784.00000
29.48312 101.52410 127.67133 3786.00000
30.65586 101.59223 126.16224 3788.00000
31.84738 101.66057 124.67136 3790.00000
33.06173 101.72894 123.20373 3792.00000
34.30282 101.79720 121.76350 3794.00000
35.56978 101.86529 120.34893 3796.00000
36.85662 101.93326 118.95167 3798.00000
38.15600 102.00125 117.56208 3800.00000
39.46355 102.06932 116.17479 3802.00000
40.78054 102.13718 114.79116 3804.00000
42.11280 102.20483 113.41817 3806.00000
43.46899 102.27251 112.06655 3808.00000
44.85619 102.34050 110.74628 3810.00000
46.27633 102.40915 109.46251 3812.00000
47.72683 102.47844 108.21572 3814.00000
49.20168 102.54830 107.00238 3816.00000
50.69246 102.61858 105.81524 3818.00000
52.19175 102.68893 104.64625 3820.00000
53.69838 102.75890 103.49147 3822.00000
55.21752 102.82806 102.35227 3824.00000
56.75543 102.89605 101.23331 3826.00000
58.31611 102.96263 100.13987 3828.00000
59.90112 103.02778 99.07660 3830.00000
61.51026 103.09166 98.04708 3832.00000
63.14216 103.15454 97.05361 3834.00000
64.79474 103.21658 96.09767 3836.00000
66.46565 103.27788 95.17997 3838.00000
68.15235 103.33850 94.29964 3840.00000
69.85213 103.39853 93.45233 3842.00000
71.56279 103.45815 92.62946 3844.00000
73.28320 103.51755 91.82121 3846.00000
75.01224 103.57689 91.02089 3848.00000
76.74962 103.63620 90.22811 3850.00000
78.49750 103.69548 89.45018 3852.00000
80.25871 103.75465 88.69704 3854.00000
82.03425 103.81354 87.97505 3856.00000
83.82307 103.87192 87.28562 3858.00000
85.62226 103.92958 86.62529 3860.00000
87.42872 103.98635 85.98991 3862.00000
89.24086 104.04216 85.37936 3864.00000
91.05876 104.09710 84.79772 3866.00000
92.88436 104.15134 84.25253 3868.00000
94.72054 104.20510 83.74973 3870.00000
96.56906 104.25846 83.28837 3872.00000
98.42898 104.31131 82.86112 3874.00000
100.29798 104.36342 82.46010 3876.00000
102.17409 104.41446 82.08216 3878.00000
104.05617 104.46422 81.72929 3880.00000
105.94347 104.51266 81.40649 3882.00000
107.83496 104.55988 81.11847 3884.00000
109.72914 104.60611 80.86778 3886.00000
111.62457 104.65163 80.65525 3888.00000
113.52060 104.69670 80.48075 3890.00000
115.41810 104.74151 80.34339 3892.00000
117.31900 104.78611 80.24123 3894.00000
119.22443 104.83043 80.17079 3896.00000
121.13410 104.87426 80.12758 3898.00000
123.04689 104.91736 80.10780 3900.00000
124.96154 104.95962 80.11035 3902.00000
126.87672 105.00103 80.13753 3904.00000
128.79092 105.04172 80.19428 3906.00000
130.70235 105.08195 80.28616 3908.00000
132.60898 105.12202 80.41671 3910.00000
134.50867 105.16213 80.58617 3912.00000
136.39954 105.20225 80.79181 3914.00000
138.28085 105.24212 81.02878 3916.00000
140.15434 105.28136 81.29031 3918.00000
142.02448 105.31960 81.56819 3920.00000
143.89550 105.35659 81.85534 3922.00000
145.76953 105.39221 82.14835 3924.00000
147.64655 105.42638 82.44825 3926.00000
149.52448 105.45878 82.76128 3928.00000
151.39907 105.48870 83.09923 3930.00000
153.26433 105.51636 83.47749 3932.00000
155.11404 105.54187 83.91051 3934.00000
156.94439 105.56617 84.40718 3936.00000
158.75707 105.59030 84.96758 3938.00000
160.56053 105.61538 85.58315 3940.00000
162.36554 105.64247 86.23811 3942.00000
164.17515 105.67213 86.91651 3944.00000
165.98509 105.70400 87.61247 3946.00000
167.78932 105.73699 88.32905 3948.00000
169.58389 105.76951 89.06962 3950.00000
171.36806 105.79992 89.83264 3952.00000
173.14320 105.82723 90.61231 3954.00000
174.91030 105.85102 91.40399 3956.00000
176.66916 105.87172 92.20761 3958.00000
178.42122 105.89036 93.02432 3960.00000
180.17297 105.90843 93.85372 3962.00000
181.93476 105.92727 94.69679 3964.00000
183.71354 105.94750 95.55553 3966.00000
185.50470 105.96903 96.42883 3968.00000
187.29908 105.99110 97.31402 3970.00000
189.09148 106.01285 98.20748 3972.00000
190.88151 106.03369 99.10437 3974.00000
192.67041 106.05331 100.00142 3976.00000
194.45918 106.07177 100.89749 3978.00000
196.24824 106.08919 101.79251 3980.00000
198.03767 106.10575 102.68674 3982.00000
199.82746 106.12152 103.58040 3984.00000
201.61758 106.13654 104.47360 3986.00000
203.40807 106.15075 105.36644 3988.00000
205.19893 106.16416 106.25892 3990.00000
206.99011 106.17679 107.15105 3992.00000
208.78154 106.18871 108.04281 3994.00000
210.57320 106.20000 108.93416 3996.00000
212.36508 106.21071 109.82507 3998.00000
214.15717 106.22082 110.71555 4000.00000
215.94947 106.23027 111.60557 4002.00000
217.74199 106.23889 112.49513 4004.00000
219.53474 106.24661 113.38421 4006.00000
221.32774 106.25341 114.27281 4008.00000
223.12099 106.25952 115.16096 4010.00000
224.91445 106.26537 116.04866 4012.00000
226.70806 106.27145 116.93602 4014.00000
228.50174 106.27815 117.82319 4016.00000
230.29541 106.28558 118.71036 4018.00000
232.08904 106.29341 119.59764 4020.00000
233.88263 106.30099 120.48507 4022.00000
235.67616 106.30750 121.37263 4024.00000
237.46964 106.31234 122.26029 4026.00000
239.26307 106.31521 123.14803 4028.00000
241.05643 106.31624 124.03584 4030.00000
242.84972 106.31587 124.92372 4032.00000
244.64296 106.31459 125.81170 4034.00000
246.43628 106.31287 126.69989 4036.00000
248.22994 106.31092 127.58845 4038.00000
250.02422 106.30872 128.47750 4040.00000
251.81899 106.30608 129.36688 4042.00000
253.61274 106.30278 130.25560 4044.00000
255.40130 106.29873 131.14119 4046.00000
257.17784 106.29389 132.01980 4048.00000
258.93747 106.28829 132.88901 4050.00000
260.68360 106.28194 133.75224 4052.00000
262.42178 106.27480 134.61701 4054.00000
264.15345 106.26670 135.49244 4056.00000
265.87582 106.25734 136.38802 4058.00000
267.58448 106.24648 137.31131 4060.00000
269.27591 106.23406 138.26549 4062.00000
270.94724 106.22018 139.24937 4064.00000
272.59437 106.20496 140.25905 4066.00000
274.21081 106.18851 141.29046 4068.00000
275.79144 106.17088 142.34340 4070.00000
277.33932 106.15216 143.42329 4072.00000
278.86134 106.13265 144.53424 4074.00000
280.36322 106.11285 145.67504 4076.00000
281.84808 106.09322 146.84140 4078.00000
283.31452 106.07399 148.03166 4080.00000
284.75749 106.05513 149.24785 4082.00000
286.17283 106.03669 150.49131 4084.00000
287.55976 106.01885 151.76096 4086.00000
288.91958 106.00193 153.05623 4088.00000
290.25371 105.98597 154.37913 4090.00000
291.56230 105.97081 155.73223 4092.00000
292.84546 105.95590 157.11529 4094.00000
294.10547 105.94063 158.52411 4096.00000
295.34508 105.92444 159.95342 4098.00000
296.56520 105.90687 161.39972 4100.00000
297.76526 105.88777 162.86099 4102.00000
298.94377 105.86705 164.33608 4104.00000
300.09839 105.84455 165.82489 4106.00000
301.22566 105.81999 167.32936 4108.00000
302.32194 105.79312 168.85415 4110.00000
303.38402 105.76383 170.40550 4112.00000
304.40728 105.73238 171.98892 4114.00000
305.38698 105.69953 173.60701 4116.00000
306.32233 105.66644 175.25687 4118.00000
307.21609 105.63451 176.92821 4120.00000
308.06708 105.60459 178.60441 4122.00000
308.86512 105.57703 180.26584 4124.00000
309.59837 105.55136 181.90248 4126.00000
310.26303 105.52595 183.53216 4128.00000
310.85785 105.49838 185.17997 4130.00000
311.38037 105.46689 186.85675 4132.00000
311.82504 105.43133 188.55953 4134.00000
312.18293 105.39245 190.27508 4136.00000
312.44401 105.35121 191.98032 4138.00000
312.60082 105.30848 193.64511 4140.00000
312.65385 105.26451 195.24965 4142.00000
312.61413 105.21915 196.80787 4144.00000
312.49674 105.17375 198.34275 4146.00000
312.31043 105.13056 199.86468 4148.00000
312.05491 105.08935 201.37847 4150.00000
311.72193 105.04966 202.89569 4152.00000
311.30000 105.01123 204.43084 4154.00000
310.78408 104.97372 205.98016 4156.00000
310.17952 104.93593 207.52723 4158.00000
309.49893 104.89701 209.06333 4160.00000
308.75237 104.85741 210.59731 4162.00000
307.93410 104.81757 212.15052 4164.00000
307.02374 104.77712 213.73349 4166.00000
306.00987 104.73611 215.31837 4168.00000
304.89635 104.69421 216.86493 4170.00000
303.69870 104.65103 218.35255 4172.00000
302.44031 104.60684 219.78357 4174.00000
301.14409 104.56231 221.17161 4176.00000
299.82015 104.51762 222.52601 4178.00000
298.46499 104.47243 223.84885 4180.00000
297.07222 104.42629 225.14090 4182.00000
295.64225 104.37922 226.40339 4184.00000
294.18233 104.33162 227.63942 4186.00000
292.70107 104.28402 228.85327 4188.00000
291.20408 104.23670 230.04718 4190.00000
289.69402 104.18980 231.22116 4192.00000
288.17191 104.14335 232.37442 4194.00000
286.63743 104.09740 233.50674 4196.00000
285.08795 104.05194 234.61955 4198.00000
283.51759 104.00701 235.71658 4200.00000
281.92048 103.96254 236.80137 4202.00000
280.29776 103.91867 237.87245 4204.00000
278.65464 103.87557 238.92571 4206.00000
276.99540 103.83344 239.95821 4208.00000
275.32304 103.79246 240.96932 4210.00000
273.64024 103.75296 241.96106 4212.00000
271.95012 103.71526 242.93822 4214.00000
270.25522 103.67966 243.90749 4216.00000
268.55542 103.64615 244.87562 4218.00000
266.84724 103.61445 245.84806 4220.00000
265.12713 103.58411 246.82773 4222.00000
263.39675 103.55475 247.81330 4224.00000
261.66065 103.52611 248.80129 4226.00000
259.92225 103.49803 249.78907 4228.00000
258.18311 103.47038 250.77528 4230.00000
256.44332 103.44301 251.75909 4232.00000
254.70172 103.41578 252.73878 4234.00000
252.95590 103.38849 253.71045 4236.00000
251.20252 103.36093 254.66833 4238.00000
249.43884 103.33290 255.60767 4240.00000
247.66460 103.30434 256.52797 4242.00000
245.88232 103.27533 257.43376 4244.00000
244.09590 103.24607 258.33201 4246.00000
242.30838 103.21685 259.22809 4248.00000
240.52155 103.18810 260.12517 4250.00000
238.73661 103.16035 261.02544 4252.00000
236.95458 103.13411 261.93084 4254.00000
235.17571 103.10972 262.84198 4256.00000
233.39921 103.08707 263.75777 4258.00000
231.62446 103.06568 264.67761 4260.00000
229.85230 103.04488 265.60339 4262.00000
228.08475 103.02401 266.53851 4264.00000
226.32275 103.00265 267.48419 4266.00000
224.56481 102.98067 268.43737 4268.00000
222.80869 102.95830 269.39385 4270.00000
221.05299 102.93597 270.35106 4272.00000
219.29718 102.91418 271.30803 4274.00000
217.54119 102.89337 272.26467 4276.00000
215.78518 102.87376 273.22128 4278.00000
214.02948 102.85541 274.17844 4280.00000
212.27458 102.83831 275.13704 4282.00000
210.52097 102.82240 276.09794 4284.00000
208.76870 102.80764 277.06130 4286.00000
207.01741 102.79392 278.02644 4288.00000
205.26663 102.78103 278.99254 4290.00000
203.51607 102.76871 279.95905 4292.00000
201.76559 102.75669 280.92574 4294.00000
200.01518 102.74480 281.89256 4296.00000
198.26487 102.73299 282.85953 4298.00000
196.51467 102.72132 283.82670 4300.00000
194.76464 102.70998 284.79407 4302.00000
193.01475 102.69918 285.76166 4304.00000
191.26496 102.68913 286.72948 4306.00000
189.51528 102.67999 287.69755 4308.00000
187.76569 102.67179 288.66588 4310.00000
186.01615 102.66457 289.63449 4312.00000
184.26663 102.65832 290.60338 4314.00000
182.51716 102.65305 291.57253 4316.00000
180.76776 102.64874 292.54186 4318.00000
179.01840 102.64530 293.51135 4320.00000
177.26911 102.64258 294.48096 4322.00000
175.51989 102.64031 295.45064 4324.00000
173.77073 102.63830 296.42038 4326.00000
172.02158 102.63642 297.39018 4328.00000
170.27241 102.63470 298.36003 4330.00000
168.52325 102.63330 299.32990 4332.00000
166.77411 102.63245 300.29978 4334.00000
165.02496 102.63239 301.26963 4336.00000
163.27578 102.63326 302.23946 4338.00000
161.52656 102.63510 303.20924 4340.00000
159.77733 102.63791 304.17897 4342.00000
158.02809 102.64166 305.14865 4344.00000
156.27887 102.64637 306.11827 4346.00000
154.52962 102.65200 307.08788 4348.00000
152.78033 102.65849 308.05749 4350.00000
151.03103 102.66571 309.02712 4352.00000
149.28175 102.67354 309.99674 4354.00000
147.53250 102.68183 310.96637 4356.00000
145.78328 102.69047 311.93604 4358.00000
144.03408 102.69930 312.90574 4360.00000
142.28491 102.70816 313.87548 4362.00000
140.53571 102.71687 314.84526 4364.00000
138.78648 102.72524 315.81508 4366.00000
137.03722 102.73312 316.78492 4368.00000
135.28793 102.74041 317.75477 4370.00000
133.53866 102.74712 318.72460 4372.00000
131.78942 102.75329 319.69439 4374.00000
130.04021 102.75899 320.66413 4376.00000
128.29100 102.76425 321.63385 4378.00000
126.54176 102.76910 322.60355 4380.00000
124.79249 102.77349 323.57326 4382.00000
123.04321 102.77738 324.54298 4384.00000
121.29394 102.78071 325.51273 4386.00000
119.54470 102.78343 326.48252 4388.00000
117.79550 102.78547 327.45238 4390.00000
116.04634 102.78672 328.42233 4392.00000
114.29721 102.78704 329.39237 4394.00000
112.54813 102.78627 330.36249 4396.00000
110.79911 102.78428 331.33267 4398.00000
109.05013 102.78104 332.30291 4400.00000
107.30117 102.77663 333.27318 4402.00000
105.55223 102.77126 334.24347 4404.00000
103.80330 102.76512 335.21374 4406.00000
102.05437 102.75837 336.18399 4408.00000
100.30540 102.75107 337.15421 4410.00000
98.55637 102.74320 338.12437 4412.00000
96.80728 102.73473 339.09447 4414.00000
95.05812 102.72562 340.06451 4416.00000
93.30893 102.71588 341.03448 4418.00000
91.55976 102.70549 342.00436 4420.00000
89.81061 102.69441 342.97416 4422.00000
88.06143 102.68256 343.94390 4424.00000
86.31219 102.66977 344.91359 4426.00000
84.56286 102.65589 345.88324 4428.00000
82.81347 102.64082 346.85284 4430.00000
81.06407 102.62457 347.82237 4432.00000
79.31468 102.60723 348.79184 4434.00000
77.56528 102.58902 349.76126 4436.00000
75.81585 102.57012 350.73066 4438.00000
74.06641 102.55069 351.70003 4440.00000
72.31694 102.53076 352.66937 4442.00000
70.56742 102.51026 353.63868 4444.00000
68.81787 102.48906 354.60796 4446.00000
67.06829 102.46704 355.57718 4448.00000
65.31870 102.44416 356.54634 4450.00000
63.56911 102.42045 357.51545 4452.00000
61.81948 102.39606 358.48452 4454.00000
60.06982 102.37118 359.45353 4456.00000
58.32017 102.34599 360.42249 4458.00000
56.57054 102.32058 361.39139 4460.00000
54.82092 102.29486 362.36024 4462.00000
53.07133 102.26858 363.32905 4464.00000
51.32180 102.24137 364.29782 4466.00000
49.57233 102.21291 365.26657 4468.00000
47.82288 102.18299 366.23531 4470.00000
46.07347 102.15161 367.20403 4472.00000
44.32409 102.11887 368.17272 4474.00000
42.57472 102.08501 369.14142 4476.00000
40.82536 102.05025 370.11015 4478.00000
39.07602 102.01472 371.07893 4480.00000
37.32667 101.97843 372.04775 4482.00000
35.57731 101.94123 373.01658 4484.00000
33.82794 101.90294 373.98534 4486.00000
32.07855 101.86343 374.95402 4488.00000
30.32910 101.82265 375.92262 4490.00000
28.57958 101.78077 376.89115 4492.00000
26.83000 101.73811 377.85965 4494.00000
25.08034 101.69508 378.82811 4496.00000
23.33067 101.65205 379.79651 4498.00000
21.58104 101.60918 380.76483 4500.00000
19.83144 101.56640 381.73308 4502.00000
18.08182 101.52342 382.70131 4504.00000
16.33216 101.47988 383.66954 4506.00000
14.58247 101.43544 384.63778 4508.00000
12.83280 101.38989 385.60601 4510.00000
11.08320 101.34312 386.57421 4512.00000
9.33375 101.29509 387.54232 4514.00000
7.58442 101.24580 388.51035 4516.00000
5.83515 101.19524 389.47832 4518.00000
4.08587 101.14343 390.44625 4520.00000
2.33657 101.09050 391.41416 4522.00000
0.58724 101.03672 392.38202 4524.00000
-1.16212 100.98244 393.34983 4526.00000
-2.91150 100.92798 394.31758 4528.00000
-4.66093 100.87358 395.28527 4530.00000
-6.41041 100.81933 396.25291 4532.00000
-8.15992 100.76523 397.22051 4534.00000
-9.90943 100.71130 398.18805 4536.00000
-11.65896 100.65756 399.15553 4538.00000
-13.40852 100.60402 400.12294 4540.00000
-15.15810 100.55040 401.09032 4542.00000
-16.90767 100.49596 402.05769 4544.00000
-18.65724 100.43960 403.02514 4546.00000
-20.40676 100.38019 403.99268 4548.00000
-22.15622 100.31692 404.96035 4550.00000
-23.90563 100.24995 405.92811 4552.00000
-25.65502 100.18014 406.89592 4554.00000
-27.40443 100.10896 407.86370 4556.00000
-29.15385 100.03788 408.83135 4558.00000
-30.90328 99.96780 409.79885 4560.00000
-32.65274 99.89897 410.76617 4562.00000
-34.40218 99.83097 411.73332 4564.00000
-36.15160 99.76311 412.70033 4566.00000
-37.90104 99.69469 413.66724 4568.00000
-39.65048 99.62528 414.63409 4570.00000
-41.39995 99.55487 415.60089 4572.00000
-43.14944 99.48364 416.56764 4574.00000
-44.89893 99.41196 417.53432 4576.00000
-46.64846 99.34014 418.50097 4578.00000
-48.39802 99.26838 419.46758 4580.00000
-50.14763 99.19677 420.43415 4582.00000
-51.89727 99.12528 421.40068 4584.00000
-53.64695 99.05386 422.36716 4586.00000
-55.39666 98.98240 423.33359 4588.00000
-57.14641 98.91083 424.29997 4590.00000
-58.89621 98.83918 425.26630 4592.00000
-60.64602 98.76755 426.23255 4594.00000
-62.39581 98.69619 427.19870 4596.00000
-64.14556 98.62541 428.16472 4598.00000
-65.89535 98.55547 429.13069 4600.00000
-67.64520 98.48649 430.09667 4602.00000
-69.39509 98.41837 431.06269 4604.00000
-71.14496 98.35087 432.02882 4606.00000
-72.89475 98.28365 432.99517 4608.00000
-74.64439 98.21641 433.96194 4610.00000
-76.39384 98.14909 434.92929 4612.00000
-78.14306 98.08187 435.89735 4614.00000
-79.89199 98.01529 436.86611 4616.00000
-81.64056 97.95002 437.83554 4618.00000
-83.38873 97.88666 438.80562 4620.00000
-85.13652 97.82551 439.77633 4622.00000
-86.88396 97.76634 440.74771 4624.00000
-88.63105 97.70860 441.71978 4626.00000
-90.37775 97.65147 442.69256 4628.00000
-92.12404 97.59429 443.66603 4630.00000
-93.86998 97.53678 444.64014 4632.00000
-95.61567 97.47908 445.61476 4634.00000
-97.36119 97.42174 446.58973 4636.00000
-99.10661 97.36543 447.56486 4638.00000
-100.85198 97.31066 448.54007 4640.00000
-102.59733 97.25776 449.51526 4642.00000
-104.34271 97.20667 450.49042 4644.00000
-106.08814 97.15713 451.46554 4646.00000
-107.83359 97.10873 452.44061 4648.00000
-109.57905 97.06117 453.41564 4650.00000
-111.32451 97.01429 454.39063 4652.00000
-113.06998 96.96802 455.36557 4654.00000
-114.81548 96.92231 456.34048 4656.00000
-116.56106 96.87708 457.31537 4658.00000
-118.30678 96.83222 458.29027 4660.00000
-120.05272 96.78769 459.26522 4662.00000
-121.79886 96.74358 460.24022 4664.00000
-123.54514 96.70013 461.21520 4666.00000
-125.29149 96.65765 462.19015 4668.00000
-127.03786 96.61645 463.16503 4670.00000
-128.78426 96.57666 464.13983 4672.00000
-130.53071 96.53837 465.11455 4674.00000
-132.27722 96.50148 466.08917 4676.00000
-134.02379 96.46595 467.06368 4678.00000
-135.77044 96.43171 468.03807 4680.00000
-137.51713 96.39874 469.01233 4682.00000
-139.26387 96.36696 469.98648 4684.00000
-141.01064 96.33626 470.96057 4686.00000
-142.75744 96.30643 471.93462 4688.00000
-144.50426 96.27730 472.90865 4690.00000
-146.25109 96.24874 473.88266 4692.00000
-147.99793 96.22067 474.85663 4694.00000
-149.74475 96.19304 475.83060 4696.00000
-151.49157 96.16578 476.80463 4698.00000
-153.23835 96.13883 477.77881 4700.00000
-154.98505 96.11216 478.75316 4702.00000
-156.73163 96.08577 479.72765 4704.00000
-158.47807 96.05980 480.70226 4706.00000
-160.22444 96.03442 481.67697 4708.00000
-161.97080 96.00984 482.65178 4710.00000
-163.71721 95.98621 483.62671 4712.00000
-165.46369 95.96363 484.60175 4714.00000
-167.21022 95.94217 485.57691 4716.00000
-168.95676 95.92196 486.55214 4718.00000
-170.70329 95.90309 487.52740 4720.00000
-172.44984 95.88568 488.50262 4722.00000
-174.19642 95.86973 489.47773 4724.00000
-175.94307 95.85522 490.45269 4726.00000
-177.68978 95.84202 491.42754 4728.00000
-179.43655 95.83003 492.40229 4730.00000
-181.18337 95.81914 493.37697 4732.00000
-182.93024 95.80927 494.35158 4734.00000
-184.67716 95.80031 495.32613 4736.00000
-186.42409 95.79214 496.30061 4738.00000
-188.17106 95.78455 497.27504 4740.00000
-189.91808 95.77744 498.24944 4742.00000
-191.66513 95.77080 499.22376 4744.00000
-193.41221 95.76483 500.19800 4746.00000
-195.15935 95.75989 501.17215 4748.00000
-196.90655 95.75639 502.14619 4750.00000
-198.65381 95.75456 503.12013 4752.00000
-200.40113 95.75445 504.09396 4754.00000
-202.14852 95.75574 505.06767 4756.00000
-203.89604 95.75799 506.04117 4758.00000
-205.64375 95.76064 507.01428 4760.00000
-207.39174 95.76331 507.98681 4762.00000
-209.14006 95.76580 508.95869 4764.00000
-210.88871 95.76816 509.93002 4766.00000
-212.63767 95.77058 510.90087 4768.00000
-214.38700 95.77327 511.87105 4770.00000
-216.13695 95.77638 512.84007 4772.00000
-217.88777 95.78003 513.80751 4774.00000
-219.63949 95.78430 514.77345 4776.00000
-221.39176 95.78932 515.73839 4778.00000
-223.14430 95.79526 516.70281 4780.00000
-224.89695 95.80232 517.66702 4782.00000
-226.64965 95.81054 518.63111 4784.00000
-228.40238 95.81983 519.59512 4786.00000
-230.15516 95.82977 520.55908 4788.00000
-231.90800 95.83989 521.52297 4790.00000
-233.66088 95.84971 522.48678 4792.00000
-235.41380 95.85904 523.45051 4794.00000
-237.16674 95.86802 524.41414 4796.00000
-238.91976 95.87697 525.37769 4798.00000
-240.67282 95.88622 526.34121 4800.00000
-242.42584 95.89595 527.30482 4802.00000
-244.17871 95.90615 528.26864 4804.00000
-245.93137 95.91668 529.23288 4806.00000
-247.68379 95.92745 530.19761 4808.00000
-249.43605 95.93855 531.16276 4810.00000
-251.18831 95.95008 532.12793 4812.00000
-252.94080 95.96216 533.09236 4814.00000
-254.69341 95.97468 534.05524 4816.00000
-256.44579 95.98729 535.01579 4818.00000
-258.19801 95.99940 535.97331 4820.00000
-259.95098 96.01042 536.92729 4822.00000
-261.70556 96.01985 537.87749 4824.00000
-263.46213 96.02748 538.82388 4826.00000
-265.22079 96.03335 539.76654 4828.00000
-266.98161 96.03761 540.70535 4830.00000
-268.74487 96.04043 541.63977 4832.00000
-270.51113 96.04196 542.56868 4834.00000
-272.28102 96.04228 543.49091 4836.00000
-274.05452 96.04155 544.40640 4838.00000
-275.83074 96.04001 545.31678 4840.00000
-277.60832 96.03796 546.22451 4842.00000
-279.38633 96.03560 547.13127 4844.00000
-281.16447 96.03303 548.03766 4846.00000
-282.94272 96.03024 548.94371 4848.00000
-284.72110 96.02719 549.84931 4850.00000
-286.49962 96.02382 550.75448 4852.00000
-288.27821 96.02010 551.65933 4854.00000
-290.05678 96.01599 552.56400 4856.00000
-291.83526 96.01138 553.46853 4858.00000
-293.61369 96.00608 554.37300 4860.00000
-295.39228 95.99981 555.27754 4862.00000
-297.17148 95.99237 556.18240 4864.00000
-298.95191 95.98363 557.08787 4866.00000
-300.73360 95.97364 557.99399 4868.00000
-302.51599 95.96246 558.90048 4870.00000
-304.29858 95.95016 559.80714 4872.00000
-306.08106 95.93672 560.71385 4874.00000
-307.86343 95.92207 561.62060 4876.00000
-309.64578 95.90621 562.52735 4878.00000
-311.42823 95.88933 563.43394 4880.00000
-313.21085 95.87183 564.34016 4882.00000
-314.99369 95.85421 565.24590 4884.00000
-316.77672 95.83679 566.15125 4886.00000
-318.55984 95.81963 567.05645 4888.00000
-320.34286 95.80245 567.96191 4890.00000
-322.12553 95.78468 568.86798 4892.00000
-323.90767 95.76572 569.77491 4894.00000
-325.68922 95.74508 570.68274 4896.00000
-327.47025 95.72266 571.59141 4898.00000
-329.25103 95.69890 572.50071 4900.00000
-331.03208 95.67457 573.41054 4902.00000
-332.81413 95.65068 574.32089 4904.00000
-334.59757 95.62797 575.23165 4906.00000
-336.38111 95.60679 576.14209 4908.00000
-338.15940 95.58715 577.05011 4910.00000
-339.92119 95.56885 577.95213 4912.00000
-341.65326 95.55176 578.84539 4914.00000
-343.35662 95.53554 579.73319 4916.00000
-345.04756 95.51968 580.62294 4918.00000
-346.74470 95.50350 581.51479 4920.00000
-348.46490 95.48629 582.39238 4922.00000
-350.21555 95.46741 583.21742 4924.00000
-351.97221 95.44631 583.93313 4926.00000
-353.65517 95.42227 584.48145 4928.00000
-355.15593 95.39412 584.83003 4930.00000
-356.45667 95.36283 585.00193 4932.00000
-357.63616 95.32952 585.05941 4934.00000
-358.75898 95.29548 585.05745 4936.00000
-359.84675 95.26167 585.01659 4938.00000
-360.89725 95.22761 584.92357 4940.00000
-361.91203 95.19224 584.76133 4942.00000
-362.91025 95.15439 584.52053 4944.00000
-363.90771 95.11518 584.19203 4946.00000
-364.90877 95.07698 583.76717 4948.00000
-365.92406 95.04008 583.22141 4950.00000
-366.98557 95.00134 582.49759 4952.00000
-368.11446 94.95664 581.52614 4954.00000
-369.24585 94.90922 580.30023 4956.00000
-370.27995 94.86581 578.87677 4958.00000
-371.17381 94.82743 577.32805 4960.00000
-371.95629 94.79199 575.72371 4962.00000
-372.68740 94.75766 574.11097 4964.00000
-373.41067 94.72280 572.49417 4966.00000
-374.15473 94.68614 570.84336 4968.00000
-374.93668 94.64703 569.12413 4970.00000
-375.75173 94.60589 567.34068 4972.00000
-376.58294 94.56371 565.52383 4974.00000
-377.41757 94.52120 563.69714 4976.00000
-378.24915 94.47865 561.87026 4978.00000
-379.07412 94.43605 560.04425 4980.00000
-379.89049 94.39330 558.21695 4982.00000
-380.69818 94.35033 556.38660 4984.00000
