VERSION 0.7
FIELDS x y z lapdistance
SIZE 4 4 4 4
TYPE F F F F
COUNT 1 1 1 1
WIDTH 1170
HEIGHT 1
VIEWPOINT 0.520 -0.480 -0.488 -0.511 -389.148 91.073 137.390
POINTS 1170
DATA ascii
203.49956 103.74430 -192.06612 1890.00000
202.01950 103.72949 -190.36247 1892.00000
200.49322 103.71291 -188.72689 1894.00000
198.91192 103.69314 -187.18139 1896.00000
197.27369 103.66995 -185.73932 1898.00000
195.57920 103.64409 -184.39133 1900.00000
193.81680 103.61706 -183.09912 1902.00000
191.96757 103.59052 -181.81964 1904.00000
190.01741 103.56522 -180.53660 1906.00000
187.99514 103.54082 -179.28513 1908.00000
185.95824 103.51697 -178.11491 1910.00000
183.93589 103.49428 -177.03503 1912.00000
181.94016 103.47366 -176.04010 1914.00000
179.97562 103.45474 -175.13373 1916.00000
178.03878 103.43566 -174.32821 1918.00000
176.10385 103.41399 -173.62363 1920.00000
174.10873 103.38795 -172.99686 1922.00000
172.02173 103.35696 -172.43172 1924.00000
169.84128 103.32154 -171.92546 1926.00000
167.58157 103.28289 -171.47999 1928.00000
165.30812 103.24339 -171.10310 1930.00000
163.09825 103.20580 -170.79785 1932.00000
160.96914 103.17150 -170.55389 1934.00000
158.86650 103.13996 -170.35694 1936.00000
156.73232 103.10971 -170.20119 1938.00000
154.57350 103.07983 -170.09272 1940.00000
152.41754 103.05001 -170.03563 1942.00000
150.27929 103.02010 -170.02907 1944.00000
148.14575 102.98916 -170.07743 1946.00000
145.99597 102.95575 -170.19043 1948.00000
143.84145 102.91891 -170.37287 1950.00000
141.72691 102.87862 -170.61758 1952.00000
139.67172 102.83508 -170.90972 1954.00000
137.66786 102.78852 -171.23268 1956.00000
135.67604 102.73869 -171.57785 1958.00000
133.66682 102.68530 -171.94216 1960.00000
131.65106 102.62892 -172.32085 1962.00000
129.64982 102.57026 -172.70916 1964.00000
127.67054 102.51049 -173.10366 1966.00000
125.70542 102.45149 -173.50119 1968.00000
123.74560 102.39405 -173.89891 1970.00000
121.78624 102.33689 -174.29651 1972.00000
119.82557 102.27852 -174.69510 1974.00000
117.86344 102.21712 -175.09472 1976.00000
115.90111 102.15277 -175.49355 1978.00000
113.94225 102.08648 -175.88794 1980.00000
111.99380 102.02031 -176.27260 1982.00000
110.06281 101.95582 -176.64315 1984.00000
108.14705 101.89275 -176.99939 1986.00000
106.23782 101.83011 -177.34354 1988.00000
104.32854 101.76717 -177.67778 1990.00000
102.41604 101.70364 -178.00285 1992.00000
100.49902 101.63957 -178.31626 1994.00000
98.57724 101.57547 -178.61005 1996.00000
96.65287 101.51205 -178.87072 1998.00000
94.73442 101.44955 -179.08558 2000.00000
92.83883 101.38735 -179.25116 2002.00000
90.98205 101.32447 -179.37458 2004.00000
89.15677 101.25990 -179.46820 2006.00000
87.34066 101.19262 -179.53721 2008.00000
85.51904 101.12252 -179.57189 2010.00000
83.68915 101.05014 -179.55588 2012.00000
81.85597 100.97656 -179.47642 2014.00000
80.02745 100.90349 -179.32684 2016.00000
78.21105 100.83207 -179.10494 2018.00000
76.41078 100.76203 -178.81122 2020.00000
74.62460 100.69233 -178.44768 2022.00000
72.84506 100.62211 -178.01795 2024.00000
71.06726 100.55070 -177.52888 2026.00000
69.29279 100.47727 -176.98766 2028.00000
67.52615 100.40136 -176.39784 2030.00000
65.77211 100.32339 -175.76053 2032.00000
64.03498 100.24455 -175.07614 2034.00000
62.31888 100.16633 -174.34533 2036.00000
60.62816 100.08942 -173.56957 2038.00000
58.96750 100.01313 -172.75167 2040.00000
57.34118 99.93705 -171.89528 2042.00000
55.75015 99.86091 -171.00298 2044.00000
54.18872 99.78401 -170.07358 2046.00000
52.64967 99.70540 -169.10401 2048.00000
51.13034 99.62452 -168.09300 2050.00000
49.63253 99.54130 -167.04179 2052.00000
48.16038 99.45568 -165.95327 2054.00000
46.71860 99.36787 -164.83024 2056.00000
45.31082 99.27811 -163.67273 2058.00000
43.93758 99.18694 -162.47408 2060.00000
42.59420 99.09440 -161.21933 2062.00000
41.27325 99.00018 -159.89244 2064.00000
39.97744 98.90507 -158.49248 2066.00000
38.71607 98.80988 -157.03418 2068.00000
37.49024 98.71526 -155.53680 2070.00000
36.29011 98.62166 -154.01989 2072.00000
35.10226 98.52924 -152.49931 2074.00000
33.91798 98.43782 -150.98306 2076.00000
32.73384 98.34694 -149.47136 2078.00000
31.54676 98.25600 -147.95894 2080.00000
30.35081 98.16428 -146.43624 2082.00000
29.13939 98.07115 -144.89372 2084.00000
27.91304 97.97662 -143.33177 2086.00000
26.67851 97.88121 -141.75905 2088.00000
25.44136 97.78531 -140.18281 2090.00000
24.20421 97.68909 -138.60651 2092.00000
22.96769 97.59262 -137.03102 2094.00000
21.73156 97.49587 -135.45611 2096.00000
20.49556 97.39884 -133.88149 2098.00000
19.25970 97.30155 -132.30723 2100.00000
18.02428 97.20403 -130.73376 2102.00000
16.78970 97.10625 -129.16161 2104.00000
15.55593 97.00806 -127.59074 2106.00000
14.32256 96.90916 -126.02068 2108.00000
13.08921 96.80919 -124.45095 2110.00000
11.85570 96.70790 -122.88132 2112.00000
10.62202 96.60534 -121.31175 2114.00000
9.38820 96.50177 -119.74222 2116.00000
8.15431 96.39773 -118.17273 2118.00000
6.92037 96.29372 -116.60325 2120.00000
5.68641 96.19015 -115.03378 2122.00000
4.45238 96.08729 -113.46438 2124.00000
3.21825 95.98530 -111.89508 2126.00000
1.98397 95.88435 -110.32589 2128.00000
0.74955 95.78456 -108.75683 2130.00000
-0.48504 95.68613 -107.18791 2132.00000
-1.71981 95.58913 -105.61913 2134.00000
-2.95483 95.49378 -104.05057 2136.00000
-4.19016 95.40020 -102.48225 2138.00000
-5.42590 95.30870 -100.91409 2140.00000
-6.66200 95.21937 -99.34582 2142.00000
-7.89810 95.13233 -97.77690 2144.00000
-9.13332 95.04728 -96.20667 2146.00000
-10.36649 94.96396 -94.63449 2148.00000
-11.59652 94.88186 -93.05975 2150.00000
-12.82260 94.80069 -91.48192 2152.00000
-14.04426 94.72023 -89.90064 2154.00000
-15.26171 94.64047 -88.31605 2156.00000
-16.47598 94.56133 -86.72897 2158.00000
-17.68842 94.48281 -85.14047 2160.00000
-18.90003 94.40496 -83.55131 2162.00000
-20.11127 94.32810 -81.96186 2164.00000
-21.32221 94.25252 -80.37218 2166.00000
-22.53293 94.17810 -78.78231 2168.00000
-23.74380 94.10405 -77.19256 2170.00000
-24.95513 94.03012 -75.60323 2172.00000
-26.16672 93.95634 -74.01422 2174.00000
-27.37797 93.88351 -72.42507 2176.00000
-28.58841 93.81217 -70.83522 2178.00000
-29.79799 93.74227 -69.24411 2180.00000
-31.00702 93.67321 -67.65105 2182.00000
-32.21589 93.60474 -66.05534 2184.00000
-33.42453 93.53690 -64.45700 2186.00000
-34.63249 93.47003 -62.85666 2188.00000
-35.83949 93.40451 -61.25500 2190.00000
-37.04564 93.34073 -59.65252 2192.00000
-38.25132 93.27881 -58.04965 2194.00000
-39.45695 93.21871 -56.44670 2196.00000
-40.66278 93.16010 -54.84386 2198.00000
-41.86892 93.10265 -53.24116 2200.00000
-43.07538 93.04599 -51.63860 2202.00000
-44.28213 92.98999 -50.03614 2204.00000
-45.48913 92.93465 -48.43374 2206.00000
-46.69637 92.88011 -46.83136 2208.00000
-47.90385 92.82653 -45.22896 2210.00000
-49.11157 92.77404 -43.62652 2212.00000
-50.31947 92.72265 -42.02412 2214.00000
-51.52733 92.67245 -40.42207 2216.00000
-52.73473 92.62348 -38.82100 2218.00000
-53.94123 92.57588 -37.22160 2220.00000
-55.14691 92.52977 -35.62392 2222.00000
-56.35228 92.48531 -34.02735 2224.00000
-57.55769 92.44248 -32.43131 2226.00000
-58.76329 92.40134 -30.83547 2228.00000
-59.96923 92.36191 -29.23977 2230.00000
-61.17598 92.32430 -27.64456 2232.00000
-62.38479 92.28848 -26.05082 2234.00000
-63.59847 92.25437 -24.46091 2236.00000
-64.82094 92.22144 -22.87862 2238.00000
-66.05521 92.18922 -21.30777 2240.00000
-67.30139 92.15730 -19.75053 2242.00000
-68.55769 92.12551 -18.20649 2244.00000
-69.82417 92.09385 -16.67029 2246.00000
-71.10845 92.06241 -15.12629 2248.00000
-72.43261 92.03121 -13.54722 2250.00000
-73.83051 91.99987 -11.91126 2252.00000
-75.32383 91.96786 -10.23979 2254.00000
-76.91430 91.93450 -8.59123 2256.00000
-78.59169 91.89960 -7.01457 2258.00000
-80.33086 91.86548 -5.52382 2260.00000
-82.10328 91.83596 -4.10230 2262.00000
-83.90990 91.81323 -2.72975 2264.00000
-85.80467 91.79608 -1.40089 2266.00000
-87.87521 91.78208 -0.12468 2268.00000
-90.17479 91.76987 1.06090 2270.00000
-92.68100 91.75967 2.08367 2272.00000
-95.32251 91.75181 2.85497 2274.00000
-98.01243 91.74531 3.28439 2276.00000
-100.68418 91.73820 3.30954 2278.00000
-103.32276 91.72952 2.92494 2280.00000
-105.95388 91.72070 2.18276 2282.00000
-108.58203 91.71488 1.16200 2284.00000
-111.15684 91.71441 -0.07827 2286.00000
-113.57998 91.71891 -1.51006 2288.00000
-115.73983 91.72540 -3.11598 2290.00000
-117.56941 91.73073 -4.87887 2292.00000
-119.09751 91.73434 -6.79050 2294.00000
-120.41930 91.73880 -8.82696 2296.00000
-121.62220 91.74750 -10.94309 2298.00000
-122.73503 91.76160 -13.10656 2300.00000
-123.74100 91.77986 -15.30018 2302.00000
-124.62217 91.79970 -17.50637 2304.00000
-125.38172 91.81829 -19.70591 2306.00000
-126.03760 91.83503 -21.89064 2308.00000
-126.61002 91.85103 -24.07119 2310.00000
-127.11177 91.86760 -26.26399 2312.00000
-127.54093 91.88438 -28.47779 2314.00000
-127.88445 91.90044 -30.71192 2316.00000
-128.13349 91.91550 -32.95760 2318.00000
-128.29813 91.93052 -35.19874 2320.00000
-128.40458 91.94755 -37.41455 2322.00000
-128.47032 91.96832 -39.58893 2324.00000
-128.49681 91.99380 -41.72691 2326.00000
-128.47944 92.02476 -43.84815 2328.00000
-128.41083 92.06102 -45.96683 2330.00000
-128.28116 92.10053 -48.08736 2332.00000
-128.08093 92.13967 -50.20818 2334.00000
-127.80943 92.17616 -52.32568 2336.00000
-127.48277 92.20997 -54.43580 2338.00000
-127.12874 92.24271 -56.53205 2340.00000
-126.77386 92.27614 -58.60296 2342.00000
-126.43505 92.31130 -60.63652 2344.00000
-126.11592 92.34857 -62.63478 2346.00000
-125.80998 92.38792 -64.61299 2348.00000
-125.50945 92.42890 -66.58463 2350.00000
-125.21009 92.47121 -68.55624 2352.00000
-124.91082 92.51460 -70.52951 2354.00000
-124.61217 92.55901 -72.50417 2356.00000
-124.31518 92.60446 -74.47966 2358.00000
-124.02012 92.65091 -76.45555 2360.00000
-123.72561 92.69837 -78.43147 2362.00000
-123.42862 92.74659 -80.40694 2364.00000
-123.12600 92.79494 -82.38144 2366.00000
-122.81706 92.84286 -84.35490 2368.00000
-122.50379 92.89052 -86.32767 2370.00000
-122.18864 92.93811 -88.30015 2372.00000
-121.87340 92.98560 -90.27262 2374.00000
-121.55911 93.03292 -92.24524 2376.00000
-121.24629 93.08006 -94.21808 2378.00000
-120.93518 93.12728 -96.19120 2380.00000
-120.62602 93.17519 -98.16465 2382.00000
-120.31887 93.22456 -100.13843 2384.00000
-120.01360 93.27601 -102.11253 2386.00000
-119.70974 93.32981 -104.08684 2388.00000
-119.40656 93.38573 -106.06124 2390.00000
-119.10330 93.44313 -108.03562 2392.00000
-118.79927 93.50122 -110.00989 2394.00000
-118.49411 93.55932 -111.98397 2396.00000
-118.18809 93.61708 -113.95788 2398.00000
-117.88173 93.67463 -115.93170 2400.00000
-117.57530 93.73239 -117.90552 2402.00000
-117.26850 93.79092 -119.87943 2404.00000
-116.96038 93.85064 -121.85348 2406.00000
-116.64952 93.91158 -123.82767 2408.00000
-116.33428 93.97329 -125.80176 2410.00000
-116.01273 94.03499 -127.77522 2412.00000
-115.68256 94.09580 -129.74748 2414.00000
-115.34156 94.15491 -131.71806 2416.00000
-114.98860 94.21198 -133.68675 2418.00000
-114.62467 94.26752 -135.65368 2420.00000
-114.25270 94.32249 -137.61933 2422.00000
-113.87617 94.37760 -139.58424 2424.00000
-113.49793 94.43298 -141.54890 2426.00000
-113.11973 94.48820 -143.51357 2428.00000
-112.74218 94.54251 -145.47834 2430.00000
-112.36472 94.59477 -147.44311 2432.00000
-111.98559 94.64273 -149.40759 2434.00000
-111.60264 94.68509 -151.37144 2436.00000
-111.21518 94.72410 -153.33460 2438.00000
-110.82455 94.76419 -155.29737 2440.00000
-110.43217 94.80938 -157.26002 2442.00000
-110.03840 94.85891 -159.22260 2444.00000
-109.64333 94.90947 -161.18504 2446.00000
-109.24731 94.95958 -163.14735 2448.00000
-108.85116 95.00892 -165.10964 2450.00000
-108.45638 95.05731 -167.07214 2452.00000
-108.06521 95.10474 -169.03521 2454.00000
-107.68001 95.15114 -170.99922 2456.00000
-107.30189 95.19640 -172.96432 2458.00000
-106.92986 95.24045 -174.93040 2460.00000
-106.56164 95.28338 -176.89708 2462.00000
-106.19511 95.32537 -178.86403 2464.00000
-105.82894 95.36666 -180.83102 2466.00000
-105.46259 95.40747 -182.79797 2468.00000
-105.09620 95.44791 -184.76490 2470.00000
-104.73063 95.48800 -186.73192 2472.00000
-104.36757 95.52770 -188.69928 2474.00000
-104.00922 95.56696 -190.66729 2476.00000
-103.65714 95.60567 -192.63618 2478.00000
-103.31103 95.64375 -194.60596 2480.00000
-102.96908 95.68112 -196.57636 2482.00000
-102.62937 95.71766 -198.54711 2484.00000
-102.29050 95.75323 -200.51799 2486.00000
-101.95175 95.78773 -202.48890 2488.00000
-101.61284 95.82114 -204.45979 2490.00000
-101.27372 95.85347 -206.43066 2492.00000
-100.93448 95.88469 -208.40151 2494.00000
-100.59525 95.91473 -210.37235 2496.00000
-100.25617 95.94347 -212.34322 2498.00000
-99.91732 95.97077 -214.31412 2500.00000
-99.57873 95.99663 -216.28508 2502.00000
-99.24036 96.02107 -218.25606 2504.00000
-98.90225 96.04425 -220.22708 2506.00000
-98.56457 96.06625 -222.19815 2508.00000
-98.22764 96.08718 -224.16936 2510.00000
-97.89183 96.10706 -226.14075 2512.00000
-97.55727 96.12597 -228.11234 2514.00000
-97.22381 96.14398 -230.08412 2516.00000
-96.89112 96.16121 -232.05601 2518.00000
-96.55892 96.17774 -234.02797 2520.00000
-96.22700 96.19356 -235.99998 2522.00000
-95.89523 96.20855 -237.97201 2524.00000
-95.56357 96.22259 -239.94404 2526.00000
-95.23198 96.23548 -241.91608 2528.00000
-94.90044 96.24710 -243.88814 2530.00000
-94.56900 96.25735 -245.86019 2532.00000
-94.23776 96.26639 -247.83225 2534.00000
-93.90673 96.27438 -249.80444 2536.00000
-93.57585 96.28155 -251.77699 2538.00000
-93.24506 96.28798 -253.75015 2540.00000
-92.91435 96.29374 -255.72395 2542.00000
-92.58374 96.29886 -257.69816 2544.00000
-92.25327 96.30343 -259.67252 2546.00000
-91.92291 96.30755 -261.64690 2548.00000
-91.59255 96.31130 -263.62125 2550.00000
-91.26213 96.31458 -265.59555 2552.00000
-90.93177 96.31705 -267.56983 2554.00000
-90.60213 96.31818 -269.54423 2556.00000
-90.27472 96.31736 -271.51899 2558.00000
-89.95180 96.31410 -273.49447 2560.00000
-89.63516 96.30840 -275.47098 2562.00000
-89.32440 96.30056 -277.44844 2564.00000
-89.01684 96.29132 -279.42645 2566.00000
-88.70981 96.28135 -281.40456 2568.00000
-88.40211 96.27113 -283.38259 2570.00000
-88.09330 96.26077 -285.36046 2572.00000
-87.78307 96.25002 -287.33809 2574.00000
-87.47147 96.23848 -289.31548 2576.00000
-87.15907 96.22577 -291.29272 2578.00000
-86.84640 96.21154 -293.26992 2580.00000
-86.53377 96.19574 -295.24714 2582.00000
-86.22135 96.17851 -297.22439 2584.00000
-85.90920 96.16033 -299.20163 2586.00000
-85.59725 96.14153 -301.17887 2588.00000
-85.28540 96.12237 -303.15624 2590.00000
-84.97358 96.10294 -305.13403 2592.00000
-84.66164 96.08312 -307.11271 2594.00000
-84.34917 96.06265 -309.09252 2596.00000
-84.03587 96.04130 -311.07237 2598.00000
-83.72220 96.01888 -313.04770 2600.00000
-83.40996 95.99539 -315.00863 2602.00000
-83.10149 95.97099 -316.94307 2604.00000
-82.79706 95.94575 -318.85096 2606.00000
-82.49539 95.91948 -320.74590 2608.00000
-82.19749 95.89198 -322.64014 2610.00000
-81.90837 95.86303 -324.54000 2612.00000
-81.63511 95.83257 -326.44752 2614.00000
-81.38432 95.80069 -328.36236 2616.00000
-81.16494 95.76758 -330.28247 2618.00000
-80.99195 95.73329 -332.20304 2620.00000
-80.88341 95.69774 -334.11487 2622.00000
-80.85050 95.66088 -336.00710 2624.00000
-80.88922 95.62265 -337.87888 2626.00000
-80.98205 95.58303 -339.74044 2628.00000
-81.11106 95.54216 -341.60017 2630.00000
-81.27215 95.50023 -343.46032 2632.00000
-81.47112 95.45775 -345.31865 2634.00000
-81.71346 95.41551 -347.17105 2636.00000
-82.00099 95.37367 -349.01333 2638.00000
-82.33288 95.33131 -350.84206 2640.00000
-82.70749 95.28842 -352.65550 2642.00000
-83.12229 95.24513 -354.45497 2644.00000
-83.57317 95.20087 -356.24528 2646.00000
-84.05484 95.15446 -358.03179 2648.00000
-84.56323 95.10480 -359.81713 2650.00000
-85.09712 95.05193 -361.60071 2652.00000
-85.65829 94.99653 -363.37947 2654.00000
-86.25228 94.93971 -365.14800 2656.00000
-86.88864 94.88239 -366.89869 2658.00000
-87.57905 94.82488 -368.62327 2660.00000
-88.33339 94.76735 -370.31605 2662.00000
-89.15580 94.70983 -371.97694 2664.00000
-90.04342 94.65223 -373.61002 2666.00000
-90.98753 94.59471 -375.21935 2668.00000
-91.97838 94.53748 -376.80702 2670.00000
-93.00787 94.48084 -378.37334 2672.00000
-94.07027 94.42497 -379.91724 2674.00000
-95.16235 94.36979 -381.43661 2676.00000
-96.28216 94.31485 -382.92983 2678.00000
-97.42902 94.25944 -384.39769 2680.00000
-98.60469 94.20267 -385.84472 2682.00000
-99.81417 94.14384 -387.27770 2684.00000
-101.06121 94.08286 -388.69884 2686.00000
-102.34573 94.02038 -390.10188 2688.00000
-103.66810 93.95749 -391.47701 2690.00000
-105.02920 93.89523 -392.81539 2692.00000
-106.42664 93.83448 -394.11330 2694.00000
-107.85308 93.77586 -395.37391 2696.00000
-109.29758 93.71967 -396.60774 2698.00000
-110.75253 93.66593 -397.82949 2700.00000
-112.22036 93.61418 -399.05473 2702.00000
-113.71063 93.56384 -400.29827 2704.00000
-115.22619 93.51466 -401.56408 2706.00000
-116.75800 93.46685 -402.84338 2708.00000
-118.29689 93.42057 -404.12660 2710.00000
-119.83813 93.37585 -405.40819 2712.00000
-121.38067 93.33251 -406.68586 2714.00000
-122.92532 93.29036 -407.95853 2716.00000
-124.47343 93.24915 -409.22528 2718.00000
-126.02686 93.20868 -410.48454 2720.00000
-127.58926 93.16865 -411.73311 2722.00000
-129.16693 93.12872 -412.96652 2724.00000
-130.76622 93.08849 -414.18297 2726.00000
-132.38820 93.04765 -415.38640 2728.00000
-134.02540 93.00586 -416.57759 2730.00000
-135.65342 92.96303 -417.73874 2732.00000
-137.22055 92.91990 -418.82010 2734.00000
-138.66175 92.87820 -419.74895 2736.00000
-139.96801 92.83917 -420.48684 2738.00000
-141.19805 92.80320 -421.05067 2740.00000
-142.37924 92.77200 -421.46553 2742.00000
-143.46892 92.74748 -421.74887 2744.00000
-144.38529 92.73161 -421.90906 2746.00000
-145.09548 92.72243 -421.94249 2748.00000
-145.64410 92.71332 -421.83522 2750.00000
-146.07886 92.70247 -421.59764 2752.00000
-146.44018 92.69141 -421.26848 2754.00000
-146.76800 92.68172 -420.88760 2756.00000
-147.09713 92.67322 -420.47504 2758.00000
-147.45709 92.66408 -419.98653 2760.00000
-147.88754 92.65333 -419.30063 2762.00000
-148.41656 92.64064 -418.27277 2764.00000
-148.98768 92.62580 -416.89566 2766.00000
-149.50346 92.60964 -415.30465 2768.00000
-149.93216 92.59694 -413.62527 2770.00000
-150.29636 92.58933 -411.91257 2772.00000
-150.62116 92.58602 -410.15186 2774.00000
-150.93618 92.58536 -408.30260 2776.00000
-151.26154 92.58603 -406.36454 2778.00000
-151.59514 92.58705 -404.37733 2780.00000
-151.92681 92.58783 -402.37409 2782.00000
-152.25019 92.58834 -400.37019 2784.00000
-152.56406 92.58900 -398.36930 2786.00000
-152.86968 92.59044 -396.37035 2788.00000
-153.16969 92.59336 -394.37175 2790.00000
-153.46611 92.59820 -392.37259 2792.00000
-153.75983 92.60508 -390.37307 2794.00000
-154.05141 92.61370 -388.37488 2796.00000
-154.34125 92.62351 -386.38153 2798.00000
-154.62948 92.63393 -384.39690 2800.00000
-154.91643 92.64443 -382.42085 2802.00000
-155.20268 92.65483 -380.44951 2804.00000
-155.48866 92.66515 -378.47968 2806.00000
-155.77450 92.67556 -376.50986 2808.00000
-156.06021 92.68628 -374.53969 2810.00000
-156.34575 92.69746 -372.56928 2812.00000
-156.63117 92.70918 -370.59880 2814.00000
-156.91657 92.72140 -368.62843 2816.00000
-157.20205 92.73401 -366.65817 2818.00000
-157.48772 92.74687 -364.68782 2820.00000
-157.77365 92.75989 -362.71695 2822.00000
-158.05988 92.77296 -360.74505 2824.00000
-158.34632 92.78593 -358.77212 2826.00000
-158.63287 92.79854 -356.79863 2828.00000
-158.91953 92.81047 -354.82495 2830.00000
-159.20646 92.82140 -352.85130 2832.00000
-159.49409 92.83115 -350.87779 2834.00000
-159.78327 92.83969 -348.90455 2836.00000
-160.07544 92.84717 -346.93175 2838.00000
-160.37189 92.85377 -344.95954 2840.00000
-160.67251 92.85967 -342.98788 2842.00000
-160.97585 92.86488 -341.01654 2844.00000
-161.28028 92.86939 -339.04532 2846.00000
-161.58482 92.87327 -337.07408 2848.00000
-161.88903 92.87679 -335.10274 2850.00000
-162.19285 92.88005 -333.13129 2852.00000
-162.49639 92.88298 -331.15970 2854.00000
-162.79934 92.88538 -329.18790 2856.00000
-163.10072 92.88715 -327.21589 2858.00000
-163.39920 92.88838 -325.24388 2860.00000
-163.69377 92.88920 -323.27248 2862.00000
-163.98399 92.88973 -321.30240 2864.00000
-164.26980 92.89005 -319.33358 2866.00000
-164.55137 92.89026 -317.36516 2868.00000
-164.82888 92.89045 -315.39643 2870.00000
-165.10248 92.89068 -313.42699 2872.00000
-165.37230 92.89100 -311.45678 2874.00000
-165.63844 92.89145 -309.48585 2876.00000
-165.90100 92.89203 -307.51426 2878.00000
-166.16007 92.89278 -305.54208 2880.00000
-166.41580 92.89372 -303.56938 2882.00000
-166.66829 92.89490 -301.59617 2884.00000
-166.91739 92.89634 -299.62244 2886.00000
-167.16226 92.89799 -297.64815 2888.00000
-167.40103 92.89965 -295.67313 2890.00000
-167.63094 92.90107 -293.69713 2892.00000
-167.84927 92.90197 -291.71989 2894.00000
-168.05420 92.90216 -289.74130 2896.00000
-168.24496 92.90161 -287.76145 2898.00000
-168.42138 92.90040 -285.78066 2900.00000
-168.58347 92.89873 -283.79952 2902.00000
-168.73133 92.89675 -281.81869 2904.00000
-168.86540 92.89462 -279.83810 2906.00000
-168.98706 92.89243 -277.85715 2908.00000
-169.09923 92.89037 -275.87551 2910.00000
-169.20581 92.88871 -273.89327 2912.00000
-169.31009 92.88775 -271.91065 2914.00000
-169.41391 92.88777 -269.92782 2916.00000
-169.51794 92.88886 -267.94487 2918.00000
-169.62232 92.89087 -265.96185 2920.00000
-169.72699 92.89334 -263.97876 2922.00000
-169.83190 92.89573 -261.99559 2924.00000
-169.93702 92.89750 -260.01232 2926.00000
-170.04233 92.89831 -258.02894 2928.00000
-170.14784 92.89814 -256.04548 2930.00000
-170.25351 92.89704 -254.06198 2932.00000
-170.35930 92.89511 -252.07853 2934.00000
-170.46516 92.89238 -250.09515 2936.00000
-170.57105 92.88892 -248.11165 2938.00000
-170.67690 92.88490 -246.12726 2940.00000
-170.78263 92.88074 -244.14052 2942.00000
-170.88813 92.87697 -242.14975 2944.00000
-170.99318 92.87412 -240.15491 2946.00000
-171.09751 92.87253 -238.15766 2948.00000
-171.20099 92.87214 -236.15954 2950.00000
-171.30362 92.87270 -234.16136 2952.00000
-171.40545 92.87378 -232.16332 2954.00000
-171.50652 92.87502 -230.16541 2956.00000
-171.60687 92.87620 -228.16756 2958.00000
-171.70653 92.87716 -226.16972 2960.00000
-171.80547 92.87791 -224.17186 2962.00000
-171.90364 92.87852 -222.17396 2964.00000
-172.00098 92.87912 -220.17599 2966.00000
-172.09745 92.87979 -218.17797 2968.00000
-172.19305 92.88051 -216.17993 2970.00000
-172.28780 92.88119 -214.18188 2972.00000
-172.38173 92.88161 -212.18380 2974.00000
-172.47486 92.88146 -210.18568 2976.00000
-172.56722 92.88050 -208.18753 2978.00000
-172.65882 92.87858 -206.18935 2980.00000
-172.74965 92.87591 -204.19115 2982.00000
-172.83967 92.87289 -202.19292 2984.00000
-172.92886 92.87011 -200.19465 2986.00000
-173.01720 92.86814 -198.19634 2988.00000
-173.10475 92.86726 -196.19799 2990.00000
-173.19164 92.86751 -194.19961 2992.00000
-173.27806 92.86862 -192.20120 2994.00000
-173.36419 92.87017 -190.20278 2996.00000
-173.45018 92.87174 -188.20436 2998.00000
-173.53610 92.87301 -186.20596 3000.00000
-173.62199 92.87388 -184.20755 3002.00000
-173.70786 92.87436 -182.20913 3004.00000
-173.79370 92.87459 -180.21071 3006.00000
-173.87948 92.87471 -178.21228 3008.00000
-173.96521 92.87481 -176.21388 3010.00000
-174.05088 92.87496 -174.21547 3012.00000
-174.13649 92.87515 -172.21706 3014.00000
-174.22207 92.87536 -170.21864 3016.00000
-174.30763 92.87557 -168.22020 3018.00000
-174.39318 92.87578 -166.22176 3020.00000
-174.47870 92.87599 -164.22332 3022.00000
-174.56414 92.87619 -162.22487 3024.00000
-174.64953 92.87639 -160.22642 3026.00000
-174.73492 92.87657 -158.22798 3028.00000
-174.82038 92.87673 -156.22955 3030.00000
-174.90595 92.87686 -154.23113 3032.00000
-174.99167 92.87700 -152.23270 3034.00000
-175.07753 92.87721 -150.23427 3036.00000
-175.16356 92.87756 -148.23586 3038.00000
-175.24975 92.87811 -146.23747 3040.00000
-175.33607 92.87886 -144.23910 3042.00000
-175.42248 92.87973 -142.24074 3044.00000
-175.50891 92.88063 -140.24238 3046.00000
-175.59532 92.88148 -138.24400 3048.00000
-175.68168 92.88222 -136.24563 3050.00000
-175.76800 92.88284 -134.24726 3052.00000
-175.85429 92.88334 -132.24888 3054.00000
-175.94054 92.88375 -130.25051 3056.00000
-176.02675 92.88411 -128.25215 3058.00000
-176.11291 92.88445 -126.25379 3060.00000
-176.19902 92.88480 -124.25542 3062.00000
-176.28507 92.88518 -122.25704 3064.00000
-176.37107 92.88559 -120.25864 3066.00000
-176.45702 92.88602 -118.26023 3068.00000
-176.54293 92.88647 -116.26183 3070.00000
-176.62879 92.88698 -114.26345 3072.00000
-176.71462 92.88752 -112.26507 3074.00000
-176.80040 92.88808 -110.26668 3076.00000
-176.88616 92.88861 -108.26829 3078.00000
-176.97187 92.88904 -106.26990 3080.00000
-177.05756 92.88933 -104.27150 3082.00000
-177.14323 92.88947 -102.27309 3084.00000
-177.22886 92.88946 -100.27469 3086.00000
-177.31444 92.88932 -98.27631 3088.00000
-177.39996 92.88911 -96.27800 3090.00000
-177.48542 92.88885 -94.27978 3092.00000
-177.57081 92.88855 -92.28168 3094.00000
-177.65614 92.88821 -90.28366 3096.00000
-177.74143 92.88773 -88.28569 3098.00000
-177.82667 92.88700 -86.28773 3100.00000
-177.91188 92.88589 -84.28977 3102.00000
-177.99705 92.88431 -82.29180 3104.00000
-178.08218 92.88223 -80.29382 3106.00000
-178.16728 92.87968 -78.29582 3108.00000
-178.25242 92.87674 -76.29782 3110.00000
-178.33764 92.87351 -74.29984 3112.00000
-178.42298 92.87004 -72.30188 3114.00000
-178.50840 92.86642 -70.30392 3116.00000
-178.59385 92.86285 -68.30596 3118.00000
-178.67918 92.85968 -66.30799 3120.00000
-178.76425 92.85745 -64.31001 3122.00000
-178.84894 92.85667 -62.31202 3124.00000
-178.93321 92.85764 -60.31401 3126.00000
-179.01707 92.86034 -58.31599 3128.00000
-179.10063 92.86429 -56.31794 3130.00000
-179.18402 92.86875 -54.31987 3132.00000
-179.26737 92.87297 -52.32178 3134.00000
-179.35075 92.87635 -50.32371 3136.00000
-179.43422 92.87873 -48.32566 3138.00000
-179.51776 92.88017 -46.32761 3140.00000
-179.60136 92.88093 -44.32955 3142.00000
-179.68498 92.88123 -42.33152 3144.00000
-179.76860 92.88122 -40.33351 3146.00000
-179.85221 92.88096 -38.33550 3148.00000
-179.93579 92.88052 -36.33745 3150.00000
-180.01930 92.87994 -34.33938 3152.00000
-180.10270 92.87929 -32.34130 3154.00000
-180.18596 92.87866 -30.34323 3156.00000
-180.26914 92.87809 -28.34515 3158.00000
-180.35247 92.87765 -26.34709 3160.00000
-180.43643 92.87733 -24.34906 3162.00000
-180.52167 92.87714 -22.35111 3164.00000
-180.60874 92.87706 -20.35325 3166.00000
-180.69798 92.87714 -18.35547 3168.00000
-180.78950 92.87740 -16.35778 3170.00000
-180.88316 92.87786 -14.36011 3172.00000
-180.97855 92.87850 -12.36238 3174.00000
-181.07512 92.87929 -10.36449 3176.00000
-181.17235 92.88015 -8.36638 3178.00000
-181.26986 92.88105 -6.36812 3180.00000
-181.36744 92.88195 -4.36979 3182.00000
-181.46502 92.88282 -2.37145 3184.00000
-181.56261 92.88364 -0.37314 3186.00000
-181.66021 92.88440 1.62512 3188.00000
-181.75784 92.88504 3.62338 3190.00000
-181.85551 92.88556 5.62166 3192.00000
-181.95323 92.88600 7.61995 3194.00000
-182.05097 92.88650 9.61822 3196.00000
-182.14871 92.88728 11.61647 3198.00000
-182.24644 92.88850 13.61472 3200.00000
-182.34414 92.89019 15.61297 3202.00000
-182.44179 92.89227 17.61122 3204.00000
-182.53938 92.89450 19.60948 3206.00000
-182.63691 92.89656 21.60774 3208.00000
-182.73442 92.89825 23.60601 3210.00000
-182.83191 92.89939 25.60429 3212.00000
-182.92939 92.90001 27.60254 3214.00000
-183.02684 92.90017 29.60076 3216.00000
-183.12426 92.90000 31.59899 3218.00000
-183.22164 92.89957 33.59723 3220.00000
-183.31897 92.89891 35.59548 3222.00000
-183.41624 92.89805 37.59375 3224.00000
-183.51342 92.89703 39.59201 3226.00000
-183.61046 92.89587 41.59027 3228.00000
-183.70729 92.89466 43.58852 3230.00000
-183.80382 92.89343 45.58679 3232.00000
-183.89997 92.89223 47.58507 3234.00000
-183.99570 92.89105 49.58336 3236.00000
-184.09101 92.88986 51.58168 3238.00000
-184.18590 92.88863 53.58002 3240.00000
-184.28043 92.88735 55.57839 3242.00000
-184.37468 92.88605 57.57674 3244.00000
-184.46872 92.88474 59.57504 3246.00000
-184.56262 92.88350 61.57324 3248.00000
-184.65639 92.88242 63.57134 3250.00000
-184.75004 92.88162 65.56937 3252.00000
-184.84358 92.88120 67.56739 3254.00000
-184.93699 92.88120 69.56539 3256.00000
-185.03030 92.88160 71.56341 3258.00000
-185.12351 92.88230 73.56143 3260.00000
-185.21663 92.88324 75.55948 3262.00000
-185.30967 92.88435 77.55754 3264.00000
-185.40263 92.88559 79.55559 3266.00000
-185.49553 92.88689 81.55364 3268.00000
-185.58836 92.88816 83.55169 3270.00000
-185.68113 92.88923 85.54974 3272.00000
-185.77385 92.88995 87.54782 3274.00000
-185.86652 92.89021 89.54591 3276.00000
-185.95914 92.89003 91.54399 3278.00000
-186.05169 92.88950 93.54205 3280.00000
-186.14417 92.88878 95.54013 3282.00000
-186.23657 92.88803 97.53822 3284.00000
-186.32888 92.88731 99.53630 3286.00000
-186.42111 92.88669 101.53437 3288.00000
-186.51325 92.88615 103.53245 3290.00000
-186.60531 92.88572 105.53055 3292.00000
-186.69729 92.88538 107.52864 3294.00000
-186.78918 92.88516 109.52674 3296.00000
-186.88099 92.88505 111.52484 3298.00000
-186.97272 92.88506 113.52296 3300.00000
-187.06436 92.88517 115.52109 3302.00000
-187.15591 92.88538 117.51922 3304.00000
-187.24739 92.88567 119.51735 3306.00000
-187.33877 92.88602 121.51549 3308.00000
-187.43006 92.88642 123.51364 3310.00000
-187.52126 92.88681 125.51180 3312.00000
-187.61235 92.88716 127.50997 3314.00000
-187.70335 92.88742 129.50811 3316.00000
-187.79424 92.88761 131.50612 3318.00000
-187.88504 92.88774 133.50392 3320.00000
-187.97574 92.88784 135.50149 3322.00000
-188.06635 92.88795 137.49890 3324.00000
-188.15688 92.88808 139.49625 3326.00000
-188.24732 92.88824 141.49360 3328.00000
-188.33767 92.88842 143.49095 3330.00000
-188.42793 92.88861 145.48830 3332.00000
-188.51811 92.88880 147.48566 3334.00000
-188.60820 92.88898 149.48302 3336.00000
-188.69819 92.88914 151.48039 3338.00000
-188.78810 92.88928 153.47776 3340.00000
-188.87792 92.88939 155.47516 3342.00000
-188.96765 92.88947 157.47257 3344.00000
-189.05730 92.88951 159.46997 3346.00000
-189.14686 92.88950 161.46738 3348.00000
-189.23635 92.88947 163.46478 3350.00000
-189.32576 92.88944 165.46219 3352.00000
-189.41511 92.88942 167.45962 3354.00000
-189.50439 92.88944 169.45708 3356.00000
-189.59360 92.88950 171.45459 3358.00000
-189.68275 92.88960 173.45218 3360.00000
-189.77184 92.88974 175.44981 3362.00000
-189.86088 92.88993 177.44747 3364.00000
-189.94984 92.89015 179.44515 3366.00000
-190.03866 92.89041 181.44285 3368.00000
-190.12726 92.89070 183.44055 3370.00000
-190.21556 92.89100 185.43824 3372.00000
-190.30350 92.89130 187.43595 3374.00000
-190.39108 92.89158 189.43369 3376.00000
-190.47829 92.89182 191.43144 3378.00000
-190.56514 92.89203 193.42918 3380.00000
-190.65165 92.89219 195.42694 3382.00000
-190.73781 92.89227 197.42472 3384.00000
-190.82362 92.89226 199.42253 3386.00000
-190.90905 92.89215 201.42034 3388.00000
-190.99406 92.89196 203.41816 3390.00000
-191.07864 92.89176 205.41602 3392.00000
-191.16278 92.89163 207.41394 3394.00000
-191.24650 92.89167 209.41196 3396.00000
-191.32976 92.89189 211.41012 3398.00000
-191.41253 92.89218 213.40838 3400.00000
-191.49479 92.89234 215.40668 3402.00000
-191.57653 92.89211 217.40503 3404.00000
-191.65781 92.89131 219.40342 3406.00000
-191.73872 92.88983 221.40183 3408.00000
-191.81929 92.88785 223.40023 3410.00000
-191.89955 92.88576 225.39861 3412.00000
-191.97947 92.88427 227.39695 3414.00000
-192.05902 92.88418 229.39528 3416.00000
-192.13815 92.88594 231.39369 3418.00000
-192.21684 92.88954 233.39244 3420.00000
-192.29511 92.89417 235.39194 3422.00000
-192.37301 92.89867 237.39244 3424.00000
-192.45065 92.90178 239.39320 3426.00000
-192.52826 92.90262 241.39079 3428.00000
-192.60610 92.90113 243.37747 3430.00000
-192.68430 92.89775 245.34284 3432.00000
-192.76217 92.89326 247.28421 3434.00000
-192.83698 92.88829 249.21146 3436.00000
-192.90184 92.88317 251.13528 3438.00000
-192.94403 92.87793 253.06165 3440.00000
-192.94783 92.87240 254.99271 3442.00000
-192.90078 92.86676 256.92782 3444.00000
-192.79339 92.86170 258.86113 3446.00000
-192.61485 92.85824 260.77444 3448.00000
-192.35564 92.85721 262.62983 3450.00000
-192.01776 92.85839 264.37882 3452.00000
-191.61235 92.86054 266.01185 3454.00000
-191.14634 92.86294 267.57640 3456.00000
-190.62063 92.86564 269.11500 3458.00000
-190.03171 92.86902 270.64145 3460.00000
-189.37282 92.87326 272.14647 3462.00000
-188.63754 92.87838 273.60954 3464.00000
-187.82742 92.88416 275.01114 3466.00000
-186.95372 92.89040 276.34198 3468.00000
-186.02852 92.89692 277.60724 3470.00000
-185.05127 92.90376 278.82355 3472.00000
-184.00866 92.91113 280.00727 3474.00000
-182.89142 92.91925 281.16267 3476.00000
-181.69962 92.92834 282.28292 3478.00000
-180.44002 92.93862 283.35649 3480.00000
-179.12379 92.95012 284.37165 3482.00000
-177.76444 92.96273 285.31946 3484.00000
-176.37368 92.97629 286.19652 3486.00000
-174.95394 92.99072 287.00812 3488.00000
-173.49004 93.00624 287.77147 3490.00000
-171.95064 93.02349 288.51139 3492.00000
-170.31909 93.04309 289.23961 3494.00000
-168.61427 93.06520 289.93850 3496.00000
-166.85942 93.08884 290.57460 3498.00000
-165.06832 93.11262 291.11677 3500.00000
-163.25040 93.13496 291.55218 3502.00000
-161.41590 93.15526 291.89191 3504.00000
-159.57528 93.17447 292.16345 3506.00000
-157.73519 93.19437 292.39715 3508.00000
-155.89447 93.21641 292.61334 3510.00000
-154.04459 93.24134 292.81838 3512.00000
-152.17811 93.26900 293.00737 3514.00000
-150.29662 93.29884 293.17286 3516.00000
-148.40544 93.33021 293.31312 3518.00000
-146.50908 93.36277 293.43153 3520.00000
-144.61016 93.39621 293.53041 3522.00000
-142.70999 93.43037 293.60898 3524.00000
-140.80963 93.46518 293.66555 3526.00000
-138.91033 93.50072 293.69724 3528.00000
-137.01354 93.53687 293.69826 3530.00000
-135.12039 93.57349 293.66037 3532.00000
-133.23049 93.61030 293.57689 3534.00000
-131.34127 93.64724 293.44551 3536.00000
-129.45028 93.68412 293.26774 3538.00000
-127.55783 93.72089 293.04821 3540.00000
-125.66544 93.75747 292.79339 3542.00000
-123.77444 93.79404 292.51018 3544.00000
-121.88579 93.83086 292.20373 3546.00000
-120.00066 93.86827 291.87507 3548.00000
-118.12076 93.90649 291.52114 3550.00000
-116.24834 93.94578 291.13711 3552.00000
-114.38555 93.98616 290.71991 3554.00000
-112.53399 94.02777 290.27013 3556.00000
-110.69414 94.07048 289.79180 3558.00000
-108.86500 94.11431 289.29015 3560.00000
-107.04377 94.15915 288.76887 3562.00000
-105.22699 94.20503 288.22953 3564.00000
-103.41274 94.25190 287.67223 3566.00000
-101.60109 94.29982 287.09589 3568.00000
-99.79357 94.34872 286.49842 3570.00000
-97.99249 94.39862 285.87697 3572.00000
-96.20028 94.44937 285.22919 3574.00000
-94.41887 94.50098 284.55433 3576.00000
-92.64974 94.55332 283.85277 3578.00000
-90.89391 94.60649 283.12496 3580.00000
-89.15174 94.66054 282.37037 3582.00000
-87.42269 94.71573 281.58690 3584.00000
-85.70577 94.77217 280.77153 3586.00000
-84.00089 94.82997 279.92217 3588.00000
-82.30898 94.88887 279.03829 3590.00000
-80.63148 94.94862 278.12039 3592.00000
-78.96996 95.00875 277.16941 3594.00000
-77.32597 95.06899 276.18636 3596.00000
-75.70102 95.12912 275.17221 3598.00000
-74.09657 95.18918 274.12799 3600.00000
-72.51403 95.24923 273.05481 3602.00000
-70.95449 95.30940 271.95373 3604.00000
-69.41848 95.36976 270.82517 3606.00000
-67.90563 95.43058 269.66829 3608.00000
-66.41477 95.49232 268.48117 3610.00000
-64.94479 95.55590 267.26279 3612.00000
-63.49386 95.62208 266.01537 3614.00000
-62.05757 95.69086 264.74573 3616.00000
-60.62966 95.76176 263.46306 3618.00000
-59.20566 95.83399 262.17387 3620.00000
-57.78421 95.90712 260.88034 3622.00000
-56.36605 95.98086 259.58199 3624.00000
-54.95304 96.05477 258.27714 3626.00000
-53.54702 96.12852 256.96432 3628.00000
-52.14940 96.20191 255.64284 3630.00000
-50.76226 96.27499 254.31169 3632.00000
-49.38872 96.34773 252.96892 3634.00000
-48.03133 96.42019 251.61272 3636.00000
-46.69081 96.49243 250.24127 3638.00000
-45.36666 96.56457 248.85263 3640.00000
-44.05849 96.63664 247.44570 3642.00000
-42.76641 96.70865 246.02046 3644.00000
-41.49100 96.78055 244.57740 3646.00000
-40.23290 96.85255 243.11723 3648.00000
-38.99253 96.92540 241.64087 3650.00000
-37.76875 96.99978 240.15032 3652.00000
-36.55835 97.07599 238.64903 3654.00000
-35.35857 97.15350 237.14000 3656.00000
-34.17184 97.23160 235.62240 3658.00000
-33.00659 97.30984 234.09111 3660.00000
-31.87434 97.38796 232.53885 3662.00000
-30.78461 97.46602 230.95908 3664.00000
-29.74043 97.54431 229.34883 3666.00000
-28.73704 97.62327 227.71053 3668.00000
-27.76511 97.70319 226.05052 3670.00000
-26.81557 97.78412 224.37543 3672.00000
-25.88116 97.86585 222.69073 3674.00000
-24.95825 97.94814 220.99950 3676.00000
-24.04886 98.03071 219.30149 3678.00000
-23.15710 98.11343 217.59545 3680.00000
-22.28657 98.19609 215.88079 3682.00000
-21.43847 98.27841 214.15822 3684.00000
-20.60902 98.35988 212.43014 3686.00000
-19.79470 98.44016 210.69603 3688.00000
-18.99018 98.51904 208.95123 3690.00000
-18.18860 98.59672 207.18742 3692.00000
-17.38870 98.67345 205.39945 3694.00000
-16.59649 98.74921 203.59215 3696.00000
-15.81593 98.82396 201.77320 3698.00000
-15.04582 98.89770 199.94863 3700.00000
-14.28703 98.97063 198.12004 3702.00000
-13.54570 99.04312 196.28507 3704.00000
-12.82877 99.11558 194.44073 3706.00000
-12.13920 99.18834 192.58589 3708.00000
-11.47427 99.26156 190.72188 3710.00000
-10.82517 99.33518 188.85248 3712.00000
-10.17949 99.40894 186.98251 3714.00000
-9.52616 99.48257 185.11526 3716.00000
-8.85899 99.55595 183.25070 3718.00000
-8.17842 99.62930 181.38524 3720.00000
-7.48927 99.70289 179.51557 3722.00000
-6.79592 99.77681 177.64239 3724.00000
-6.09999 99.85096 175.76807 3726.00000
-5.40119 99.92525 173.89445 3728.00000
-4.69951 99.99961 172.02212 3730.00000
-3.99494 100.07406 170.15109 3732.00000
-3.28586 100.14850 168.28193 3734.00000
-2.56941 100.22271 166.41584 3736.00000
-1.84432 100.29639 164.55368 3738.00000
-1.11302 100.36938 162.69496 3740.00000
-0.37754 100.44150 160.83851 3742.00000
0.36470 100.51262 158.98216 3744.00000
1.12122 100.58280 157.12086 3746.00000
1.90018 100.65240 155.24612 3748.00000
2.70376 100.72181 153.35355 3750.00000
3.52856 100.79096 151.45064 3752.00000
4.37210 100.85953 149.54782 3754.00000
5.23543 100.92741 147.65255 3756.00000
6.12094 100.99480 145.76894 3758.00000
7.02893 101.06204 143.89833 3760.00000
7.95864 101.12940 142.04125 3762.00000
8.90971 101.19704 140.19868 3764.00000
9.88194 101.26491 138.37174 3766.00000
10.87521 101.33299 136.56096 3768.00000
11.89002 101.40117 134.76531 3770.00000
12.92790 101.46959 132.98165 3772.00000
13.99068 101.53835 131.20669 3774.00000
15.07909 101.60754 129.43986 3776.00000
16.19356 101.67704 127.68277 3778.00000
17.33536 101.74668 125.93850 3780.00000
18.50638 101.81617 124.21063 3782.00000
19.70771 101.88521 122.50216 3784.00000
20.93935 101.95341 120.81534 3786.00000
22.20050 102.02061 119.15193 3788.00000
23.48979 102.08701 117.51336 3790.00000
24.80565 102.15314 115.90093 3792.00000
26.14678 102.21953 114.31559 3794.00000
27.51271 102.28666 112.75740 3796.00000
28.90433 102.35461 111.22499 3798.00000
30.32320 102.42323 109.71633 3800.00000
31.77015 102.49200 108.23055 3802.00000
33.24503 102.56032 106.76817 3804.00000
34.74700 102.62766 105.33043 3806.00000
36.27478 102.69380 103.91870 3808.00000
37.82689 102.75890 102.53423 3810.00000
39.40172 102.82338 101.17814 3812.00000
40.99779 102.88776 99.85140 3814.00000
42.61401 102.95250 98.55462 3816.00000
44.25013 103.01783 97.28747 3818.00000
45.90725 103.08394 96.04843 3820.00000
47.58720 103.15061 94.83558 3822.00000
49.29073 103.21734 93.64817 3824.00000
51.01692 103.28360 92.48619 3826.00000
52.76338 103.34911 91.34892 3828.00000
54.52699 103.41385 90.23483 3830.00000
56.30499 103.47793 89.14261 3832.00000
58.09535 103.54147 88.07179 3834.00000
59.89673 103.60456 87.02296 3836.00000
61.70859 103.66715 85.99817 3838.00000
63.53094 103.72917 85.00060 3840.00000
65.36387 103.79059 84.03286 3842.00000
67.20775 103.85156 83.09577 3844.00000
69.06432 103.91231 82.18862 3846.00000
70.93601 103.97311 81.31015 3848.00000
72.82401 104.03402 80.45974 3850.00000
74.72802 104.09493 79.63757 3852.00000
76.64686 104.15549 78.84426 3854.00000
78.57900 104.21532 78.08051 3856.00000
80.52285 104.27400 77.34696 3858.00000
82.47676 104.33131 76.64420 3860.00000
84.43917 104.38722 75.97276 3862.00000
86.40893 104.44190 75.33316 3864.00000
88.38601 104.49565 74.72584 3866.00000
90.37215 104.54879 74.15094 3868.00000
92.37007 104.60154 73.60819 3870.00000
94.38109 104.65402 73.09745 3872.00000
96.40469 104.70619 72.61902 3874.00000
98.43944 104.75799 72.17334 3876.00000
100.48355 104.80933 71.76086 3878.00000
102.53518 104.86016 71.38190 3880.00000
104.59251 104.91043 71.03672 3882.00000
106.65374 104.96009 70.72554 3884.00000
108.71701 105.00904 70.44841 3886.00000
110.78065 105.05723 70.20523 3888.00000
112.84375 105.10464 69.99593 3890.00000
114.90692 105.15121 69.82051 3892.00000
116.97243 105.19671 69.67930 3894.00000
119.04244 105.24108 69.57265 3896.00000
121.11745 105.28445 69.50066 3898.00000
123.19646 105.32697 69.46379 3900.00000
125.27777 105.36869 69.46232 3902.00000
127.35955 105.40966 69.49639 3904.00000
129.43999 105.45000 69.56497 3906.00000
131.51755 105.49008 69.66365 3908.00000
133.59113 105.53033 69.78584 3910.00000
135.66036 105.57114 69.92674 3912.00000
137.72621 105.61255 70.08483 3914.00000
139.79140 105.65445 70.26183 3916.00000
141.85902 105.69637 70.46307 3918.00000
143.92970 105.73768 70.69647 3920.00000
146.00166 105.77776 70.96939 3922.00000
148.07226 105.81624 71.28545 3924.00000
150.13901 105.85302 71.64455 3926.00000
152.20015 105.88829 72.04355 3928.00000
154.25474 105.92241 72.47716 3930.00000
156.30239 105.95585 72.93917 3932.00000
158.34263 105.98893 73.42456 3934.00000
160.37425 106.02187 73.93063 3936.00000
162.39523 106.05461 74.45670 3938.00000
164.40326 106.08701 75.00399 3940.00000
166.39793 106.11889 75.57567 3942.00000
168.38166 106.15031 76.17539 3944.00000
170.35718 106.18139 76.80402 3946.00000
172.32620 106.21275 77.45920 3948.00000
174.28915 106.24435 78.13854 3950.00000
176.24504 106.27573 78.84243 3952.00000
178.19270 106.30716 79.57196 3954.00000
180.13113 106.33793 80.32753 3956.00000
182.05864 106.36822 81.10933 3958.00000
183.97166 106.39861 81.91654 3960.00000
185.86360 106.42790 82.74639 3962.00000
187.72603 106.45553 83.59374 3964.00000
189.55603 106.48145 84.45381 3966.00000
191.36226 106.50575 85.32470 3968.00000
193.15612 106.52855 86.20458 3970.00000
194.94556 106.54991 87.09036 3972.00000
196.73479 106.56991 87.97833 3974.00000
198.52527 106.58865 88.86594 3976.00000
200.31691 106.60634 89.75248 3978.00000
202.10928 106.62320 90.63799 3980.00000
203.90241 106.63955 91.52201 3982.00000
205.69659 106.65567 92.40382 3984.00000
207.49185 106.67169 93.28341 3986.00000
209.28762 106.68750 94.16203 3988.00000
211.08280 106.70277 95.04193 3990.00000
212.87636 106.71708 95.92517 3992.00000
214.66780 106.73011 96.81271 3994.00000
216.45703 106.74166 97.70469 3996.00000
218.24414 106.75169 98.60095 3998.00000
220.02929 106.76026 99.50118 4000.00000
221.81285 106.76755 100.40469 4002.00000
223.59537 106.77369 101.31032 4004.00000
225.37754 106.77882 102.21666 4006.00000
227.15993 106.78303 103.12259 4008.00000
228.94270 106.78650 104.02772 4010.00000
230.72579 106.78965 104.93222 4012.00000
232.50902 106.79309 105.83646 4014.00000
234.29229 106.79720 106.74069 4016.00000
236.07553 106.80207 107.64498 4018.00000
237.85874 106.80740 108.54929 4020.00000
239.64195 106.81258 109.45358 4022.00000
241.42520 106.81674 110.35776 4024.00000
243.20853 106.81931 111.26182 4026.00000
244.99197 106.81989 112.16570 4028.00000
246.77563 106.81866 113.06927 4030.00000
248.55957 106.81581 113.97242 4032.00000
250.34374 106.81153 114.87508 4034.00000
252.12799 106.80587 115.77722 4036.00000
253.91190 106.79899 116.67887 4038.00000
255.69498 106.79130 117.58015 4040.00000
257.47733 106.78342 118.48152 4042.00000
259.26098 106.77585 119.38425 4044.00000
261.05135 106.76864 120.29165 4046.00000
262.85619 106.76165 121.20956 4048.00000
264.67833 106.75484 122.14406 4050.00000
266.50894 106.74829 123.09890 4052.00000
268.33570 106.74221 124.07715 4054.00000
270.15079 106.73630 125.07960 4056.00000
271.95264 106.72803 126.10225 4058.00000
273.74323 106.71566 127.13882 4060.00000
275.52464 106.70069 128.18544 4062.00000
277.29758 106.68507 129.24407 4064.00000
279.06212 106.67018 130.32370 4066.00000
280.81951 106.65651 131.43744 4068.00000
282.57080 106.64380 132.59484 4070.00000
284.31218 106.63151 133.79615 4072.00000
286.03790 106.61867 135.03710 4074.00000
287.74367 106.60429 136.31328 4076.00000
289.42667 106.58771 137.62169 4078.00000
291.08430 106.56881 138.96091 4080.00000
292.71296 106.54795 140.33126 4082.00000
294.30779 106.52594 141.73464 4084.00000
295.86470 106.50376 143.17328 4086.00000
297.38307 106.48224 144.64817 4088.00000
298.86607 106.46158 146.15911 4090.00000
300.31758 106.44166 147.70477 4092.00000
301.73951 106.42200 149.28307 4094.00000
303.13406 106.40211 150.88969 4096.00000
304.50486 106.38182 152.51830 4098.00000
305.85142 106.36096 154.16601 4100.00000
307.16686 106.33917 155.83510 4102.00000
308.44219 106.31603 157.52918 4104.00000
309.67256 106.29109 159.24889 4106.00000
310.85820 106.26390 160.99284 4108.00000
312.00156 106.23398 162.76135 4110.00000
313.10517 106.20140 164.55643 4112.00000
314.16951 106.16705 166.37872 4114.00000
315.19278 106.13210 168.22708 4116.00000
316.17169 106.09718 170.10029 4118.00000
317.10274 106.06251 171.99887 4120.00000
317.98470 106.02806 173.92652 4122.00000
318.81945 105.99366 175.89082 4124.00000
319.60919 105.95886 177.89871 4126.00000
320.35269 105.92335 179.94827 4128.00000
321.04612 105.88691 182.03090 4130.00000
321.68411 105.84961 184.13653 4132.00000
322.25825 105.81165 186.25712 4134.00000
322.75383 105.77318 188.39038 4136.00000
323.14891 105.73387 190.54451 4138.00000
323.41864 105.69292 192.73941 4140.00000
323.54035 105.64933 194.99294 4142.00000
323.49710 105.60320 197.29418 4144.00000
323.28181 105.55562 199.60766 4146.00000
322.90167 105.50868 201.89252 4148.00000
322.38092 105.46452 204.11796 4150.00000
321.75631 105.42515 206.27535 4152.00000
321.05896 105.39081 208.38207 4154.00000
320.29846 105.36024 210.46522 4156.00000
319.46531 105.33060 212.53486 4158.00000
318.54706 105.29928 214.57991 4160.00000
317.54754 105.26517 216.58107 4162.00000
316.48739 105.22899 218.52167 4164.00000
315.38429 105.19220 220.39580 4166.00000
314.23505 105.15554 222.21054 4168.00000
313.02586 105.11881 223.97165 4170.00000
311.74837 105.08138 225.67947 4172.00000
310.40524 105.04234 227.33405 4174.00000
309.00885 105.00156 228.93978 4176.00000
307.57580 104.95955 230.50533 4178.00000
306.11836 104.91633 232.03878 4180.00000
304.64033 104.87119 233.54563 4182.00000
303.13991 104.82339 235.02983 4184.00000
301.61494 104.77405 236.49326 4186.00000
300.06468 104.72564 237.93572 4188.00000
298.48877 104.67863 239.35505 4190.00000
296.88703 104.63328 240.74807 4192.00000
295.25987 104.59034 242.11129 4194.00000
293.60917 104.54917 243.44097 4196.00000
291.93923 104.50867 244.73302 4198.00000
290.25623 104.46818 245.98338 4200.00000
288.56361 104.42769 247.19061 4202.00000
286.85785 104.38717 248.35825 4204.00000
285.13413 104.34639 249.49143 4206.00000
283.39091 104.30520 250.59491 4208.00000
281.63026 104.26363 251.67392 4210.00000
279.85666 104.22199 252.73513 4212.00000
278.07594 104.18068 253.78615 4214.00000
276.29449 104.14009 254.83280 4216.00000
274.51994 104.10057 255.87765 4218.00000
272.76106 104.06238 256.91967 4220.00000
271.02278 104.02535 257.95759 4222.00000
269.30068 103.98870 258.99391 4224.00000
267.58724 103.95146 260.03173 4226.00000
265.87692 103.91337 261.07187 4228.00000
