VERSION 0.7
FIELDS x y z time arclength lapdistance
SIZE 4 4 4 4 4 4
TYPE F F F F F F
COUNT 1 1 1 1 1 1
WIDTH 871
HEIGHT 1
VIEWPOINT 0.000 0.000 0.000 1.000 -81.209 97.099 -76.236
POINTS 871
DATA ascii
41.6732 99.3378 -166.2281 34.8999 2017.4670 2058.9873
40.8162 99.3003 -165.7330 34.9166 2018.4574 2059.9751
39.9634 99.2629 -165.2302 34.9333 2019.4481 2060.9619
39.1147 99.2255 -164.7197 34.9499 2020.4393 2061.9482
38.2703 99.1880 -164.2019 34.9666 2021.4305 2062.9287
37.4298 99.1504 -163.6764 34.9833 2022.4224 2063.8965
36.5934 99.1126 -163.1432 34.9999 2023.4150 2064.8638
35.7611 99.0750 -162.6023 35.0166 2024.4084 2065.8311
34.9331 99.0376 -162.0536 35.0333 2025.4023 2066.7988
34.1094 99.0006 -161.4972 35.0499 2026.3971 2067.7661
33.2900 98.9639 -160.9332 35.0666 2027.3926 2068.7334
32.4746 98.9276 -160.3617 35.0833 2028.3889 2069.7012
31.6634 98.8912 -159.7830 35.0999 2029.3861 2070.6694
30.8562 98.8548 -159.1971 35.1166 2030.3842 2071.6377
30.0531 98.8181 -158.6038 35.1333 2031.3833 2072.6064
29.2540 98.7812 -158.0032 35.1499 2032.3837 2073.5757
28.4590 98.7443 -157.3952 35.1666 2033.3853 2074.5459
27.6682 98.7074 -156.7798 35.1833 2034.3878 2075.5166
26.8815 98.6705 -156.1574 35.1999 2035.3917 2076.4893
26.0986 98.6334 -155.5280 35.2166 2036.3970 2077.4619
25.3203 98.5957 -154.8927 35.2333 2037.4023 2078.4351
24.5478 98.5573 -154.2529 35.2500 2038.4061 2079.4062
23.7802 98.5179 -153.6083 35.2666 2039.4092 2080.3765
23.0155 98.4772 -152.9572 35.2833 2040.4143 2081.3481
22.2535 98.4351 -152.2993 35.3000 2041.4220 2082.3223
21.4950 98.3919 -151.6346 35.3166 2042.4315 2083.3091
20.7404 98.3476 -150.9634 35.3333 2043.4423 2084.3047
19.9904 98.3024 -150.2856 35.3500 2044.4543 2085.3037
19.2450 98.2565 -149.6010 35.3666 2045.4674 2086.3047
18.5044 98.2100 -148.9095 35.3833 2046.4817 2087.3086
17.7684 98.1631 -148.2111 35.4000 2047.4973 2088.3154
17.0370 98.1158 -147.5061 35.4166 2048.5144 2089.3247
16.3101 98.0679 -146.7946 35.4333 2049.5327 2090.3364
15.5877 98.0192 -146.0771 35.4500 2050.5520 2091.3496
14.8701 97.9694 -145.3538 35.4666 2051.5720 2092.3652
14.1568 97.9187 -144.6242 35.4833 2052.5938 2093.3828
13.4479 97.8671 -143.8879 35.5000 2053.6172 2094.4023
12.7438 97.8151 -143.1451 35.5166 2054.6418 2095.4248
12.0446 97.7627 -142.3959 35.5333 2055.6680 2096.4492
11.3505 97.7103 -141.6404 35.5500 2056.6953 2097.4756
10.6610 97.6578 -140.8784 35.5666 2057.7244 2098.5049
9.9761 97.6052 -140.1102 35.5833 2058.7549 2099.5352
9.2955 97.5524 -139.3362 35.6000 2059.7869 2100.5679
8.6192 97.4995 -138.5563 35.6167 2060.8206 2101.6025
7.9467 97.4461 -137.7710 35.6333 2061.8557 2102.6387
7.2780 97.3923 -136.9806 35.6500 2062.8926 2103.6748
6.6128 97.3376 -136.1852 35.6667 2063.9307 2104.7124
5.9510 97.2818 -135.3851 35.6833 2064.9707 2105.7520
5.2924 97.2248 -134.5803 35.7000 2066.0122 2106.7925
4.6372 97.1668 -133.7709 35.7167 2067.0552 2107.8350
3.9852 97.1081 -132.9566 35.7333 2068.1001 2108.8789
3.3366 97.0489 -132.1374 35.7500 2069.1465 2109.9248
2.6914 96.9894 -131.3135 35.7667 2070.1946 2110.9727
2.0497 96.9298 -130.4848 35.7833 2071.2444 2112.0215
1.4116 96.8702 -129.6514 35.8000 2072.2959 2113.0723
0.7768 96.8104 -128.8132 35.8167 2073.3489 2114.1245
0.1455 96.7502 -127.9705 35.8333 2074.4036 2115.1782
-0.4826 96.6894 -127.1234 35.8500 2075.4600 2116.2334
-1.1075 96.6279 -126.2720 35.8667 2076.5178 2117.2900
-1.7293 96.5656 -125.4163 35.8834 2077.5774 2118.3481
-2.3481 96.5027 -124.5565 35.9000 2078.6387 2119.4072
-2.9637 96.4395 -123.6925 35.9167 2079.7014 2120.4683
-3.5764 96.3762 -122.8243 35.9334 2080.7659 2121.5303
-4.1860 96.3132 -121.9517 35.9500 2081.8320 2122.5947
-4.7925 96.2507 -121.0750 35.9667 2082.8999 2123.6592
-5.3958 96.1888 -120.1944 35.9834 2083.9692 2124.7256
-5.9961 96.1273 -119.3096 36.0000 2085.0403 2125.7939
-6.5934 96.0662 -118.4207 36.0167 2086.1130 2126.8628
-7.1878 96.0051 -117.5280 36.0334 2087.1873 2127.9331
-7.7794 95.9440 -116.6314 36.0500 2088.2632 2129.0049
-8.3682 95.8830 -115.7310 36.0667 2089.3406 2130.0776
-8.9544 95.8220 -114.8270 36.0834 2090.4199 2131.1514
-9.5379 95.7612 -113.9192 36.1000 2091.5007 2132.2271
-10.1188 95.7006 -113.0079 36.1167 2092.5830 2133.3037
-10.6972 95.6402 -112.0931 36.1334 2093.6670 2134.3818
-11.2730 95.5800 -111.1747 36.1501 2094.7527 2135.4609
-11.8462 95.5200 -110.2528 36.1667 2095.8401 2136.5410
-12.4167 95.4604 -109.3273 36.1834 2096.9287 2137.6226
-12.9846 95.4011 -108.3983 36.2001 2098.0193 2138.7051
-13.5496 95.3423 -107.4658 36.2167 2099.1111 2139.7891
-14.1117 95.2840 -106.5296 36.2334 2100.2046 2140.8735
-14.6709 95.2264 -105.5899 36.2501 2101.2998 2141.9595
-15.2272 95.1694 -104.6466 36.2667 2102.3962 2143.0459
-15.7807 95.1132 -103.7000 36.2834 2103.4944 2144.1338
-16.3316 95.0576 -102.7500 36.3001 2104.5938 2145.2217
-16.8802 95.0028 -101.7968 36.3167 2105.6951 2146.3115
-17.4267 94.9486 -100.8407 36.3334 2106.7976 2147.4019
-17.9714 94.8951 -99.8820 36.3501 2107.9016 2148.4932
-18.5145 94.8422 -98.9204 36.3667 2109.0071 2149.5859
-19.0562 94.7899 -97.9562 36.3834 2110.1145 2150.6797
-19.5966 94.7384 -96.9894 36.4001 2111.2231 2151.7754
-20.1357 94.6877 -96.0201 36.4168 2112.3335 2152.8716
-20.6738 94.6380 -95.0484 36.4334 2113.4453 2153.9692
-21.2111 94.5892 -94.0744 36.4501 2114.5588 2155.0684
-21.7479 94.5412 -93.0984 36.4668 2115.6736 2156.1680
-22.2843 94.4939 -92.1204 36.4834 2116.7900 2157.2695
-22.8207 94.4473 -91.1406 36.5001 2117.9082 2158.3730
-23.3572 94.4011 -90.1591 36.5168 2119.0276 2159.4771
-23.8938 94.3552 -89.1760 36.5334 2120.1484 2160.5830
-24.4307 94.3097 -88.1914 36.5501 2121.2710 2161.6899
-24.9679 94.2645 -87.2053 36.5668 2122.3948 2162.7983
-25.5056 94.2198 -86.2177 36.5834 2123.5203 2163.9082
-26.0427 94.1756 -85.2310 36.6001 2124.6445 2165.0171
-26.5770 94.1323 -84.2498 36.6168 2125.7625 2166.1196
-27.1087 94.0900 -83.2747 36.6334 2126.8740 2167.2158
-27.6380 94.0487 -82.3058 36.6501 2127.9788 2168.3062
-28.1649 94.0084 -81.3432 36.6667 2129.0769 2169.3896
-28.6896 93.9690 -80.3871 36.6834 2130.1682 2170.4668
-29.2122 93.9305 -79.4375 36.7001 2131.2529 2171.5371
-29.7329 93.8927 -78.4943 36.7167 2132.3308 2172.6016
-30.2516 93.8556 -77.5577 36.7334 2133.4021 2173.6602
-30.7684 93.8190 -76.6278 36.7500 2134.4668 2174.7114
-31.2837 93.7829 -75.7043 36.7667 2135.5249 2175.7568
-31.7974 93.7473 -74.7876 36.7834 2136.5762 2176.7959
-32.3095 93.7123 -73.8778 36.8000 2137.6208 2177.8291
-32.8201 93.6780 -72.9748 36.8167 2138.6587 2178.8555
-33.3295 93.6443 -72.0786 36.8333 2139.6902 2179.8760
-33.8374 93.6113 -71.1892 36.8500 2140.7148 2180.8906
-34.3439 93.5788 -70.3067 36.8666 2141.7329 2181.8984
-34.8493 93.5468 -69.4305 36.8833 2142.7449 2182.9004
-35.3536 93.5152 -68.5604 36.9000 2143.7512 2183.8955
-35.8565 93.4838 -67.6969 36.9166 2144.7510 2184.8848
-36.3581 93.4529 -66.8400 36.9333 2145.7441 2185.8682
-36.8581 93.4223 -65.9898 36.9499 2146.7312 2186.8447
-37.3568 93.3921 -65.1463 36.9666 2147.7114 2187.8154
-37.8540 93.3624 -64.3094 36.9832 2148.6853 2188.7793
-38.3498 93.3332 -63.4791 36.9999 2149.6528 2189.7373
-38.8443 93.3044 -62.6552 37.0166 2150.6143 2190.6895
-39.3373 93.2761 -61.8380 37.0332 2151.5691 2191.6357
-39.8288 93.2483 -61.0276 37.0499 2152.5173 2192.5752
-40.3188 93.2212 -60.2238 37.0665 2153.4590 2193.5088
-40.8074 93.1947 -59.4265 37.0832 2154.3945 2194.4355
-41.2943 93.1689 -58.6357 37.0998 2155.3235 2195.3569
-41.7797 93.1437 -57.8513 37.1165 2156.2463 2196.2720
-42.2633 93.1190 -57.0731 37.1332 2157.1628 2197.1807
-42.7451 93.0947 -56.3013 37.1498 2158.0730 2198.0835
-43.2249 93.0708 -55.5358 37.1665 2158.9768 2198.9800
-43.7029 93.0471 -54.7764 37.1831 2159.8745 2199.8706
-44.1789 93.0237 -54.0232 37.1998 2160.7656 2200.7549
-44.6527 93.0005 -53.2764 37.2164 2161.6504 2201.6328
-45.1248 92.9775 -52.5352 37.2331 2162.5295 2202.5054
-45.5953 92.9547 -51.7997 37.2498 2163.4028 2203.3721
-46.0640 92.9323 -51.0702 37.2664 2164.2703 2204.2334
-46.5310 92.9101 -50.3469 37.2831 2165.1316 2205.0879
-46.9961 92.8883 -49.6297 37.2997 2165.9866 2205.9375
-47.4594 92.8667 -48.9188 37.3164 2166.8354 2206.7803
-47.9209 92.8455 -48.2140 37.3331 2167.6782 2207.6172
-48.3805 92.8244 -47.5154 37.3497 2168.5146 2208.4482
-48.8382 92.8036 -46.8228 37.3664 2169.3450 2209.2734
-49.2938 92.7830 -46.1361 37.3830 2170.1694 2210.0923
-49.7476 92.7625 -45.4552 37.3997 2170.9880 2210.9058
-50.1992 92.7423 -44.7805 37.4163 2171.8000 2211.7129
-50.6486 92.7223 -44.1118 37.4330 2172.6060 2212.5137
-51.0959 92.7026 -43.4491 37.4496 2173.4058 2213.3091
-51.5412 92.6833 -42.7923 37.4663 2174.1995 2214.0981
-51.9843 92.6643 -42.1413 37.4830 2174.9873 2214.8813
-52.4254 92.6457 -41.4962 37.4996 2175.7690 2215.6587
-52.8643 92.6275 -40.8567 37.5163 2176.5447 2216.4307
-53.3011 92.6095 -40.2230 37.5329 2177.3147 2217.1963
-53.7358 92.5919 -39.5951 37.5496 2178.0786 2217.9561
-54.1686 92.5745 -38.9730 37.5662 2178.8367 2218.7100
-54.5993 92.5575 -38.3569 37.5829 2179.5886 2219.4600
-55.0283 92.5407 -37.7467 37.5996 2180.3347 2220.2041
-55.4555 92.5243 -37.1423 37.6162 2181.0750 2220.9429
-55.8809 92.5081 -36.5440 37.6329 2181.8093 2221.6758
-56.3044 92.4923 -35.9518 37.6495 2182.5374 2222.4023
-56.7266 92.4769 -35.3649 37.6662 2183.2607 2223.1250
-57.1474 92.4617 -34.7833 37.6828 2183.9785 2223.8418
-57.5664 92.4469 -34.2074 37.6995 2184.6909 2224.5532
-57.9833 92.4324 -33.6376 37.7161 2185.3972 2225.2588
-58.3976 92.4182 -33.0747 37.7328 2186.0962 2225.9570
-58.8093 92.4043 -32.5189 37.7495 2186.7881 2226.6484
-59.2187 92.3906 -31.9701 37.7661 2187.4729 2227.3325
-59.6260 92.3771 -31.4286 37.7828 2188.1506 2228.0098
-60.0312 92.3639 -30.8947 37.7994 2188.8210 2228.6802
-60.4347 92.3510 -30.3682 37.8161 2189.4844 2229.3438
-60.8368 92.3382 -29.8493 37.8327 2190.1411 2230.0000
-61.2378 92.3255 -29.3378 37.8494 2190.7910 2230.6504
-61.6376 92.3131 -28.8338 37.8660 2191.4346 2231.2939
-62.0363 92.3007 -28.3375 37.8827 2192.0713 2231.9307
-62.4342 92.2885 -27.8485 37.8993 2192.7019 2232.5615
-62.8317 92.2764 -27.3662 37.9160 2193.3269 2233.1865
-63.2289 92.2643 -26.8906 37.9326 2193.9468 2233.8062
-63.6260 92.2524 -26.4212 37.9493 2194.5618 2234.4209
-64.0232 92.2406 -25.9577 37.9659 2195.1721 2235.0312
-64.4210 92.2288 -25.4997 37.9826 2195.7788 2235.6377
-64.8191 92.2172 -25.0474 37.9993 2196.3816 2236.2402
-65.2169 92.2057 -24.6015 38.0159 2196.9792 2236.8369
-65.6146 92.1944 -24.1619 38.0326 2197.5723 2237.4297
-66.0119 92.1832 -23.7288 38.0492 2198.1599 2238.0161
-66.4088 92.1722 -23.3022 38.0659 2198.7427 2238.5977
-66.8055 92.1613 -22.8821 38.0825 2199.3206 2239.1738
-67.2018 92.1506 -22.4684 38.0992 2199.8938 2239.7451
-67.5980 92.1401 -22.0611 38.1158 2200.4619 2240.3110
-67.9939 92.1297 -21.6600 38.1325 2201.0256 2240.8721
-68.3894 92.1193 -21.2652 38.1491 2201.5845 2241.4277
-68.7844 92.1091 -20.8767 38.1658 2202.1387 2241.9785
-69.1789 92.0989 -20.4944 38.1825 2202.6882 2242.5239
-69.5729 92.0887 -20.1182 38.1991 2203.2332 2243.0645
-69.9664 92.0786 -19.7480 38.2158 2203.7734 2243.5996
-70.3592 92.0686 -19.3839 38.2324 2204.3091 2244.1299
-70.7514 92.0585 -19.0259 38.2491 2204.8401 2244.6548
-71.1431 92.0486 -18.6741 38.2657 2205.3667 2245.1748
-71.5341 92.0386 -18.3285 38.2824 2205.8887 2245.6895
-71.9245 92.0288 -17.9892 38.2990 2206.4060 2246.1992
-72.3142 92.0190 -17.6563 38.3157 2206.9187 2246.7031
-72.7033 92.0092 -17.3300 38.3324 2207.4265 2247.2012
-73.0918 91.9996 -17.0101 38.3490 2207.9299 2247.6943
-73.4796 91.9900 -16.6968 38.3657 2208.4285 2248.1816
-73.8668 91.9806 -16.3901 38.3823 2208.9226 2248.6641
-74.2533 91.9712 -16.0900 38.3990 2209.4121 2249.1401
-74.6389 91.9619 -15.7966 38.4156 2209.8967 2249.6104
-75.0235 91.9528 -15.5100 38.4323 2210.3765 2250.0752
-75.4071 91.9437 -15.2301 38.4489 2210.8513 2250.5342
-75.7896 91.9348 -14.9568 38.4656 2211.3215 2250.9775
-76.1709 91.9259 -14.6902 38.4822 2211.7869 2251.3955
-76.5511 91.9171 -14.4301 38.4989 2212.2476 2251.8086
-76.9302 91.9083 -14.1765 38.5155 2212.7039 2252.2183
-77.3080 91.8996 -13.9295 38.5322 2213.1553 2252.6240
-77.6847 91.8909 -13.6891 38.5488 2213.6023 2253.0254
-78.0602 91.8822 -13.4551 38.5655 2214.0447 2253.4229
-78.4350 91.8736 -13.2274 38.5821 2214.4834 2253.8174
-78.8094 91.8649 -13.0059 38.5988 2214.9185 2254.2080
-79.1835 91.8563 -12.7905 38.6155 2215.3503 2254.5967
-79.5576 91.8477 -12.5809 38.6321 2215.7793 2254.9824
-79.9320 91.8390 -12.3772 38.6488 2216.2056 2255.3662
-80.3068 91.8304 -12.1793 38.6654 2216.6294 2255.7480
-80.6821 91.8217 -11.9872 38.6821 2217.0510 2256.1279
-81.0578 91.8129 -11.8009 38.6987 2217.4707 2256.5068
-81.4341 91.8042 -11.6205 38.7154 2217.8879 2256.8833
-81.8109 91.7955 -11.4458 38.7321 2218.3035 2257.2588
-82.1882 91.7869 -11.2770 38.7487 2218.7168 2257.6318
-82.5660 91.7783 -11.1140 38.7654 2219.1284 2258.0044
-82.9443 91.7697 -10.9567 38.7820 2219.5381 2258.3750
-83.3232 91.7611 -10.8050 38.7987 2219.9465 2258.7451
-83.7028 91.7526 -10.6589 38.8154 2220.3533 2259.1138
-84.0832 91.7440 -10.5181 38.8320 2220.7590 2259.4824
-84.4645 91.7355 -10.3827 38.8487 2221.1636 2259.8506
-84.8468 91.7270 -10.2525 38.8653 2221.5676 2260.2188
-85.2301 91.7185 -10.1275 38.8820 2221.9709 2260.5869
-85.6143 91.7100 -10.0078 38.8987 2222.3735 2260.9551
-85.9993 91.7017 -9.8933 38.9153 2222.7751 2261.3232
-86.3851 91.6934 -9.7841 38.9320 2223.1763 2261.6914
-86.7712 91.6852 -9.6802 38.9487 2223.5762 2262.0591
-87.1575 91.6771 -9.5815 38.9653 2223.9749 2262.4263
-87.5438 91.6691 -9.4882 38.9820 2224.3723 2262.7930
-87.9297 91.6611 -9.4002 38.9987 2224.7683 2263.1597
-88.3152 91.6530 -9.3174 39.0153 2225.1626 2263.5259
-88.6999 91.6450 -9.2399 39.0320 2225.5552 2263.8916
-89.0838 91.6370 -9.1679 39.0486 2225.9458 2264.2568
-89.4665 91.6289 -9.1012 39.0653 2226.3345 2264.6211
-89.8481 91.6210 -9.0399 39.0820 2226.7209 2264.9844
-90.2286 91.6131 -8.9842 39.0986 2227.1057 2265.3467
-90.6079 91.6052 -8.9338 39.1153 2227.4883 2265.7080
-90.9861 91.5975 -8.8889 39.1319 2227.8691 2266.0674
-91.3633 91.5897 -8.8493 39.1486 2228.2485 2266.4268
-91.7396 91.5819 -8.8150 39.1653 2228.6267 2266.7856
-92.1153 91.5741 -8.7859 39.1819 2229.0034 2267.2173
-92.4904 91.5663 -8.7620 39.1986 2229.3794 2267.6582
-92.8650 91.5583 -8.7433 39.2153 2229.7546 2268.1006
-93.2389 91.5504 -8.7299 39.2319 2230.1289 2268.5439
-93.6123 91.5424 -8.7217 39.2486 2230.5024 2268.9883
-93.9848 91.5345 -8.7189 39.2652 2230.8750 2269.4336
-94.3565 91.5266 -8.7215 39.2819 2231.2468 2269.8804
-94.7272 91.5189 -8.7295 39.2986 2231.6177 2270.3291
-95.0968 91.5114 -8.7429 39.3152 2231.9875 2270.7803
-95.4655 91.5040 -8.7617 39.3319 2232.3567 2271.2344
-95.8331 91.4967 -8.7858 39.3485 2232.7253 2271.6929
-96.1996 91.4896 -8.8151 39.3652 2233.0930 2272.1562
-96.5651 91.4827 -8.8497 39.3819 2233.4602 2272.6250
-96.9295 91.4758 -8.8895 39.3985 2233.8269 2273.0996
-97.2927 91.4692 -8.9344 39.4152 2234.1929 2273.5811
-97.6546 91.4628 -8.9844 39.4319 2234.5583 2274.0698
-98.0150 91.4566 -9.0395 39.4485 2234.9229 2274.5654
-98.3740 91.4507 -9.0996 39.4652 2235.2871 2275.0698
-98.7316 91.4451 -9.1647 39.4818 2235.6504 2275.5830
-99.0877 91.4399 -9.2348 39.4985 2236.0134 2276.1074
-99.4428 91.4350 -9.3096 39.5152 2236.3765 2276.6431
-99.7968 91.4304 -9.3894 39.5318 2236.7393 2277.1924
-100.1497 91.4262 -9.4739 39.5485 2237.1023 2277.7563
-100.5016 91.4222 -9.5631 39.5652 2237.4653 2278.3359
-100.8524 91.4186 -9.6571 39.5818 2237.8284 2278.9326
-101.2020 91.4153 -9.7557 39.5985 2238.1919 2279.5703
-101.5506 91.4123 -9.8590 39.6152 2238.5554 2280.1992
-101.8978 91.4096 -9.9668 39.6318 2238.9189 2280.8184
-102.2438 91.4072 -10.0793 39.6485 2239.2827 2281.4297
-102.5885 91.4051 -10.1962 39.6652 2239.6467 2282.0342
-102.9320 91.4033 -10.3177 39.6819 2240.0110 2282.6328
-103.2742 91.4018 -10.4438 39.6985 2240.3757 2283.2261
-103.6151 91.4007 -10.5743 39.7152 2240.7407 2283.8149
-103.9547 91.3999 -10.7093 39.7319 2241.1062 2284.4004
-104.2930 91.3995 -10.8486 39.7485 2241.4722 2284.9834
-104.6301 91.3994 -10.9924 39.7652 2241.8386 2285.5645
-104.9659 91.3996 -11.1405 39.7819 2242.2056 2286.1455
-105.3005 91.4001 -11.2929 39.7985 2242.5732 2286.7256
-105.6337 91.4007 -11.4496 39.8152 2242.9414 2287.3066
-105.9657 91.4016 -11.6105 39.8319 2243.3105 2287.8882
-106.2963 91.4026 -11.7758 39.8485 2243.6802 2288.4717
-106.6254 91.4038 -11.9455 39.8652 2244.0503 2289.0576
-106.9529 91.4052 -12.1196 39.8819 2244.4214 2289.6465
-107.2788 91.4069 -12.2982 39.8985 2244.7930 2290.2402
-107.6026 91.4090 -12.4811 39.9152 2245.1648 2290.8110
-107.9239 91.4114 -12.6683 39.9319 2245.5366 2291.2549
-108.2425 91.4142 -12.8595 39.9485 2245.9082 2291.6934
-108.5586 91.4175 -13.0547 39.9652 2246.2798 2292.1289
-108.8722 91.4210 -13.2541 39.9819 2246.6514 2292.5596
-109.1837 91.4250 -13.4576 39.9985 2247.0234 2292.9873
-109.4933 91.4293 -13.6655 40.0152 2247.3965 2293.4121
-109.8011 91.4338 -13.8778 40.0319 2247.7705 2293.8350
-110.1070 91.4387 -14.0944 40.0485 2248.1453 2294.2549
-110.4109 91.4438 -14.3153 40.0652 2248.5210 2294.6738
-110.7128 91.4491 -14.5403 40.0819 2248.8977 2295.0898
-111.0125 91.4545 -14.7695 40.0986 2249.2749 2295.5044
-111.3102 91.4600 -15.0030 40.1152 2249.6533 2295.9170
-111.6058 91.4657 -15.2408 40.1319 2250.0327 2296.3281
-111.8993 91.4715 -15.4830 40.1486 2250.4133 2296.7383
-112.1905 91.4774 -15.7295 40.1652 2250.7949 2297.1475
-112.4794 91.4835 -15.9803 40.1819 2251.1775 2297.5566
-112.7659 91.4897 -16.2355 40.1986 2251.5613 2297.9648
-113.0500 91.4960 -16.4951 40.2153 2251.9460 2298.3721
-113.3316 91.5023 -16.7589 40.2319 2252.3320 2298.7793
-113.6108 91.5087 -17.0271 40.2486 2252.7192 2299.1865
-113.8873 91.5151 -17.2994 40.2653 2253.1074 2299.5928
-114.1604 91.5215 -17.5752 40.2819 2253.4956 2299.9980
-114.4300 91.5279 -17.8544 40.2986 2253.8838 2300.4014
-114.6956 91.5342 -18.1365 40.3153 2254.2712 2300.8042
-114.9571 91.5405 -18.4215 40.3319 2254.6582 2301.2051
-115.2146 91.5468 -18.7093 40.3486 2255.0444 2301.6055
-115.4680 91.5531 -18.9999 40.3653 2255.4299 2302.0049
-115.7177 91.5593 -19.2935 40.3819 2255.8154 2302.4033
-115.9640 91.5656 -19.5904 40.3986 2256.2014 2302.8027
-116.2072 91.5718 -19.8911 40.4153 2256.5881 2303.2021
-116.4475 91.5780 -20.1955 40.4319 2256.9758 2303.6025
-116.6847 91.5841 -20.5037 40.4486 2257.3650 2304.0044
-116.9189 91.5901 -20.8158 40.4653 2257.7551 2304.4072
-117.1501 91.5962 -21.1318 40.4819 2258.1467 2304.8125
-117.3781 91.6022 -21.4516 40.4986 2258.5396 2305.2192
-117.6030 91.6083 -21.7752 40.5153 2258.9336 2305.6279
-117.8246 91.6143 -22.1026 40.5320 2259.3291 2306.0391
-118.0431 91.6203 -22.4339 40.5486 2259.7261 2306.4531
-118.2584 91.6264 -22.7691 40.5653 2260.1245 2306.8691
-118.4706 91.6324 -23.1080 40.5820 2260.5244 2307.2588
-118.6796 91.6384 -23.4507 40.5986 2260.9258 2307.6484
-118.8854 91.6444 -23.7972 40.6153 2261.3289 2308.0381
-119.0881 91.6504 -24.1474 40.6320 2261.7336 2308.4287
-119.2877 91.6563 -24.5014 40.6487 2262.1399 2308.8203
-119.4841 91.6623 -24.8591 40.6653 2262.5481 2309.2129
-119.6772 91.6682 -25.2204 40.6820 2262.9578 2309.6060
-119.8670 91.6742 -25.5852 40.6987 2263.3689 2310.0000
-120.0534 91.6802 -25.9533 40.7154 2263.7817 2310.3955
-120.2363 91.6862 -26.3247 40.7320 2264.1958 2310.7915
-120.4159 91.6922 -26.6994 40.7487 2264.6113 2311.1885
-120.5920 91.6981 -27.0774 40.7654 2265.0283 2311.5859
-120.7648 91.7040 -27.4586 40.7820 2265.4468 2311.9844
-120.9341 91.7098 -27.8431 40.7987 2265.8672 2312.3838
-121.1001 91.7156 -28.2309 40.8154 2266.2891 2312.7842
-121.2626 91.7212 -28.6221 40.8321 2266.7126 2313.1865
-121.4217 91.7269 -29.0167 40.8487 2267.1382 2313.5898
-121.5774 91.7324 -29.4146 40.8654 2267.5654 2313.9941
-121.7297 91.7379 -29.8159 40.8821 2267.9946 2314.4004
-121.8785 91.7433 -30.2204 40.8987 2268.4258 2314.8081
-122.0239 91.7487 -30.6283 40.9154 2268.8589 2315.2173
-122.1659 91.7540 -31.0395 40.9321 2269.2939 2315.6279
-122.3045 91.7592 -31.4540 40.9488 2269.7310 2316.0400
-122.4397 91.7644 -31.8718 40.9654 2270.1702 2316.4541
-122.5714 91.7695 -32.2926 40.9821 2270.6111 2316.8701
-122.6997 91.7746 -32.7166 40.9988 2271.0542 2317.2876
-122.8245 91.7796 -33.1436 41.0155 2271.4990 2317.7065
-122.9459 91.7846 -33.5737 41.0321 2271.9458 2318.1274
-123.0637 91.7896 -34.0068 41.0488 2272.3948 2318.5503
-123.1782 91.7946 -34.4429 41.0655 2272.8457 2318.9746
-123.2893 91.7996 -34.8819 41.0821 2273.2986 2319.4014
-123.3971 91.8047 -35.3240 41.0988 2273.7537 2319.8301
-123.5017 91.8098 -35.7691 41.1155 2274.2109 2320.2607
-123.6033 91.8150 -36.2171 41.1322 2274.6704 2320.6938
-123.7020 91.8204 -36.6682 41.1488 2275.1321 2321.1289
-123.7980 91.8260 -37.1225 41.1655 2275.5964 2321.5669
-123.8912 91.8318 -37.5800 41.1822 2276.0635 2322.0073
-123.9819 91.8379 -38.0410 41.1989 2276.5332 2322.4502
-124.0700 91.8442 -38.5054 41.2155 2277.0061 2322.8965
-124.1555 91.8508 -38.9734 41.2322 2277.4817 2323.3555
-124.2380 91.8575 -39.4445 41.2489 2277.9602 2323.8164
-124.3172 91.8645 -39.9182 41.2656 2278.4404 2324.2793
-124.3928 91.8717 -40.3944 41.2822 2278.9226 2324.7437
-124.4647 91.8791 -40.8733 41.2989 2279.4070 2325.2100
-124.5325 91.8868 -41.3556 41.3156 2279.8940 2325.6782
-124.5960 91.8949 -41.8409 41.3323 2280.3835 2326.1494
-124.6551 91.9034 -42.3286 41.3489 2280.8750 2326.6221
-124.7097 91.9121 -42.8189 41.3656 2281.3684 2327.0967
-124.7599 91.9212 -43.3117 41.3823 2281.8638 2327.5732
-124.8059 91.9305 -43.8072 41.3989 2282.3616 2328.0518
-124.8480 91.9400 -44.3049 41.4156 2282.8611 2328.5312
-124.8861 91.9495 -44.8051 41.4323 2283.3628 2329.0132
-124.9205 91.9593 -45.3081 41.4490 2283.8672 2329.4971
-124.9511 91.9692 -45.8142 41.4656 2284.3743 2329.9834
-124.9780 91.9794 -46.3232 41.4823 2284.8840 2330.4717
-125.0011 91.9897 -46.8350 41.4990 2285.3965 2330.9629
-125.0204 92.0002 -47.3493 41.5157 2285.9114 2331.4561
-125.0359 92.0109 -47.8664 41.5323 2286.4287 2331.9512
-125.0479 92.0216 -48.3860 41.5490 2286.9485 2332.4492
-125.0561 92.0322 -48.9081 41.5657 2287.4707 2332.9487
-125.0608 92.0429 -49.4326 41.5823 2287.9954 2333.4507
-125.0617 92.0535 -49.9597 41.5990 2288.5227 2333.9546
-125.0590 92.0641 -50.4894 41.6157 2289.0525 2334.4609
-125.0524 92.0746 -51.0215 41.6324 2289.5847 2334.9697
-125.0420 92.0852 -51.5557 41.6490 2290.1191 2335.4805
-125.0276 92.0957 -52.0919 41.6657 2290.6558 2335.9932
-125.0094 92.1061 -52.6302 41.6824 2291.1943 2336.5078
-124.9873 92.1166 -53.1705 41.6991 2291.7351 2337.0244
-124.9614 92.1269 -53.7127 41.7157 2292.2781 2337.5430
-124.9318 92.1373 -54.2571 41.7324 2292.8235 2338.0635
-124.8986 92.1476 -54.8035 41.7491 2293.3708 2338.5864
-124.8618 92.1579 -55.3520 41.7657 2293.9207 2339.1113
-124.8216 92.1682 -55.9028 41.7824 2294.4731 2339.6387
-124.7781 92.1785 -56.4557 41.7991 2295.0278 2340.1689
-124.7314 92.1889 -57.0109 41.8158 2295.5850 2340.7012
-124.6816 92.1993 -57.5683 41.8324 2296.1448 2341.2354
-124.6287 92.2098 -58.1280 41.8491 2296.7070 2341.7725
-124.5730 92.2204 -58.6900 41.8658 2297.2720 2342.3120
-124.5145 92.2311 -59.2545 41.8825 2297.8396 2342.8545
-124.4534 92.2419 -59.8214 41.8991 2298.4099 2343.4219
-124.3898 92.2529 -60.3908 41.9158 2298.9829 2343.9941
-124.3238 92.2640 -60.9627 41.9325 2299.5586 2344.5698
-124.2556 92.2751 -61.5357 41.9491 2300.1357 2345.1470
-124.1857 92.2864 -62.1081 41.9658 2300.7126 2345.7236
-124.1139 92.2977 -62.6811 41.9825 2301.2900 2346.3013
-124.0401 92.3092 -63.2570 41.9992 2301.8708 2346.8823
-123.9642 92.3210 -63.8362 42.0158 2302.4551 2347.4668
-123.8864 92.3329 -64.4181 42.0325 2303.0422 2348.0537
-123.8066 92.3449 -65.0010 42.0492 2303.6309 2348.6426
-123.7250 92.3570 -65.5850 42.0659 2304.2207 2349.2329
-123.6415 92.3692 -66.1702 42.0825 2304.8120 2349.8247
-123.5560 92.3816 -66.7565 42.0992 2305.4045 2350.4180
-123.4688 92.3940 -67.3440 42.1159 2305.9985 2351.0122
-123.3797 92.4066 -67.9328 42.1325 2306.5942 2351.6084
-123.2890 92.4193 -68.5228 42.1492 2307.1912 2352.2061
-123.1967 92.4321 -69.1142 42.1659 2307.7900 2352.8047
-123.1028 92.4450 -69.7071 42.1825 2308.3904 2353.4058
-123.0076 92.4579 -70.3015 42.1992 2308.9924 2354.0083
-122.9109 92.4710 -70.8975 42.2159 2309.5964 2354.6128
-122.8130 92.4842 -71.4951 42.2326 2310.2021 2355.2188
-122.7137 92.4975 -72.0945 42.2492 2310.8098 2355.8271
-122.6132 92.5109 -72.6957 42.2659 2311.4197 2356.4375
-122.5115 92.5243 -73.2987 42.2826 2312.0312 2357.0498
-122.4085 92.5379 -73.9036 42.2992 2312.6450 2357.6641
-122.3043 92.5516 -74.5106 42.3159 2313.2610 2358.2803
-122.1990 92.5654 -75.1195 42.3326 2313.8792 2358.8984
-122.0924 92.5793 -75.7306 42.3493 2314.4995 2359.5195
-121.9847 92.5934 -76.3438 42.3659 2315.1223 2360.1426
-121.8759 92.6075 -76.9592 42.3826 2315.7476 2360.7686
-121.7659 92.6217 -77.5770 42.3993 2316.3750 2361.3965
-121.6548 92.6361 -78.1971 42.4159 2317.0051 2362.0269
-121.5427 92.6506 -78.8196 42.4326 2317.6379 2362.6602
-121.4296 92.6651 -79.4447 42.4493 2318.2734 2363.2959
-121.3157 92.6799 -80.0724 42.4660 2318.9114 2363.9346
-121.2008 92.6947 -80.7028 42.4826 2319.5525 2364.5752
-121.0849 92.7097 -81.3359 42.4993 2320.1963 2365.2197
-120.9681 92.7249 -81.9717 42.5160 2320.8428 2365.8667
-120.8503 92.7401 -82.6104 42.5326 2321.4924 2366.5166
-120.7313 92.7555 -83.2520 42.5493 2322.1453 2367.1694
-120.6112 92.7710 -83.8965 42.5660 2322.8010 2367.8257
-120.4899 92.7867 -84.5441 42.5827 2323.4602 2368.4849
-120.3672 92.8025 -85.1948 42.5993 2324.1223 2369.1475
-120.2433 92.8185 -85.8485 42.6160 2324.7878 2369.8135
-120.1180 92.8346 -86.5053 42.6327 2325.4568 2370.4824
-119.9914 92.8508 -87.1653 42.6494 2326.1289 2371.1543
-119.8635 92.8672 -87.8285 42.6660 2326.8047 2371.8301
-119.7341 92.8837 -88.4948 42.6827 2327.4834 2372.5093
-119.6034 92.9003 -89.1641 42.6994 2328.1658 2373.1914
-119.4714 92.9169 -89.8365 42.7161 2328.8511 2373.8770
-119.3380 92.9337 -90.5121 42.7327 2329.5400 2374.5659
-119.2033 92.9506 -91.1907 42.7494 2330.2319 2375.2578
-119.0672 92.9675 -91.8724 42.7661 2330.9272 2375.9531
-118.9299 92.9846 -92.5572 42.7828 2331.6260 2376.6519
-118.7913 93.0017 -93.2453 42.7994 2332.3281 2377.3535
-118.6514 93.0190 -93.9364 42.8161 2333.0334 2378.0591
-118.5102 93.0363 -94.6308 42.8328 2333.7422 2378.7676
-118.3679 93.0537 -95.3282 42.8494 2334.4543 2379.4795
-118.2243 93.0713 -96.0287 42.8661 2335.1697 2380.1943
-118.0796 93.0891 -96.7324 42.8828 2335.8882 2380.9131
-117.9337 93.1071 -97.4392 42.8995 2336.6101 2381.6348
-117.7866 93.1254 -98.1491 42.9161 2337.3354 2382.3594
-117.6384 93.1440 -98.8620 42.9328 2338.0637 2383.0874
-117.4891 93.1628 -99.5779 42.9495 2338.7952 2383.8184
-117.3386 93.1821 -100.2967 42.9662 2339.5300 2384.5527
-117.1874 93.2018 -101.0169 42.9828 2340.2661 2385.2881
-117.0357 93.2219 -101.7364 42.9995 2341.0017 2386.0234
-116.8834 93.2425 -102.4569 43.0162 2341.7383 2386.7598
-116.7297 93.2636 -103.1811 43.0328 2342.4790 2387.4995
-116.5748 93.2854 -103.9087 43.0495 2343.2234 2388.2432
-116.4188 93.3075 -104.6390 43.0662 2343.9702 2388.9893
-116.2618 93.3301 -105.3714 43.0828 2344.7197 2389.7383
-116.1039 93.3530 -106.1059 43.0995 2345.4714 2390.4888
-115.9450 93.3761 -106.8423 43.1162 2346.2251 2391.2417
-115.7851 93.3995 -107.5807 43.1329 2346.9810 2391.9966
-115.6243 93.4231 -108.3214 43.1495 2347.7393 2392.7539
-115.4624 93.4469 -109.0644 43.1662 2348.5000 2393.5137
-115.2994 93.4708 -109.8096 43.1829 2349.2632 2394.2759
-115.1355 93.4948 -110.5571 43.1995 2350.0288 2395.0405
-114.9704 93.5189 -111.3069 43.2162 2350.7971 2395.8076
-114.8042 93.5431 -112.0592 43.2329 2351.5679 2396.5771
-114.6369 93.5674 -112.8141 43.2496 2352.3416 2397.3496
-114.4684 93.5917 -113.5715 43.2662 2353.1177 2398.1245
-114.2986 93.6161 -114.3314 43.2829 2353.8967 2398.9023
-114.1277 93.6407 -115.0937 43.2996 2354.6785 2399.6826
-113.9556 93.6654 -115.8587 43.3162 2355.4629 2400.4658
-113.7821 93.6903 -116.6268 43.3329 2356.2507 2401.2520
-113.6074 93.7156 -117.3973 43.3496 2357.0413 2402.0410
-113.4316 93.7411 -118.1705 43.3663 2357.8345 2402.8320
-113.2545 93.7670 -118.9463 43.3829 2358.6309 2403.6270
-113.0762 93.7931 -119.7250 43.3996 2359.4299 2404.4243
-112.8969 93.8194 -120.5062 43.4163 2360.2319 2405.2246
-112.7164 93.8460 -121.2900 43.4329 2361.0366 2406.0273
-112.5349 93.8729 -122.0764 43.4496 2361.8442 2406.8330
-112.3523 93.9000 -122.8655 43.4663 2362.6545 2407.6411
-112.1688 93.9273 -123.6572 43.4830 2363.4678 2408.4521
-111.9843 93.9548 -124.4515 43.4996 2364.2837 2409.2656
-111.7989 93.9826 -125.2484 43.5163 2365.1023 2410.0820
-111.6127 94.0106 -126.0479 43.5330 2365.9236 2410.9009
-111.4256 94.0387 -126.8499 43.5497 2366.7478 2411.7227
-111.2377 94.0670 -127.6545 43.5663 2367.5745 2412.5469
-111.0491 94.0953 -128.4617 43.5830 2368.4038 2413.3740
-110.8597 94.1237 -129.2714 43.5997 2369.2361 2414.2031
-110.6695 94.1520 -130.0837 43.6163 2370.0706 2415.0356
-110.4787 94.1802 -130.8984 43.6330 2370.9080 2415.8706
-110.2870 94.2083 -131.7157 43.6497 2371.7478 2416.7080
-110.0946 94.2363 -132.5354 43.6663 2372.5903 2417.5479
-109.9014 94.2643 -133.3577 43.6830 2373.4353 2418.3906
-109.7075 94.2921 -134.1824 43.6997 2374.2830 2419.2354
-109.5127 94.3198 -135.0095 43.7164 2375.1333 2420.0835
-109.3171 94.3474 -135.8391 43.7330 2375.9861 2420.9336
-109.1208 94.3750 -136.6710 43.7497 2376.8413 2421.7861
-108.9236 94.4025 -137.5054 43.7664 2377.6990 2422.6416
-108.7256 94.4299 -138.3421 43.7830 2378.5593 2423.4990
-108.5268 94.4573 -139.1812 43.7997 2379.4221 2424.3594
-108.3271 94.4845 -140.0227 43.8164 2380.2874 2425.2217
-108.1265 94.5116 -140.8664 43.8331 2381.1550 2426.0869
-107.9251 94.5386 -141.7124 43.8497 2382.0251 2426.9541
-107.7227 94.5653 -142.5607 43.8664 2382.8977 2427.8242
-107.5199 94.5919 -143.4098 43.8831 2383.7710 2428.6948
-107.3169 94.6183 -144.2579 43.8997 2384.6436 2429.5645
-107.1136 94.6444 -145.1066 43.9164 2385.5166 2430.4351
-106.9091 94.6705 -145.9587 43.9331 2386.3933 2431.3086
-106.7035 94.6966 -146.8141 43.9497 2387.2734 2432.1865
-106.4970 94.7226 -147.6721 43.9664 2388.1562 2433.0664
-106.2898 94.7487 -148.5322 43.9831 2389.0415 2433.9482
-106.0817 94.7747 -149.3945 43.9998 2389.9287 2434.8330
-105.8729 94.8009 -150.2590 44.0164 2390.8186 2435.7197
-105.6632 94.8272 -151.1259 44.0331 2391.7107 2436.6094
-105.4528 94.8536 -151.9949 44.0498 2392.6052 2437.5010
-105.2416 94.8802 -152.8660 44.0664 2393.5022 2438.3945
-105.0296 94.9068 -153.7394 44.0831 2394.4014 2439.2910
-104.8170 94.9336 -154.6150 44.0998 2395.3027 2440.1895
-104.6036 94.9604 -155.4928 44.1164 2396.2065 2441.0898
-104.3894 94.9873 -156.3728 44.1331 2397.1125 2441.9927
-104.1746 95.0141 -157.2550 44.1498 2398.0208 2442.8979
-103.9591 95.0408 -158.1394 44.1665 2398.9314 2443.8052
-103.7430 95.0674 -159.0259 44.1831 2399.8445 2444.7148
-103.5262 95.0938 -159.9146 44.1998 2400.7595 2445.6270
-103.3087 95.1201 -160.8055 44.2165 2401.6770 2446.5410
-103.0906 95.1461 -161.6986 44.2331 2402.5967 2447.4570
-102.8719 95.1719 -162.5938 44.2498 2403.5186 2448.3760
-102.6525 95.1975 -163.4912 44.2665 2404.4429 2449.2969
-102.4326 95.2228 -164.3908 44.2831 2405.3691 2450.2197
-102.2121 95.2480 -165.2924 44.2998 2406.2979 2451.1450
-101.9909 95.2730 -166.1964 44.3165 2407.2288 2452.0728
-101.7691 95.2978 -167.1023 44.3332 2408.1619 2453.0024
-101.5467 95.3225 -168.0104 44.3498 2409.0969 2453.9346
-101.3237 95.3471 -168.9206 44.3665 2410.0344 2454.8682
-101.1000 95.3716 -169.8329 44.3832 2410.9741 2455.8047
-100.8756 95.3959 -170.7473 44.3998 2411.9158 2456.7432
-100.6507 95.4201 -171.6637 44.4165 2412.8599 2457.6836
-100.4251 95.4441 -172.5821 44.4332 2413.8059 2458.6265
-100.1989 95.4679 -173.5026 44.4498 2414.7539 2459.5713
-99.9721 95.4915 -174.4252 44.4665 2415.7043 2460.5186
-99.7448 95.5149 -175.3497 44.4832 2416.6567 2461.4673
-99.5168 95.5381 -176.2763 44.4999 2417.6113 2462.4185
-99.2883 95.5611 -177.2049 44.5165 2418.5679 2463.3716
-99.0593 95.5839 -178.1356 44.5332 2419.5266 2464.3271
-98.8298 95.6065 -179.0683 44.5499 2420.4873 2465.2842
-98.5999 95.6290 -180.0029 44.5665 2421.4500 2466.2437
-98.3695 95.6513 -180.9395 44.5832 2422.4148 2467.2051
-98.1387 95.6735 -181.8781 44.5999 2423.3816 2468.1689
-97.9075 95.6956 -182.8188 44.6165 2424.3506 2469.1343
-97.6759 95.7177 -183.7614 44.6332 2425.3215 2470.1016
-97.4439 95.7396 -184.7060 44.6499 2426.2944 2471.0713
-97.2115 95.7615 -185.6526 44.6665 2427.2693 2472.0430
-96.9786 95.7832 -186.6011 44.6832 2428.2463 2473.0166
-96.7453 95.8049 -187.5516 44.6999 2429.2251 2473.9922
-96.5116 95.8263 -188.5040 44.7166 2430.2061 2474.9697
-96.2774 95.8475 -189.4583 44.7332 2431.1890 2475.9492
-96.0429 95.8685 -190.4145 44.7499 2432.1736 2476.9307
-95.8080 95.8892 -191.3726 44.7666 2433.1604 2477.9136
-95.5727 95.9097 -192.3326 44.7832 2434.1489 2478.8984
-95.3371 95.9300 -193.2945 44.7999 2435.1396 2479.8857
-95.1012 95.9500 -194.2583 44.8166 2436.1321 2480.8750
-94.8650 95.9698 -195.2240 44.8332 2437.1265 2481.8652
-94.6286 95.9893 -196.1916 44.8499 2438.1226 2482.8584
-94.3920 96.0086 -197.1611 44.8666 2439.1208 2483.8530
-94.1552 96.0277 -198.1325 44.8833 2440.1208 2484.8496
-93.9184 96.0466 -199.1058 44.8999 2441.1226 2485.8477
-93.6815 96.0653 -200.0809 44.9166 2442.1262 2486.8481
-93.4446 96.0837 -201.0580 44.9333 2443.1318 2487.8506
-93.2076 96.1019 -202.0369 44.9499 2444.1392 2488.8545
-92.9707 96.1199 -203.0177 44.9666 2445.1484 2489.8604
-92.7340 96.1378 -203.9991 44.9833 2446.1582 2490.8667
-92.4980 96.1555 -204.9794 44.9999 2447.1665 2491.8721
-92.2622 96.1732 -205.9606 45.0166 2448.1758 2492.8779
-92.0260 96.1909 -206.9460 45.0333 2449.1895 2493.8882
-91.7897 96.2085 -207.9334 45.0499 2450.2048 2494.9004
-91.5537 96.2261 -208.9222 45.0666 2451.2214 2495.9141
-91.3178 96.2434 -209.9127 45.0833 2452.2397 2496.9297
-91.0821 96.2607 -210.9051 45.0999 2453.2600 2497.9463
-90.8465 96.2780 -211.8994 45.1166 2454.2820 2498.9653
-90.6112 96.2953 -212.8955 45.1333 2455.3057 2499.9863
-90.3762 96.3127 -213.8935 45.1499 2456.3311 2501.0088
-90.1416 96.3303 -214.8934 45.1666 2457.3582 2502.0332
-89.9073 96.3478 -215.8952 45.1833 2458.3872 2503.0591
-89.6735 96.3653 -216.8989 45.2000 2459.4180 2504.0869
-89.4402 96.3826 -217.9044 45.2166 2460.4504 2505.1172
-89.2076 96.3994 -218.9119 45.2333 2461.4844 2506.1484
-88.9755 96.4157 -219.9213 45.2500 2462.5203 2507.1816
-88.7442 96.4312 -220.9326 45.2666 2463.5579 2508.2168
-88.5136 96.4461 -221.9460 45.2833 2464.5972 2509.2539
-88.2838 96.4602 -222.9612 45.3000 2465.6382 2510.2925
-88.0549 96.4735 -223.9783 45.3166 2466.6809 2511.3330
-87.8268 96.4861 -224.9975 45.3333 2467.7253 2512.3750
-87.5996 96.4981 -226.0187 45.3500 2468.7715 2513.4194
-87.3733 96.5095 -227.0417 45.3666 2469.8193 2514.4653
-87.1480 96.5203 -228.0668 45.3833 2470.8689 2515.5127
-86.9237 96.5305 -229.0938 45.4000 2471.9202 2516.5625
-86.7005 96.5402 -230.1228 45.4166 2472.9731 2517.6138
-86.4783 96.5494 -231.1537 45.4333 2474.0278 2518.6670
-86.2571 96.5579 -232.1865 45.4500 2475.0842 2519.7217
-86.0370 96.5657 -233.2213 45.4667 2476.1421 2520.7778
-85.8178 96.5728 -234.2580 45.4833 2477.2017 2521.8359
-85.5996 96.5794 -235.2966 45.5000 2478.2629 2522.8960
-85.3823 96.5853 -236.3371 45.5167 2479.3259 2523.9580
-85.1657 96.5906 -237.3792 45.5333 2480.3904 2525.0205
-84.9500 96.5955 -238.4232 45.5500 2481.4565 2526.0859
-84.7349 96.6002 -239.4691 45.5667 2482.5242 2527.1523
-84.5207 96.6050 -240.5168 45.5833 2483.5938 2528.2207
-84.3074 96.6103 -241.5665 45.6000 2484.6648 2529.2910
-84.0953 96.6162 -242.6179 45.6167 2485.7373 2530.3623
-83.8843 96.6228 -243.6712 45.6333 2486.8118 2531.4355
-83.6746 96.6299 -244.7264 45.6500 2487.8875 2532.5107
-83.4664 96.6374 -245.7836 45.6667 2488.9651 2533.5874
-83.2599 96.6450 -246.8426 45.6833 2490.0439 2534.6660
-83.0552 96.6524 -247.9035 45.7000 2491.1245 2535.7456
-82.8525 96.6594 -248.9664 45.7167 2492.2065 2536.8271
-82.6521 96.6659 -250.0312 45.7334 2493.2900 2537.9102
-82.4541 96.6719 -251.0981 45.7500 2494.3752 2538.9951
-82.2584 96.6774 -252.1669 45.7667 2495.4617 2540.0820
-82.0651 96.6824 -253.2376 45.7834 2496.5498 2541.1709
-81.8741 96.6871 -254.3103 45.8000 2497.6394 2542.2617
-81.6852 96.6914 -255.3849 45.8167 2498.7305 2543.3535
-81.4981 96.6954 -256.4614 45.8334 2499.8232 2544.4468
-81.3127 96.6990 -257.5398 45.8500 2500.9172 2545.5420
-81.1287 96.7022 -258.6201 45.8667 2502.0132 2546.6387
-80.9460 96.7047 -259.7023 45.8834 2503.1108 2547.7373
-80.7644 96.7063 -260.7864 45.9000 2504.2100 2548.8379
-80.5839 96.7068 -261.8723 45.9167 2505.3108 2549.9395
-80.4047 96.7062 -262.9601 45.9334 2506.4131 2551.0430
-80.2268 96.7044 -264.0497 45.9500 2507.5173 2552.1479
-80.0505 96.7017 -265.1413 45.9667 2508.6230 2553.2549
-79.8762 96.6983 -266.2349 45.9834 2509.7305 2554.3633
-79.7040 96.6944 -267.3304 46.0001 2510.8394 2555.4731
-79.5343 96.6902 -268.4279 46.0167 2511.9500 2556.5850
-79.3672 96.6861 -269.5274 46.0334 2513.0620 2557.6982
-79.2029 96.6822 -270.6289 46.0501 2514.1758 2558.8125
-79.0416 96.6785 -271.7324 46.0667 2515.2910 2559.9287
-78.8833 96.6752 -272.8379 46.0834 2516.4077 2561.0464
-78.7281 96.6722 -273.9455 46.1001 2517.5261 2562.1655
-78.5761 96.6692 -275.0550 46.1167 2518.6460 2563.2861
-78.4276 96.6661 -276.1665 46.1334 2519.7673 2564.4082
-78.2826 96.6628 -277.2799 46.1501 2520.8901 2565.5312
-78.1412 96.6590 -278.3953 46.1667 2522.0146 2566.6562
-78.0034 96.6546 -279.5126 46.1834 2523.1404 2567.7822
-77.8695 96.6495 -280.6318 46.2001 2524.2676 2568.9092
-77.7395 96.6437 -281.7529 46.2167 2525.3962 2570.0376
-77.6133 96.6372 -282.8759 46.2334 2526.5264 2571.1670
-77.4911 96.6301 -284.0009 46.2501 2527.6580 2572.2979
-77.3728 96.6224 -285.1276 46.2668 2528.7908 2573.4302
-77.2584 96.6141 -286.2562 46.2834 2529.9253 2574.5635
-77.1479 96.6053 -287.3866 46.3001 2531.0610 2575.6973
-77.0412 96.5960 -288.5187 46.3168 2532.1982 2576.8330
-76.9383 96.5862 -289.6527 46.3334 2533.3369 2577.9697
-76.8392 96.5759 -290.7884 46.3501 2534.4771 2579.1074
-76.7439 96.5652 -291.9259 46.3668 2535.6184 2580.2461
-76.6526 96.5540 -293.0651 46.3834 2536.7612 2581.3857
-76.5654 96.5423 -294.2059 46.4001 2537.9055 2582.5264
-76.4824 96.5302 -295.3485 46.4168 2539.0513 2583.6680
-76.4041 96.5176 -296.4927 46.4334 2540.1982 2584.8105
-76.3306 96.5044 -297.6384 46.4501 2541.3464 2585.9531
-76.2621 96.4906 -298.7858 46.4668 2542.4958 2587.0972
-76.1990 96.4761 -299.9346 46.4834 2543.6465 2588.2417
-76.1415 96.4608 -301.0850 46.5001 2544.7983 2589.3867
-76.0896 96.4448 -302.2367 46.5168 2545.9514 2590.5322
-76.0437 96.4279 -303.3899 46.5334 2547.1057 2591.6777
-76.0037 96.4103 -304.5445 46.5501 2548.2610 2592.8237
-75.9698 96.3921 -305.7004 46.5668 2549.4177 2593.9697
-75.9421 96.3733 -306.8576 46.5834 2550.5754 2595.1162
-75.9208 96.3540 -308.0161 46.6001 2551.7341 2596.2632
-75.9058 96.3344 -309.1759 46.6168 2552.8943 2597.4102
-75.8972 96.3143 -310.3369 46.6334 2554.0554 2598.5566
-75.8951 96.2940 -311.4989 46.6501 2555.2175 2599.7036
-75.8995 96.2733 -312.6621 46.6668 2556.3811 2600.8506
-75.9103 96.2523 -313.8264 46.6835 2557.5454 2601.9971
-75.9275 96.2309 -314.9917 46.7001 2558.7112 2603.1436
-75.9511 96.2092 -316.1580 46.7168 2559.8779 2604.2832
-75.9810 96.1872 -317.3252 46.7335 2561.0457 2605.4253
-76.0171 96.1646 -318.4934 46.7501 2562.2146 2606.5693
-76.0593 96.1416 -319.6625 46.7668 2563.3848 2607.7148
-76.1076 96.1181 -320.8325 46.7835 2564.5559 2608.8633
-76.1618 96.0939 -322.0032 46.8001 2565.7283 2610.0137
-76.2222 96.0691 -323.1748 46.8168 2566.9016 2611.1670
-76.2887 96.0437 -324.3472 46.8335 2568.0762 2612.3228
-76.3616 96.0177 -325.5203 46.8501 2569.2517 2613.4810
-76.4409 95.9914 -326.6939 46.8668 2570.4285 2614.6421
-76.5269 95.9647 -327.8680 46.8835 2571.6060 2615.8057
-76.6196 95.9377 -329.0427 46.9001 2572.7847 2616.9727
-76.7192 95.9107 -330.2177 46.9168 2573.9641 2618.1426
-76.8257 95.8837 -331.3931 46.9335 2575.1445 2619.3154
-76.9392 95.8566 -332.5687 46.9501 2576.3262 2620.4922
-77.0600 95.8294 -333.7445 46.9668 2577.5083 2621.6714
-77.1880 95.8023 -334.9204 46.9835 2578.6914 2622.8545
-77.3233 95.7751 -336.0964 47.0001 2579.8755 2624.0605
-77.4660 95.7480 -337.2725 47.0168 2581.0605 2625.2744
-77.6161 95.7207 -338.4485 47.0335 2582.2466 2626.4893
-77.7736 95.6934 -339.6245 47.0502 2583.4333 2627.7051
-77.9386 95.6658 -340.8002 47.0668 2584.6208 2628.9219
-78.1110 95.6380 -341.9758 47.0835 2585.8093 2630.1406
-78.2909 95.6100 -343.1512 47.1002 2586.9988 2631.3613
-78.4783 95.5817 -344.3262 47.1168 2588.1890 2632.5840
-78.6731 95.5530 -345.5007 47.1335 2589.3799 2633.8096
-78.8752 95.5239 -346.6727 47.1502 2590.5696 2635.0352
-79.0835 95.4946 -347.8369 47.1668 2591.7524 2636.2563
-79.2979 95.4653 -348.9919 47.1835 2592.9275 2637.4717
-79.5181 95.4365 -350.1370 47.2001 2594.0940 2638.6816
-79.7440 95.4084 -351.2714 47.2168 2595.2510 2639.8838
-79.9755 95.3812 -352.3952 47.2334 2596.3989 2641.0806
-80.2128 95.3550 -353.5086 47.2501 2597.5376 2642.2710
-80.4556 95.3297 -354.6118 47.2668 2598.6675 2643.4561
-80.7038 95.3050 -355.7044 47.2834 2599.7881 2644.6318
-80.9574 95.2807 -356.7864 47.3001 2600.8997 2645.7935
-81.2159 95.2564 -357.8580 47.3167 2602.0024 2646.9424
-81.4794 95.2319 -358.9190 47.3334 2603.0959 2648.0791
-81.7477 95.2072 -359.9695 47.3500 2604.1804 2649.2031
-82.0206 95.1820 -361.0094 47.3667 2605.2559 2650.3154
-82.2980 95.1563 -362.0391 47.3833 2606.3225 2651.4160
-82.5797 95.1300 -363.0583 47.4000 2607.3804 2652.5059
-82.8657 95.1032 -364.0670 47.4167 2608.4290 2653.5850
-83.1560 95.0759 -365.0653 47.4333 2609.4690 2654.6538
-83.4506 95.0483 -366.0532 47.4500 2610.5002 2655.7124
-83.7496 95.0206 -367.0303 47.4666 2611.5225 2656.7607
-84.0530 94.9931 -367.9964 47.4833 2612.5354 2657.7998
-84.3612 94.9660 -368.9517 47.4999 2613.5396 2658.8296
-84.6741 94.9396 -369.8961 47.5166 2614.5349 2659.8506
-84.9920 94.9139 -370.8299 47.5332 2615.5217 2660.8633
-85.3148 94.8890 -371.7533 47.5499 2616.5002 2661.8682
-85.6427 94.8648 -372.6667 47.5665 2617.4709 2662.8662
-85.9758 94.8412 -373.5706 47.5832 2618.4346 2663.8535
-86.3133 94.8184 -374.4638 47.5999 2619.3896 2664.8271
-86.6551 94.7962 -375.3466 47.6165 2620.3367 2665.7881
-87.0009 94.7745 -376.2190 47.6332 2621.2754 2666.7373
-87.3506 94.7532 -377.0817 47.6498 2622.2063 2667.6758
-87.7038 94.7323 -377.9346 47.6665 2623.1299 2668.6025
-88.0607 94.7116 -378.7786 47.6831 2624.0464 2669.5200
-88.4207 94.6909 -379.6132 47.6998 2624.9556 2670.4272
-88.7834 94.6704 -380.4379 47.7164 2625.8567 2671.3237
-89.1490 94.6501 -381.2524 47.7331 2626.7498 2672.2100
-89.5174 94.6300 -382.0569 47.7497 2627.6348 2673.0859
-89.8891 94.6103 -382.8524 47.7664 2628.5132 2673.9541
-90.2641 94.5909 -383.6384 47.7831 2629.3843 2674.8135
-90.6422 94.5719 -384.4150 47.7997 2630.2480 2675.6641
-91.0232 94.5532 -385.1822 47.8164 2631.1050 2676.5068
-91.4068 94.5348 -385.9401 47.8330 2631.9546 2677.3413
-91.7929 94.5164 -386.6888 47.8497 2632.7971 2678.1680
-92.1812 94.4981 -387.4286 47.8663 2633.6331 2678.9873
-92.5715 94.4797 -388.1598 47.8830 2634.4619 2679.7998
-92.9638 94.4611 -388.8822 47.8997 2635.2842 2680.6045
-93.3580 94.4424 -389.5960 47.9163 2636.0999 2681.4023
-93.7541 94.4235 -390.3009 47.9330 2636.9087 2682.1938
-94.1523 94.4046 -390.9974 47.9496 2637.7112 2682.9790
-94.5527 94.3857 -391.6855 47.9663 2638.5076 2683.7549
-94.9551 94.3668 -392.3647 47.9829 2639.2971 2684.5215
-95.3596 94.3479 -393.0352 47.9996 2640.0803 2685.2812
-95.7662 94.3292 -393.6973 48.0163 2640.8577 2686.0332
-96.1751 94.3105 -394.3510 48.0329 2641.6289 2686.7783
-96.5862 94.2919 -394.9966 48.0496 2642.3945 2687.5166
-96.9996 94.2735 -395.6345 48.0662 2643.1550 2688.2490
-97.4155 94.2553 -396.2648 48.0829 2643.9104 2688.9756
-97.8331 94.2373 -396.8868 48.0995 2644.6597 2689.6953
-98.2530 94.2196 -397.5013 48.1162 2645.4043 2690.4102
-98.6751 94.2022 -398.1082 48.1328 2646.1438 2691.1191
-99.0991 94.1852 -398.7071 48.1495 2646.8777 2691.8223
-99.5248 94.1686 -399.2976 48.1662 2647.6057 2692.5195
-99.9523 94.1524 -399.8802 48.1828 2648.3286 2693.2109
-100.3814 94.1366 -400.4545 48.1995 2649.0457 2693.8965
-100.8118 94.1212 -401.0204 48.2161 2649.7568 2694.5767
-101.2437 94.1062 -401.5778 48.2328 2650.4622 2695.2510
-101.6769 94.0917 -402.1268 48.2494 2651.1616 2695.9194
-102.1116 94.0776 -402.6678 48.2661 2651.8557 2696.5830
-102.5477 94.0638 -403.2009 48.2828 2652.5447 2697.2412
-102.9847 94.0502 -403.7256 48.2994 2653.2278 2697.8945
-103.4226 94.0368 -404.2419 48.3161 2653.9048 2698.5420
-103.8614 94.0237 -404.7499 48.3327 2654.5762 2699.1836
-104.3008 94.0107 -405.2498 48.3494 2655.2419 2699.8208
-104.7410 93.9979 -405.7418 48.3660 2655.9021 2700.4531
-105.1816 93.9851 -406.2258 48.3827 2656.5569 2701.0801
-105.6223 93.9723 -406.7020 48.3993 2657.2058 2701.7021
-106.0631 93.9594 -407.1707 48.4160 2657.8494 2702.3193
-106.5040 93.9464 -407.6321 48.4327 2658.4878 2702.9316
-106.9451 93.9333 -408.0866 48.4493 2659.1211 2703.5498
-107.3858 93.9201 -408.5338 48.4660 2659.7493 2704.1738
-107.8257 93.9068 -408.9732 48.4826 2660.3711 2704.7920
-108.2651 93.8936 -409.4053 48.4993 2660.9873 2705.4053
-108.7042 93.8804 -409.8304 48.5159 2661.5986 2706.0137
-109.1428 93.8672 -410.2481 48.5326 2662.2046 2706.6172
-109.5805 93.8542 -410.6585 48.5493 2662.8047 2707.2158
-110.0173 93.8413 -411.0615 48.5659 2663.3992 2707.8086
-110.4532 93.8284 -411.4573 48.5826 2663.9880 2708.3965
-110.8883 93.8156 -411.8463 48.5992 2664.5718 2708.9795
-111.3225 93.8028 -412.2285 48.6159 2665.1504 2709.5576
-111.7557 93.7900 -412.6037 48.6325 2665.7236 2710.1309
-112.1878 93.7772 -412.9720 48.6492 2666.2917 2710.6982
-112.6189 93.7644 -413.3337 48.6658 2666.8545 2711.2607
-113.0492 93.7515 -413.6886 48.6825 2667.4124 2711.8188
-113.4785 93.7387 -414.0370 48.6991 2667.9653 2712.3721
-113.9068 93.7258 -414.3787 48.7158 2668.5134 2712.9199
-114.3341 93.7130 -414.7139 48.7324 2669.0569 2713.4629
-114.7604 93.7002 -415.0427 48.7491 2669.5952 2714.0015
-115.1855 93.6874 -415.3650 48.7657 2670.1289 2714.5352
-115.6093 93.6747 -415.6810 48.7824 2670.6577 2715.0635
-116.0317 93.6620 -415.9907 48.7991 2671.1816 2715.5869
-116.4525 93.6493 -416.2943 48.8157 2671.7007 2716.1050
-116.8721 93.6367 -416.5921 48.8324 2672.2153 2716.6187
-117.2902 93.6242 -416.8843 48.8490 2672.7256 2717.1279
-117.7065 93.6117 -417.1707 48.8657 2673.2310 2717.6318
-118.1213 93.5993 -417.4514 48.8823 2673.7322 2718.1309
-118.5345 93.5869 -417.7266 48.8990 2674.2288 2718.6255
-118.9457 93.5746 -417.9957 48.9156 2674.7202 2719.1147
-119.3549 93.5625 -418.2589 48.9323 2675.2070 2719.5986
-119.7623 93.5504 -418.5161 48.9489 2675.6890 2720.0771
-120.1678 93.5385 -418.7674 48.9656 2676.1660 2720.5508
-120.5715 93.5267 -419.0128 48.9823 2676.6387 2721.0195
-120.9732 93.5149 -419.2522 48.9989 2677.1064 2721.4824
-121.3727 93.5033 -419.4855 49.0156 2677.5691 2721.9404
-121.7701 93.4917 -419.7127 49.0322 2678.0271 2722.3926
-122.1657 93.4803 -419.9340 49.0489 2678.4805 2722.8394
-122.5593 93.4689 -420.1493 49.0655 2678.9294 2723.2812
-122.9511 93.4575 -420.3585 49.0822 2679.3738 2723.7178
-123.3409 93.4462 -420.5617 49.0988 2679.8135 2724.1484
-123.7289 93.4350 -420.7588 49.1155 2680.2488 2724.5747
-124.1149 93.4238 -420.9498 49.1321 2680.6794 2724.9951
-124.4992 93.4126 -421.1347 49.1488 2681.1062 2725.4111
-124.8820 93.4015 -421.3136 49.1654 2681.5288 2725.8213
-125.2640 93.3904 -421.4869 49.1821 2681.9485 2726.2275
-125.6452 93.3793 -421.6545 49.1987 2682.3650 2726.6299
-126.0258 93.3683 -421.8167 49.2154 2682.7791 2727.0283
-126.4062 93.3572 -421.9734 49.2321 2683.1904 2727.4229
-126.7867 93.3461 -422.1249 49.2487 2683.6001 2727.8140
-127.1672 93.3349 -422.2713 49.2654 2684.0081 2728.2021
-127.5481 93.3238 -422.4127 49.2820 2684.4146 2728.5879
-127.9293 93.3126 -422.5490 49.2987 2684.8196 2728.9697
-128.3110 93.3014 -422.6804 49.3154 2685.2234 2729.3496
-128.6930 93.2902 -422.8068 49.3320 2685.6260 2729.7266
-129.0756 93.2790 -422.9281 49.3487 2686.0273 2730.1006
-129.4582 93.2679 -423.0444 49.3653 2686.4275 2730.4717
-129.8404 93.2567 -423.1555 49.3820 2686.8257 2730.8389
-130.2216 93.2456 -423.2611 49.3987 2687.2214 2731.2021
