VERSION 0.7
FIELDS x y z time arclength
SIZE 4 4 4 4 4
TYPE F F F F F
COUNT 1 1 1 1 1
WIDTH 1062
HEIGHT 1
VIEWPOINT 0.000 0.000 0.000 1.000 -81.434 97.161 -76.149
POINTS 1062
DATA ascii
-115.1950 91.5452 -18.6842 40.3583 2254.9983
-115.9369 91.5655 -19.5588 40.3964 2256.1455
-116.3765 91.5771 -20.1072 40.4346 2256.8484
-116.9240 91.5903 -20.8217 40.4727 2257.7488
-117.4659 91.6039 -21.5759 40.5108 2258.6775
-118.0300 91.6198 -22.4124 40.5490 2259.6865
-118.4534 91.6325 -23.0813 40.5871 2260.4783
-118.8757 91.6447 -23.7825 40.6253 2261.2969
-119.3804 91.6587 -24.6695 40.6634 2262.3176
-119.8688 91.6736 -25.5875 40.7016 2263.3577
-120.2368 91.6862 -26.3260 40.7397 2264.1829
-120.5880 91.6985 -27.0703 40.7779 2265.0059
-121.0910 91.7153 -28.2089 40.8160 2266.2507
-121.4225 91.7267 -29.0174 40.8542 2267.1248
-121.7448 91.7385 -29.8557 40.8923 2268.0229
-122.0503 91.7499 -30.7056 40.9304 2268.9263
-122.4481 91.7649 -31.8991 40.9686 2270.1843
-122.6962 91.7744 -32.7041 41.0067 2271.0269
-123.0339 91.7883 -33.8903 41.0449 2272.2603
-123.2965 91.8003 -34.9071 41.0830 2273.3105
-123.5029 91.8102 -35.7730 41.1212 2274.2007
-123.7102 91.8204 -36.7132 41.1593 2275.1636
-123.9494 91.8350 -37.8944 41.1975 2276.3689
-124.1328 91.8498 -38.8655 41.2356 2277.3574
-124.3196 91.8660 -39.9354 41.2738 2278.4436
-124.5048 91.8821 -41.1302 41.3119 2279.6526
-124.6121 91.8945 -41.9254 41.3501 2280.4551
-124.7528 91.9204 -43.2330 41.3882 2281.7708
-124.8403 91.9403 -44.2409 41.4263 2282.7827
-124.9378 91.9641 -45.5961 41.4645 2284.1416
-125.0018 91.9889 -46.8318 41.5026 2285.3792
-125.0400 92.0157 -48.0679 41.5408 2286.6162
-125.0542 92.0320 -48.8588 41.5789 2287.4072
-125.0595 92.0629 -50.4380 41.6171 2288.9868
-125.0433 92.0849 -51.5496 41.6552 2290.0989
-125.0016 92.1104 -52.8419 41.6934 2291.3921
-124.9511 92.1309 -53.9120 41.7315 2292.4636
-124.8653 92.1569 -55.2960 41.7697 2293.8506
-124.7844 92.1771 -56.3772 41.8078 2294.9348
-124.6828 92.1989 -57.5557 41.8459 2296.1179
-124.5449 92.2253 -58.9621 41.8841 2297.5312
-124.3890 92.2533 -60.3976 41.9222 2298.9756
-124.2572 92.2749 -61.5205 41.9604 2300.1064
-124.0414 92.3085 -63.2378 41.9985 2301.8376
-123.8874 92.3329 -64.4099 42.0367 2303.0200
-123.6847 92.3630 -65.8739 42.0748 2304.4983
-123.5144 92.3874 -67.0414 42.1130 2305.6782
-123.2878 92.4196 -68.5287 42.1511 2307.1831
-123.0984 92.4456 -69.7327 42.1893 2308.4023
-122.9075 92.4713 -70.9178 42.2274 2309.6030
-122.6095 92.5114 -72.7166 42.2655 2311.4268
-122.4665 92.5303 -73.5624 42.3037 2312.2847
-122.1967 92.5656 -75.1333 42.3418 2313.8789
-121.9770 92.5945 -76.3896 42.3800 2315.1545
-121.6464 92.6372 -78.2436 42.4181 2317.0383
-121.4335 92.6644 -79.4200 42.4563 2318.2341
-121.1149 92.7059 -81.1704 42.4944 2320.0139
-120.9410 92.7284 -82.1185 42.5326 2320.9780
-120.6103 92.7711 -83.9032 42.5707 2322.7937
-120.3566 92.8039 -85.2515 42.6089 2324.1660
-120.0321 92.8456 -86.9534 42.6470 2325.8989
-119.7315 92.8840 -88.5093 42.6852 2327.4841
-119.4720 92.9170 -89.8334 42.7233 2328.8337
-119.1606 92.9560 -91.4051 42.7614 2330.4365
-118.7853 93.0025 -93.2742 42.7996 2332.3435
-118.4915 93.0388 -94.7226 42.8377 2333.8218
-118.2419 93.0692 -95.9433 42.8759 2335.0681
-117.8715 93.1148 -97.7394 42.9140 2336.9026
-117.4936 93.1625 -99.5555 42.9522 2338.7583
-117.1602 93.2050 -101.1456 42.9903 2340.3835
-116.8520 93.2462 -102.6054 43.0285 2341.8760
-116.4528 93.3028 -104.4797 43.0666 2343.7932
-116.1006 93.3537 -106.1217 43.1048 2345.4734
-115.7919 93.3984 -107.5490 43.1429 2346.9343
-115.4257 93.4523 -109.2320 43.1810 2348.6575
-114.9523 93.5216 -111.3892 43.2192 2350.8672
-114.6840 93.5605 -112.6024 43.2573 2352.1104
-114.1512 93.6375 -114.9890 43.2955 2354.5569
-113.8203 93.6845 -116.4589 43.3336 2356.0642
-113.4272 93.7418 -118.1895 43.3718 2357.8398
-113.0179 93.8016 -119.9797 43.4099 2359.6772
-112.5509 93.8706 -122.0071 43.4481 2361.7588
-112.1711 93.9268 -123.6474 43.4862 2363.4436
-111.8092 93.9810 -125.2040 43.5244 2365.0425
-111.3522 94.0497 -127.1641 43.5625 2367.0564
-110.9684 94.1076 -128.8062 43.6007 2368.7437
-110.4838 94.1796 -130.8765 43.6388 2370.8713
-110.0974 94.2359 -132.5235 43.6769 2372.5640
-109.5175 94.3190 -134.9890 43.7151 2375.0981
-109.2407 94.3580 -136.1630 43.7532 2376.3049
-108.6091 94.4459 -138.8339 43.7914 2379.0508
-108.3263 94.4844 -140.0260 43.8295 2380.2766
-107.7222 94.5655 -142.5631 43.8677 2382.8860
-107.3154 94.6185 -144.2644 43.9058 2384.6360
-106.7997 94.6843 -146.4136 43.9440 2386.8472
-106.2808 94.7499 -148.5699 43.9821 2389.0659
-105.8557 94.8030 -150.3299 44.0203 2390.8774
-105.4333 94.8560 -152.0752 44.0584 2392.6738
-104.8895 94.9244 -154.3163 44.0965 2394.9810
-104.4595 94.9785 -156.0847 44.1347 2396.8018
-103.9587 95.0409 -158.1414 44.1728 2398.9194
-103.4922 95.0980 -160.0536 44.2110 2400.8884
-103.0723 95.1484 -161.7736 44.2491 2402.6597
-102.5193 95.2129 -164.0359 44.2873 2404.9895
-102.0201 95.2696 -166.0773 44.3254 2407.0918
-101.4586 95.3322 -168.3702 44.3636 2409.4534
-100.8795 95.3954 -170.7314 44.4017 2411.8853
-100.3920 95.4478 -172.7169 44.4399 2413.9307
-99.8100 95.5082 -175.0846 44.4780 2416.3694
-99.3378 95.5561 -177.0040 44.5162 2418.3467
-98.8228 95.6072 -179.0968 44.5543 2420.5024
-98.3770 95.6508 -180.9088 44.5924 2422.3689
-97.8611 95.6999 -183.0075 44.6306 2424.5308
-97.1866 95.7638 -185.7540 44.6687 2427.3596
-96.8121 95.7987 -187.2796 44.7069 2428.9309
-96.0781 95.8653 -190.2708 44.7450 2432.0115
-95.6636 95.9018 -191.9616 44.7832 2433.7527
-95.0870 95.9511 -194.3161 44.8213 2436.1775
-94.5586 95.9951 -196.4781 44.8595 2438.4033
-93.9502 96.0441 -198.9747 44.8976 2440.9736
-93.4463 96.0837 -201.0508 44.9358 2443.1104
-92.8812 96.1267 -203.3891 44.9739 2445.5164
-92.4038 96.1623 -205.3710 45.0120 2447.5552
-91.8051 96.2076 -207.8695 45.0502 2450.1248
-91.3282 96.2428 -209.8691 45.0883 2452.1809
-90.8573 96.2771 -211.8538 45.1265 2454.2209
-90.2769 96.3199 -214.3169 45.1646 2456.7517
-89.8193 96.3542 -216.2726 45.2028 2458.7607
-89.0821 96.4086 -219.4570 45.2409 2462.0298
-88.7643 96.4301 -220.8441 45.2791 2463.4529
-88.0777 96.4724 -223.8766 45.3172 2466.5625
-87.6023 96.4978 -226.0065 45.3554 2468.7449
-87.0533 96.5246 -228.5005 45.3935 2471.2988
-86.6038 96.5442 -230.5702 45.4317 2473.4167
-86.0508 96.5652 -233.1554 45.4698 2476.0605
-85.6293 96.5786 -235.1553 45.5079 2478.1045
-85.1712 96.5910 -237.3541 45.5461 2480.3506
-84.5900 96.6031 -240.1776 45.5842 2483.2332
-84.1004 96.6155 -242.5929 45.6224 2485.6978
-83.6375 96.6311 -244.9151 45.6605 2488.0657
-83.0981 96.6512 -247.6820 45.6987 2490.8848
-82.6823 96.6652 -249.8688 45.7368 2493.1106
-82.2626 96.6773 -252.1422 45.7750 2495.4226
-81.7310 96.6902 -255.1238 45.8131 2498.4512
-81.4546 96.6958 -256.7132 45.8513 2500.0645
-80.8676 96.7057 -260.1713 45.8894 2503.5720
-80.6041 96.7073 -261.7519 45.9275 2505.1746
-80.0795 96.7023 -264.9614 45.9657 2508.4265
-79.7079 96.6944 -267.3038 46.0038 2510.7983
-79.2860 96.6838 -270.0688 46.0420 2513.5952
-79.0474 96.6784 -271.6917 46.0801 2515.2356
-78.5798 96.6692 -275.0279 46.1183 2518.6045
-78.2849 96.6630 -277.2610 46.1564 2520.8572
-78.0094 96.6550 -279.4611 46.1946 2523.0742
-77.6850 96.6411 -282.2353 46.2327 2525.8674
-77.3640 96.6218 -285.2086 46.2709 2528.8582
-77.1633 96.6066 -287.2272 46.3090 2530.8867
-76.8485 96.5769 -290.6793 46.3472 2534.3533
-76.6668 96.5558 -292.8879 46.3853 2536.5693
-76.4830 96.5302 -295.3354 46.4234 2539.0242
-76.3066 96.4997 -298.0337 46.4616 2541.7283
-76.1804 96.4713 -300.3128 46.4997 2544.0110
-76.0495 96.4303 -303.2365 46.5379 2546.9380
-75.9702 96.3923 -305.6868 46.5760 2549.3899
-75.9133 96.3456 -308.5081 46.6142 2552.2122
-75.8961 96.3071 -310.7527 46.6523 2554.4570
-75.9184 96.2408 -314.4471 46.6905 2558.1523
-75.9485 96.2111 -316.0603 46.7286 2559.7659
-76.0546 96.1441 -319.5360 46.7668 2563.2441
-76.1591 96.0954 -321.9398 46.8049 2565.6506
-76.3164 96.0338 -324.7984 46.8430 2568.5142
-76.4676 95.9830 -327.0651 46.8812 2570.7864
-76.7311 95.9072 -330.3624 46.9193 2574.0952
-76.9607 95.8518 -332.7813 46.9575 2576.5256
-77.2958 95.7802 -335.8669 46.9956 2579.6301
-77.5661 95.7298 -338.0602 47.0338 2581.8408
-77.9465 95.6644 -340.8596 47.0719 2584.6667
-78.3111 95.6068 -343.2793 47.1101 2587.1143
-78.8719 95.5249 -346.6543 47.1482 2590.5366
-79.2696 95.4693 -348.8415 47.1864 2592.7605
-79.7395 95.4083 -351.2495 47.2245 2595.2146
-80.2985 95.3456 -353.8995 47.2626 2597.9236
-80.7608 95.2996 -355.9523 47.3008 2600.0283
-81.5742 95.2232 -359.2930 47.3389 2603.4675
-82.0637 95.1783 -361.1721 47.3771 2605.4099
-82.7484 95.1145 -363.6539 47.4152 2607.9854
-83.2738 95.0652 -365.4630 47.4534 2609.8699
-84.2066 94.9791 -368.4767 47.4915 2613.0259
-84.7577 94.9325 -370.1438 47.5297 2614.7822
-85.6844 94.8615 -372.7850 47.5678 2617.5823
-86.3186 94.8180 -374.4779 47.6060 2619.3906
-86.9939 94.7748 -376.2016 47.6441 2621.2424
-87.8335 94.7251 -378.2402 47.6823 2623.4478
-88.7916 94.6702 -380.4555 47.7204 2625.8621
-89.5246 94.6293 -382.0734 47.7585 2627.6387
-90.6263 94.5724 -384.3846 47.7967 2630.1997
-91.2846 94.5406 -385.6995 47.8348 2631.6707
-92.1733 94.4987 -387.4121 47.8730 2633.6006
-93.1857 94.4509 -389.2838 47.9111 2635.7290
-93.8609 94.4184 -390.4882 47.9493 2637.1101
-94.9583 94.3665 -392.3706 47.9874 2639.2898
-95.7160 94.3315 -393.6179 48.0256 2640.7495
-96.8802 94.2789 -395.4506 48.0637 2642.9214
-97.6087 94.2470 -396.5531 48.1019 2644.2432
-98.8758 94.1938 -398.3934 48.1400 2646.4783
-99.5769 94.1668 -399.3687 48.1782 2647.6799
-100.8151 94.1205 -401.0254 48.2163 2649.7488
-101.6669 94.0917 -402.1141 48.2544 2651.1313
-102.5460 94.0643 -403.1981 48.2926 2652.5273
-103.5011 94.0341 -404.3344 48.3307 2654.0120
-104.7258 93.9983 -405.7253 48.3689 2655.8655
-105.5206 93.9754 -406.5922 48.4070 2657.0420
-106.8683 93.9364 -408.0070 48.4452 2658.9963
-107.6850 93.9110 -408.8329 48.4833 2660.1582
-108.6938 93.8802 -409.8223 48.5215 2661.5715
-109.7291 93.8494 -410.7961 48.5596 2662.9932
-110.4926 93.8274 -411.4923 48.5978 2664.0266
-111.7409 93.7906 -412.5907 48.6359 2665.6899
-112.6109 93.7646 -413.3271 48.6740 2666.8301
-113.6662 93.7332 -414.1876 48.7122 2668.1921
-114.7650 93.7000 -415.0473 48.7503 2669.5876
-115.6186 93.6741 -415.6889 48.7885 2670.6558
-116.4330 93.6501 -416.2791 48.8266 2671.6619
-117.6518 93.6136 -417.1311 48.8648 2673.1494
-118.3374 93.5927 -417.5950 48.9029 2673.9775
-119.3611 93.5620 -418.2634 48.9411 2675.2004
-120.1977 93.5377 -418.7853 48.9792 2676.1868
-121.3622 93.5034 -419.4788 49.0174 2677.5425
-122.0474 93.4835 -419.8677 49.0555 2678.3308
-123.2427 93.4494 -420.5105 49.0937 2679.6885
-123.8185 93.4326 -420.8034 49.1318 2680.3347
-124.8789 93.4012 -421.3142 49.1699 2681.5122
-125.7948 93.3751 -421.7202 49.2081 2682.5144
-126.7016 93.3489 -422.0919 49.2462 2683.4949
-127.4210 93.3277 -422.3654 49.2844 2684.2646
-128.3006 93.3014 -422.6771 49.3225 2685.1982
-129.2993 93.2719 -422.9967 49.3607 2686.2473
-129.9191 93.2543 -423.1773 49.3988 2686.8933
-131.0709 93.2210 -423.4772 49.4370 2688.0840
-131.6861 93.2025 -423.6198 49.4751 2688.7158
-132.7290 93.1704 -423.8284 49.5133 2689.7798
-133.3576 93.1514 -423.9345 49.5514 2690.4177
-134.4972 93.1168 -424.0870 49.5895 2691.5679
-135.1119 93.0971 -424.1493 49.6277 2692.1860
-135.9866 93.0672 -424.2149 49.6658 2693.0640
-136.6553 93.0434 -424.2453 49.7040 2693.7336
-137.7949 93.0014 -424.2560 49.7421 2694.8743
-138.4308 92.9783 -424.2386 49.7803 2695.5107
-139.3010 92.9465 -424.1873 49.8184 2696.3833
-139.9380 92.9240 -424.1291 49.8566 2697.0232
-140.9718 92.8854 -424.0016 49.8947 2698.0657
-141.7309 92.8549 -423.8805 49.9329 2698.8350
-142.4305 92.8276 -423.7448 49.9710 2699.5481
-143.1128 92.8021 -423.5893 50.0091 2700.2485
-144.0469 92.7722 -423.3340 50.0473 2701.2173
-144.6324 92.7569 -423.1468 50.0854 2701.8323
-145.3380 92.7403 -422.8967 50.1236 2702.5811
-146.1189 92.7221 -422.5839 50.1617 2703.4226
-146.6512 92.7117 -422.3481 50.1999 2704.0049
-147.4950 92.7063 -421.9285 50.2380 2704.9475
-148.0461 92.7103 -421.6319 50.2762 2705.5732
-148.8751 92.7158 -421.1599 50.3143 2706.5273
-149.3592 92.7174 -420.8683 50.3525 2707.0925
-150.2175 92.7267 -420.3056 50.3906 2708.1189
-150.6955 92.7357 -419.9680 50.4288 2708.7041
-151.5125 92.7504 -419.3613 50.4669 2709.7219
-152.0332 92.7575 -418.9538 50.5050 2710.3831
-152.5707 92.7646 -418.5120 50.5432 2711.0791
-153.2610 92.7735 -417.9071 50.5813 2711.9971
-153.9274 92.7819 -417.2816 50.6195 2712.9109
-154.4023 92.7873 -416.8062 50.6576 2713.5830
-154.8667 92.7924 -416.3177 50.6958 2714.2571
-155.4988 92.7992 -415.6064 50.7339 2715.2087
-156.0629 92.8062 -414.9260 50.7721 2716.0925
-156.6087 92.8135 -414.2182 50.8102 2716.9866
-156.9928 92.8184 -413.6956 50.8484 2717.6350
-157.6210 92.8240 -412.7913 50.8865 2718.7363
-158.0062 92.8271 -412.2014 50.9246 2719.4409
-158.4981 92.8325 -411.3991 50.9628 2720.3818
-158.8771 92.8376 -410.7472 51.0009 2721.1360
-159.4299 92.8432 -409.7587 51.0391 2722.2686
-159.7388 92.8448 -409.1769 51.0772 2722.9272
-160.2500 92.8470 -408.1511 51.1154 2724.0735
-160.5818 92.8493 -407.4323 51.1535 2724.8652
-160.9061 92.8521 -406.6856 51.1917 2725.6794
-161.2229 92.8540 -405.9190 51.2298 2726.5088
-161.6461 92.8545 -404.8454 51.2680 2727.6628
-161.9785 92.8543 -403.9456 51.3061 2728.6221
-162.2215 92.8556 -403.2452 51.3442 2729.3635
-162.5803 92.8584 -402.1581 51.3824 2730.5083
-162.8793 92.8591 -401.2173 51.4205 2731.4954
-163.1446 92.8587 -400.3399 51.4587 2732.4121
-163.4814 92.8608 -399.1448 51.4968 2733.6538
-163.6857 92.8631 -398.3814 51.5350 2734.4441
-163.9491 92.8649 -397.3680 51.5731 2735.4912
-164.2016 92.8658 -396.3512 51.6113 2736.5388
-164.4328 92.8684 -395.3623 51.6494 2737.5544
-164.7256 92.8735 -394.0445 51.6876 2738.9043
-164.8987 92.8759 -393.2354 51.7257 2739.7317
-165.1792 92.8803 -391.8804 51.7639 2741.1155
-165.3847 92.8856 -390.8575 51.8020 2742.1589
-165.5784 92.8908 -389.8618 51.8401 2743.1731
-165.7560 92.8950 -388.9203 51.8783 2744.1313
-166.0201 92.9025 -387.4644 51.9164 2745.6111
-166.1747 92.9079 -386.5815 51.9546 2746.5073
-166.4463 92.9170 -384.9801 51.9927 2748.1316
-166.5919 92.9219 -384.0957 52.0309 2749.0278
-166.8269 92.9313 -382.6384 52.0690 2750.5042
-166.9969 92.9385 -381.5658 52.1072 2751.5901
-167.1665 92.9456 -380.4799 52.1453 2752.6892
-167.4092 92.9566 -378.8944 52.1835 2754.2932
-167.5428 92.9630 -378.0064 52.2216 2755.1912
-167.7883 92.9747 -376.3412 52.2598 2756.8745
-167.9376 92.9819 -375.3152 52.2979 2757.9114
-168.1800 92.9936 -373.6202 52.3360 2759.6235
-168.3338 93.0011 -372.5249 52.3742 2760.7297
-168.5570 93.0118 -370.9169 52.4123 2762.3530
-168.7400 93.0206 -369.5844 52.4505 2763.6982
-168.8968 93.0281 -368.4354 52.4886 2764.8579
-169.0542 93.0353 -367.2761 52.5268 2766.0278
-169.2924 93.0458 -365.5032 52.5649 2767.8167
-169.4288 93.0519 -364.4782 52.6031 2768.8508
-169.6258 93.0600 -362.9841 52.6412 2770.3577
-169.7876 93.0664 -361.7442 52.6794 2771.6082
-170.0192 93.0756 -359.9492 52.7175 2773.4182
-170.1598 93.0805 -358.8457 52.7556 2774.5305
-170.4053 93.0887 -356.8914 52.7938 2776.5002
-170.5501 93.0935 -355.7221 52.8319 2777.6785
-170.7386 93.0994 -354.1808 52.8701 2779.2312
-170.8921 93.1041 -352.8859 52.9082 2780.5352
-171.1147 93.1107 -350.9369 52.9464 2782.4968
-171.2510 93.1147 -349.7130 52.9845 2783.7285
-171.4169 93.1194 -348.1978 53.0227 2785.2527
-171.5721 93.1232 -346.7528 53.0608 2786.7061
-171.7849 93.1280 -344.7285 53.0990 2788.7415
-171.9248 93.1303 -343.3765 53.1371 2790.1006
-172.0732 93.1317 -341.9283 53.1753 2791.5564
-172.2690 93.1339 -339.9960 53.2134 2793.4985
-172.4136 93.1353 -338.5570 53.2515 2794.9448
-172.5818 93.1359 -336.8732 53.2897 2796.6370
-172.7248 93.1359 -335.4352 53.3278 2798.0823
-172.9428 93.1360 -333.2310 53.3660 2800.2971
-173.0962 93.1363 -331.6678 53.4041 2801.8677
-173.2406 93.1366 -330.1866 53.4423 2803.3560
-173.4177 93.1372 -328.3582 53.4804 2805.1929
-173.6070 93.1373 -326.3899 53.5186 2807.1704
-173.7487 93.1371 -324.9063 53.5567 2808.6606
-173.8912 93.1366 -323.4034 53.5949 2810.1704
-174.0672 93.1351 -321.5320 53.6330 2812.0500
-174.2588 93.1329 -319.4740 53.6711 2814.1169
-174.4080 93.1306 -317.8541 53.7093 2815.7437
-174.5489 93.1282 -316.3133 53.7474 2817.2910
-174.7309 93.1252 -314.3020 53.7856 2819.3105
-174.8919 93.1226 -312.5044 53.8237 2821.1152
-175.0648 93.1202 -310.5524 53.8619 2823.0750
-175.1944 93.1187 -309.0756 53.9000 2824.5574
-175.3799 93.1168 -306.9381 53.9382 2826.7029
-175.5216 93.1156 -305.2859 53.9763 2828.3611
-175.7208 93.1141 -302.9275 54.0145 2830.7280
-175.8815 93.1133 -300.9870 54.0526 2832.6750
-176.0159 93.1129 -299.3359 54.0907 2834.3315
-176.1464 93.1128 -297.7087 54.1289 2835.9641
-176.3358 93.1130 -295.3071 54.1670 2838.3730
-176.4593 93.1131 -293.7194 54.2052 2839.9656
-176.6129 93.1133 -291.7163 54.2433 2841.9746
-176.7593 93.1140 -289.7798 54.2815 2843.9167
-176.9420 93.1148 -287.3294 54.3196 2846.3738
-177.0608 93.1147 -285.7156 54.3578 2847.9919
-177.2569 93.1142 -283.0106 54.3959 2850.7041
-177.3649 93.1139 -281.4986 54.4341 2852.2200
-177.5171 93.1134 -279.3393 54.4722 2854.3848
-177.6568 93.1126 -277.3255 54.5104 2856.4033
-177.8273 93.1114 -274.8297 54.5485 2858.9048
-177.9447 93.1105 -273.0835 54.5866 2860.6550
-178.0718 93.1100 -271.1659 54.6248 2862.5769
-178.2370 93.1101 -268.6282 54.6629 2865.1199
-178.3468 93.1108 -266.9142 54.7011 2866.8374
-178.4892 93.1120 -264.6569 54.7392 2869.0991
-178.6057 93.1128 -262.7828 54.7774 2870.9768
-178.7803 93.1126 -259.9229 54.8155 2873.8423
-178.8922 93.1115 -258.0563 54.8537 2875.7122
-179.0263 93.1094 -255.7806 54.8918 2877.9917
-179.1293 93.1074 -254.0052 54.9300 2879.7703
-179.2906 93.1041 -251.1802 54.9681 2882.5996
-179.3713 93.1029 -249.7413 55.0062 2884.0408
-179.5306 93.1011 -246.8580 55.0444 2886.9287
-179.6299 93.1005 -245.0336 55.0825 2888.7556
-179.7704 93.0998 -242.4204 55.1207 2891.3726
-179.8684 93.0994 -240.5804 55.1588 2893.2153
-180.0235 93.0993 -237.6379 55.1970 2896.1619
-180.1242 93.0995 -235.7106 55.2351 2898.0918
-180.2354 93.1000 -233.5690 55.2733 2900.2363
-180.3446 93.1007 -231.4522 55.3114 2902.3560
-180.4972 93.1018 -228.4749 55.3496 2905.3372
-180.5966 93.1025 -226.5243 55.3877 2907.2903
-180.7142 93.1035 -224.2063 55.4259 2909.6111
-180.8078 93.1045 -222.3487 55.4640 2911.4712
-180.9286 93.1057 -219.9451 55.5021 2913.8777
-181.0925 93.1065 -216.6733 55.5403 2917.1538
-181.1650 93.1065 -215.2227 55.5784 2918.6060
-181.3169 93.1065 -212.1628 55.6166 2921.6697
-181.4137 93.1058 -210.2095 55.6547 2923.6255
-181.5335 93.1050 -207.7843 55.6929 2926.0535
-181.6493 93.1042 -205.4300 55.7310 2928.4106
-181.7933 93.1029 -202.4874 55.7692 2931.3569
-181.8945 93.1017 -200.4137 55.8073 2933.4331
-181.9987 93.1008 -198.2679 55.8455 2935.5813
-182.1427 93.1004 -195.2935 55.8836 2938.5593
-182.2596 93.1004 -192.8770 55.9217 2940.9785
-182.3741 93.1008 -190.4977 55.9599 2943.3606
-182.4730 93.1012 -188.4368 55.9980 2945.4241
-182.6093 93.1013 -185.5957 56.0362 2948.2683
-182.7240 93.1010 -183.2017 56.0743 2950.6650
-182.8657 93.1007 -180.2361 56.1125 2953.6340
-182.9931 93.1003 -177.5715 56.1506 2956.3018
-183.0974 93.1004 -175.3884 56.1888 2958.4873
-183.2023 93.1007 -173.1910 56.2269 2960.6873
-183.3577 93.1013 -169.9299 56.2651 2963.9519
-183.4697 93.1016 -167.5813 56.3032 2966.3032
-183.6003 93.1017 -164.8394 56.3414 2969.0483
-183.6999 93.1016 -162.7411 56.3795 2971.1489
-183.8352 93.1013 -159.8918 56.4176 2974.0015
-183.9361 93.1013 -157.7631 56.4558 2976.1326
-184.0551 93.1016 -155.2418 56.4939 2978.6567
-184.1891 93.1025 -152.4064 56.5321 2981.4951
-184.3267 93.1038 -149.4872 56.5702 2984.4177
-184.4375 93.1048 -147.1321 56.6084 2986.7754
-184.5745 93.1059 -144.2156 56.6465 2989.6951
-184.6859 93.1068 -141.8388 56.6847 2992.0745
-184.7892 93.1077 -139.6344 56.7228 2994.2812
-184.9240 93.1084 -136.7540 56.7610 2997.1648
-185.0774 93.1087 -133.4749 56.7991 3000.4475
-185.1864 93.1088 -131.1480 56.8372 3002.7771
-185.3245 93.1088 -128.1956 56.8754 3005.7327
-185.4375 93.1088 -125.7783 56.9135 3008.1526
-185.5721 93.1089 -122.9052 56.9517 3011.0288
-185.6795 93.1089 -120.6118 56.9898 3013.3247
-185.7846 93.1090 -118.3655 57.0280 3015.5735
-185.9473 93.1095 -114.8925 57.0661 3019.0503
-186.0668 93.1091 -112.3509 57.1043 3021.5947
-186.2100 93.1092 -109.3051 57.1424 3024.6438
-186.2944 93.1096 -107.5081 57.1806 3026.4429
-186.4579 93.1096 -104.0368 57.2187 3029.9180
-186.5697 93.1098 -101.6650 57.2569 3032.2925
-186.6822 93.1102 -99.2757 57.2950 3034.6843
-186.8258 93.1107 -96.2288 57.3331 3037.7346
-186.9681 93.1106 -93.2141 57.3713 3040.7527
-187.0834 93.1102 -90.7689 57.4094 3043.2007
-187.2505 93.1095 -87.2318 57.4476 3046.7417
-187.3631 93.1085 -84.8517 57.4857 3049.1243
-187.4782 93.1053 -82.4198 57.5239 3051.5591
-187.6260 93.0987 -79.2975 57.5620 3054.6848
-187.7702 93.0909 -76.2588 57.6002 3057.7271
-187.8874 93.0868 -73.7949 57.6383 3060.1936
-188.0063 93.0876 -71.2989 57.6765 3062.6926
-188.1532 93.0994 -68.2141 57.7146 3065.7808
-188.2615 93.1125 -65.9472 57.7527 3068.0503
-188.4146 93.1289 -62.7545 57.7909 3071.2468
-188.5375 93.1352 -60.1957 57.8290 3073.8086
-188.7156 93.1345 -56.4846 57.8672 3077.5239
-188.8283 93.1314 -54.1388 57.9053 3079.8723
-188.9907 93.1269 -50.7626 57.9435 3083.2524
-189.0755 93.1251 -48.9984 57.9816 3085.0188
-189.2505 93.1207 -45.3582 58.0198 3088.6631
-189.3743 93.1167 -42.7929 58.0579 3091.2314
-189.5291 93.1129 -39.5949 58.0961 3094.4331
-189.6532 93.1121 -37.0346 58.1342 3096.9963
-189.8001 93.1126 -34.0138 58.1724 3100.0208
-189.9349 93.1128 -31.2543 58.2105 3102.7837
-190.0480 93.1125 -28.9457 58.2486 3105.0950
-190.2389 93.1117 -25.0678 58.2868 3108.9775
-190.3485 93.1112 -22.8510 58.3249 3111.1970
-190.5005 93.1102 -19.7903 58.3631 3114.2615
-190.6732 93.1089 -16.3339 58.4012 3117.7222
-190.8182 93.1086 -13.4479 58.4394 3120.6121
-190.9761 93.1088 -10.3232 58.4775 3123.7405
-191.1086 93.1088 -7.7175 58.5157 3126.3496
-191.2574 93.1088 -4.7962 58.5538 3129.2749
-191.3862 93.1087 -2.2756 58.5920 3131.7986
-191.5290 93.1089 0.5123 58.6301 3134.5903
-191.7242 93.1093 4.3113 58.6682 3138.3943
-191.8452 93.1094 6.6589 58.7064 3140.7449
-192.0316 93.1094 10.2700 58.7445 3144.3608
-192.1568 93.1095 12.6903 58.7827 3146.7844
-192.3163 93.1099 15.7765 58.8208 3149.8748
-192.4564 93.1104 18.5237 58.8590 3152.6255
-192.5913 93.1107 21.1979 58.8971 3155.3030
-192.7551 93.1109 24.4747 58.9353 3158.5840
-192.9014 93.1109 27.4131 58.9734 3161.5259
-193.0493 93.1108 30.3892 59.0116 3164.5059
-193.2289 93.1103 33.9947 59.0497 3168.1157
-193.3633 93.1106 36.6944 59.0878 3170.8188
-193.4913 93.1115 39.2797 59.1260 3173.4072
-193.6558 93.1123 42.6240 59.1641 3176.7556
-193.8098 93.1125 45.7625 59.2023 3179.8979
-193.9375 93.1127 48.3681 59.2404 3182.5066
-194.0722 93.1132 51.1160 59.2786 3185.2578
-194.2669 93.1139 55.0800 59.3167 3189.2266
-194.3598 93.1141 56.9635 59.3549 3191.1123
-194.5190 93.1145 60.1791 59.3930 3194.3320
-194.6734 93.1151 63.2805 59.4312 3197.4370
-194.8556 93.1158 66.9231 59.4693 3201.0842
-194.9922 93.1165 69.6391 59.5075 3203.8037
-195.1641 93.1174 73.0394 59.5456 3207.2085
-195.3221 93.1183 76.1467 59.5837 3210.3198
-195.4619 93.1193 78.8798 59.6219 3213.0564
-195.6044 93.1202 81.6484 59.6600 3215.8286
-195.8022 93.1214 85.4750 59.6982 3219.6604
-195.9374 93.1222 88.0844 59.7363 3222.2732
-196.0790 93.1222 90.8078 59.7745 3225.0002
-196.2481 93.1217 94.0475 59.8126 3228.2444
-196.4284 93.1212 97.4822 59.8508 3231.6838
-196.5712 93.1211 100.1875 59.8889 3234.3931
-196.7092 93.1210 102.7889 59.9271 3236.9980
-196.9113 93.1207 106.5836 59.9652 3240.7981
-197.0731 93.1209 109.6059 60.0033 3243.8247
-197.2538 93.1218 112.9724 60.0415 3247.1960
-197.3599 93.1227 114.9475 60.0796 3249.1741
-197.5789 93.1247 119.0278 60.1178 3253.2600
-197.7265 93.1266 121.7749 60.1559 3256.0112
-197.9062 93.1292 125.1280 60.1941 3259.3691
-198.0541 93.1312 127.8985 60.2322 3262.1436
-198.2392 93.1332 131.3693 60.2704 3265.6194
-198.3723 93.1337 133.8743 60.3085 3268.1279
-198.5910 93.1345 137.9974 60.3467 3272.2568
-198.7289 93.1357 140.6056 60.3848 3274.8687
-198.8840 93.1375 143.5426 60.4230 3277.8098
-199.0612 93.1385 146.8998 60.4611 3281.1716
-199.2441 93.1395 150.3685 60.4992 3284.6450
-199.3903 93.1411 153.1410 60.5374 3287.4214
-199.5331 93.1424 155.8509 60.5755 3290.1350
-199.7287 93.1406 159.5698 60.6137 3293.8591
-199.8941 93.1376 162.7201 60.6518 3297.0137
-200.0564 93.1389 165.8180 60.6900 3300.1160
-200.1590 93.1409 167.7799 60.7281 3302.0806
-200.3698 93.1410 171.8142 60.7663 3306.1204
-200.5047 93.1400 174.4008 60.8044 3308.7104
-200.6579 93.1415 177.3496 60.8426 3311.6633
-200.7697 93.1440 179.5047 60.8807 3313.8213
-200.9583 93.1485 183.1668 60.9188 3317.4883
-201.0837 93.1513 185.6220 60.9570 3319.9465
-201.2443 93.1546 188.7956 60.9951 3323.1243
-201.3362 93.1559 190.6268 61.0333 3324.9578
-201.4920 93.1570 193.7477 61.0714 3328.0825
-201.6134 93.1569 196.2053 61.1096 3330.5432
-201.7604 93.1552 199.2376 61.1477 3333.5791
-201.8678 93.1526 201.5119 61.1859 3335.8557
-201.9742 93.1488 203.8116 61.2240 3338.1580
-202.0824 93.1449 206.2290 61.2622 3340.5779
-202.1768 93.1429 208.4421 61.3003 3342.7930
-202.2887 93.1441 211.2565 61.3385 3345.6096
-202.3709 93.1475 213.4623 61.3766 3347.8169
-202.4620 93.1527 216.1282 61.4147 3350.4844
-202.5287 93.1563 218.4428 61.4529 3352.7998
-202.5786 93.1583 220.8523 61.4910 3355.2100
-202.5983 93.1584 222.3345 61.5292 3356.6921
-202.6109 93.1556 225.2058 61.5673 3359.5635
-202.6019 93.1523 226.6932 61.6055 3361.0510
-202.5597 93.1473 229.0380 61.6436 3363.3962
-202.4966 93.1441 230.9624 61.6818 3365.3218
-202.3854 93.1409 233.1874 61.7199 3367.5496
-202.2794 93.1380 234.7917 61.7581 3369.1575
-202.0767 93.1325 237.2500 61.7962 3371.6240
-201.9309 93.1283 238.7006 61.8343 3373.0820
-201.7104 93.1215 240.5994 61.8725 3374.9934
-201.4922 93.1143 242.2080 61.9106 3376.6169
-201.2279 93.1055 243.9249 61.9488 3378.3540
-200.8728 93.0931 245.9594 61.9869 3380.4194
-200.5710 93.0829 247.4994 62.0251 3381.9888
-200.1571 93.0696 249.3971 62.0632 3383.9312
-199.7247 93.0561 251.1860 62.1014 3385.7717
-199.2921 93.0436 252.8130 62.1395 3387.4553
-198.9718 93.0344 253.9321 62.1777 3388.6194
-198.3152 93.0159 256.0365 62.2158 3390.8240
-197.9459 93.0062 257.1268 62.2540 3391.9751
-197.3202 92.9900 258.8485 62.2921 3393.8071
-196.7909 92.9766 260.2053 62.3302 3395.2637
-196.0912 92.9614 261.8748 62.3684 3397.0740
-195.5040 92.9491 263.1871 62.4065 3398.5117
-194.6953 92.9340 264.8813 62.4447 3400.3892
-194.2310 92.9263 265.8000 62.4828 3401.4185
-193.3377 92.9119 267.4820 62.5210 3403.3232
-192.6856 92.9044 268.6358 62.5591 3404.6487
-191.7616 92.8950 270.1883 62.5973 3406.4553
-190.9941 92.8896 271.4080 62.6354 3407.8965
-190.1859 92.8856 272.6342 62.6736 3409.3650
-189.2067 92.8859 274.0407 62.7117 3411.0789
-188.1972 92.8944 275.4158 62.7498 3412.7849
-187.2976 92.9006 276.5930 62.7880 3414.2664
-186.5935 92.9069 277.4802 62.8261 3415.3992
-185.4535 92.9174 278.8564 62.8643 3417.1863
-184.3483 92.9255 280.1293 62.9024 3418.8721
-183.3483 92.9317 281.2296 62.9406 3420.3589
-182.5677 92.9375 282.0555 62.9787 3421.4954
-181.1234 92.9494 283.5104 63.0169 3423.5457
-180.1188 92.9577 284.4753 63.0550 3424.9385
-179.1153 92.9663 285.4038 63.0932 3426.3057
-177.8887 92.9847 286.4797 63.1313 3427.9375
-176.5012 93.0131 287.6306 63.1694 3429.7405
-175.3757 93.0412 288.5130 63.2076 3431.1709
-173.8984 93.0783 289.6176 63.2457 3433.0159
-172.9879 93.1015 290.2669 63.2839 3434.1345
-171.5371 93.1405 291.2585 63.3220 3435.8923
-170.4107 93.1711 291.9917 63.3602 3437.2366
-169.1222 93.2086 292.7919 63.3983 3438.7539
-167.4465 93.2566 293.7798 63.4365 3440.6997
-166.2657 93.2896 294.4414 63.4746 3442.0537
-164.8544 93.3294 295.1920 63.5128 3443.6528
-163.1004 93.3788 296.0716 63.5509 3445.6157
-161.7074 93.4189 296.7280 63.5891 3447.1562
-160.6253 93.4502 297.2144 63.6272 3448.3430
-158.6478 93.5078 298.0484 63.6653 3450.4900
-157.5389 93.5405 298.4863 63.7035 3451.6826
-155.9327 93.5872 299.0880 63.7416 3453.3984
-154.0005 93.6448 299.7552 63.7798 3455.4434
-152.4738 93.6893 300.2427 63.8179 3457.0469
-151.1318 93.7281 300.6424 63.8561 3458.4475
-149.1647 93.7842 301.1829 63.8942 3460.4885
-148.0918 93.8139 301.4547 63.9324 3461.5957
-146.0558 93.8693 301.9296 63.9705 3463.6870
-144.5873 93.9076 302.2379 64.0087 3465.1880
-142.6236 93.9572 302.6083 64.0468 3467.1870
-141.1559 93.9929 302.8517 64.0850 3468.6753
-139.4686 94.0326 303.0993 64.1231 3470.3811
-137.9010 94.0687 303.2957 64.1612 3471.9614
-136.3154 94.1040 303.4630 64.1994 3473.5562
-134.2427 94.1509 303.6328 64.2375 3475.6365
-132.1820 94.1967 303.7485 64.2757 3477.7009
-130.5584 94.2321 303.8021 64.3138 3479.3259
-128.7259 94.2719 303.8259 64.3520 3481.1592
-127.0039 94.3079 303.8123 64.3901 3482.8813
-125.6924 94.3357 303.7787 64.4283 3484.1936
-123.2970 94.3839 303.6657 64.4664 3486.5923
-121.9683 94.4106 303.5750 64.5046 3487.9246
-119.8242 94.4529 303.3859 64.5427 3490.0774
-118.1422 94.4858 303.2042 64.5808 3491.7695
-116.0820 94.5251 302.9397 64.6190 3493.8469
-114.4136 94.5571 302.6915 64.6571 3495.5342
-112.2044 94.6008 302.3149 64.6953 3497.7756
-110.9284 94.6257 302.0727 64.7334 3499.0747
-108.7951 94.6681 301.6292 64.7716 3501.2539
-107.0295 94.7028 301.2242 64.8097 3503.0657
-104.8108 94.7481 300.6687 64.8479 3505.3535
-103.1653 94.7821 300.2226 64.8860 3507.0588
-101.5210 94.8167 299.7451 64.9242 3508.7715
-99.4315 94.8613 299.0892 64.9623 3510.9619
-97.3868 94.9060 298.3960 65.0005 3513.1213
-95.8764 94.9397 297.8500 65.0386 3514.7278
-94.2051 94.9770 297.2113 65.0767 3516.5173
-92.1650 95.0227 296.3812 65.1149 3518.7205
-90.5403 95.0587 295.6855 65.1530 3520.4883
-88.4665 95.1053 294.7380 65.1912 3522.7688
-87.1334 95.1350 294.0973 65.2293 3524.2483
-84.7280 95.1898 292.8706 65.2675 3526.9490
-83.5430 95.2161 292.2348 65.3056 3528.2942
-81.7290 95.2604 291.2157 65.3438 3530.3752
-79.9452 95.3055 290.1632 65.3819 3532.4470
-77.9296 95.3568 288.9181 65.4201 3534.8167
-76.3670 95.3986 287.9092 65.4582 3536.6772
-74.3691 95.4554 286.5647 65.4963 3539.0859
-72.9316 95.4953 285.5597 65.5345 3540.8406
-71.3650 95.5398 284.4276 65.5726 3542.7739
-69.8503 95.5834 283.2927 65.6108 3544.6672
-67.9132 95.6413 281.7844 65.6489 3547.1228
-66.3927 95.6877 280.5522 65.6871 3549.0806
-64.9608 95.7336 279.3513 65.7252 3550.9500
-63.2034 95.7922 277.8201 65.7634 3553.2817
-61.4921 95.8531 276.2690 65.8015 3555.5920
-59.9198 95.9107 274.7887 65.8397 3557.7524
-58.8690 95.9509 273.7674 65.8778 3559.2183
-56.8500 96.0276 271.7343 65.9159 3562.0847
-55.8158 96.0690 270.6518 65.9541 3563.5825
-54.1342 96.1376 268.8313 65.9922 3566.0618
-53.0492 96.1829 267.6160 66.0304 3567.6914
-51.1547 96.2621 265.4128 66.0685 3570.5984
-50.0295 96.3113 264.0508 66.1067 3572.3657
-48.3073 96.3880 261.8933 66.1448 3575.1274
-47.3921 96.4312 260.7061 66.1830 3576.6270
-45.8683 96.5044 258.6736 66.2211 3579.1685
-44.6611 96.5645 257.0085 66.2593 3581.2261
-43.1268 96.6423 254.8203 66.2974 3583.8997
-42.0289 96.6986 253.2015 66.3355 3585.8564
-40.9403 96.7553 251.5544 66.3737 3587.8318
-39.7056 96.8202 249.6337 66.4118 3590.1160
-38.6405 96.8798 247.9295 66.4500 3592.1265
-37.2710 96.9597 245.6782 66.4881 3594.7629
-35.9367 97.0426 243.4118 66.5263 3597.3943
-34.8784 97.1116 241.5639 66.5644 3599.5247
-33.7545 97.1879 239.5558 66.6026 3601.8274
-32.5785 97.2709 237.4024 66.6407 3604.2822
-31.8433 97.3239 236.0288 66.6789 3605.8411
-30.6040 97.4183 233.6657 66.7170 3608.5112
-29.5474 97.5021 231.6181 66.7552 3610.8169
-28.3929 97.5973 229.3352 66.7933 3613.3770
-27.6354 97.6616 227.8127 66.8314 3615.0786
-26.3158 97.7787 225.1156 66.8696 3618.0835
-25.4925 97.8558 223.4047 66.9077 3619.9839
-24.6022 97.9413 221.5313 66.9459 3622.0598
-23.4444 98.0558 219.0552 66.9840 3624.7957
-22.2879 98.1722 216.5454 67.0222 3627.5615
-21.5525 98.2473 214.9315 67.0603 3629.3367
-20.2510 98.3833 212.0354 67.0985 3632.5146
-19.3904 98.4734 210.0899 67.1366 3634.6438
-18.5998 98.5550 208.2796 67.1748 3636.6211
-17.5056 98.6653 205.7339 67.2129 3639.3940
-16.5091 98.7638 203.3810 67.2511 3641.9512
-15.6109 98.8510 201.2410 67.2892 3644.2737
-14.8830 98.9212 199.4980 67.3273 3646.1638
-13.6753 99.0363 196.5896 67.3655 3649.3152
-12.7955 99.1191 194.4616 67.4036 3651.6194
-11.7475 99.2180 191.9230 67.4418 3654.3674
-11.1045 99.2781 190.3665 67.4799 3656.0527
-9.9964 99.3809 187.6926 67.5181 3658.9490
-9.1132 99.4627 185.5698 67.5562 3661.2495
-8.0131 99.5643 182.9321 67.5944 3664.1094
-6.9282 99.6636 180.3380 67.6325 3666.9229
-6.0711 99.7411 178.2991 67.6707 3669.1360
-5.2661 99.8134 176.3997 67.7088 3671.2002
-3.9489 99.9307 173.3416 67.7469 3674.5320
-3.2245 99.9929 171.6943 67.7851 3676.3325
-2.1174 100.0871 169.2254 67.8232 3679.0400
-1.0469 100.1754 166.8929 67.8614 3681.6079
0.2272 100.2764 164.1854 67.8995 3684.6021
1.2940 100.3573 161.9785 67.9377 3687.0544
2.1362 100.4186 160.2754 67.9758 3688.9556
3.5672 100.5164 157.4716 68.0140 3692.1050
4.8060 100.5961 155.1319 68.0521 3694.7534
5.8557 100.6591 153.2068 68.0903 3696.9470
7.0606 100.7305 151.0651 68.1284 3699.4055
8.5611 100.8171 148.4933 68.1665 3702.3845
9.8312 100.8883 146.4014 68.2047 3704.8328
11.4195 100.9729 143.8861 68.2428 3707.8088
12.3677 101.0209 142.4374 68.2810 3709.5410
14.2510 101.1162 139.6621 68.3191 3712.8962
15.4062 101.1765 138.0308 68.3573 3714.8962
16.8184 101.2484 136.0980 68.3954 3717.2910
18.9298 101.3502 133.3285 68.4336 3720.7751
20.3387 101.4167 131.5595 68.4717 3723.0376
21.7195 101.4814 129.8810 68.5099 3725.2119
23.9443 101.5824 127.2779 68.5480 3728.6379
25.4729 101.6510 125.5573 68.5862 3730.9404
26.9806 101.7167 123.9089 68.6243 3733.1753
28.8390 101.7978 121.9426 68.6624 3735.8823
31.0001 101.8948 119.7461 68.7006 3738.9651
32.8014 101.9732 117.9852 68.7387 3741.4854
34.4276 102.0432 116.4475 68.7769 3743.7246
36.5909 102.1356 114.4814 68.8150 3746.6494
38.5528 102.2187 112.7675 68.8532 3749.2559
40.2759 102.2896 111.3108 68.8913 3751.5134
42.1849 102.3681 109.7502 68.9295 3753.9802
44.5643 102.4665 107.8760 68.9676 3757.0110
46.5503 102.5474 106.3696 69.0058 3759.5049
48.9168 102.6463 104.6438 69.0439 3762.4355
50.6100 102.7172 103.4499 69.0820 3764.5085
53.2137 102.8252 101.6826 69.1202 3767.6572
55.0092 102.8980 100.5112 69.1583 3769.8022
56.9843 102.9761 99.2634 69.1965 3772.1399
59.6014 103.0749 97.6738 69.2346 3775.2036
62.2120 103.1708 96.1594 69.2728 3778.2231
63.9660 103.2337 95.1836 69.3109 3780.2314
67.0717 103.3425 93.5322 69.3491 3783.7507
69.2384 103.4163 92.4365 69.3872 3786.1797
71.0976 103.4788 91.5314 69.4254 3788.2485
73.8103 103.5697 90.2726 69.4635 3791.2407
75.8853 103.6396 89.3544 69.5017 3793.5107
78.7732 103.7369 88.1388 69.5398 3796.6455
80.6424 103.7994 87.3903 69.5779 3798.6602
83.8760 103.9047 86.1661 69.6161 3802.1194
86.2267 103.9789 85.3284 69.6542 3804.6160
88.8570 104.0598 84.4435 69.6924 3807.3923
91.1136 104.1279 83.7292 69.7305 3809.7603
93.9481 104.2126 82.8854 69.7687 3812.7190
96.2579 104.2812 82.2437 69.8068 3815.1174
99.3731 104.3726 81.4398 69.8450 3818.3359
101.1526 104.4250 81.0139 69.8831 3820.1665
104.1545 104.5109 80.3448 69.9213 3823.2432
106.6920 104.5793 79.8308 69.9594 3825.8333
109.7558 104.6589 79.2676 69.9976 3828.9495
112.0170 104.7167 78.8963 70.0357 3831.2417
114.4366 104.7784 78.5389 70.0738 3833.6882
117.3571 104.8524 78.1658 70.1120 3836.6335
120.3764 104.9280 77.8412 70.1501 3839.6711
122.7231 104.9850 77.6314 70.1883 3842.0281
124.9299 105.0386 77.4678 70.2264 3844.2415
127.9196 105.1121 77.2988 70.2646 3847.2371
130.9148 105.1824 77.1890 70.3027 3850.2351
133.4759 105.2416 77.1417 70.3409 3852.7974
135.8864 105.2979 77.1362 70.3790 3855.2085
138.9999 105.3720 77.1846 70.4172 3858.3232
141.4074 105.4299 77.2646 70.4553 3860.7329
143.7196 105.4836 77.3755 70.4934 3863.0483
146.4391 105.5436 77.5491 70.5316 3865.7739
149.5874 105.6102 77.8089 70.5697 3868.9338
152.0661 105.6612 78.0574 70.6079 3871.4255
155.1969 105.7236 78.4300 70.6460 3874.5791
157.5235 105.7679 78.7447 70.6842 3876.9272
160.1913 105.8187 79.1495 70.7223 3879.6262
162.5830 105.8644 79.5540 70.7605 3882.0522
165.0593 105.9131 80.0111 70.7986 3884.5708
168.1992 105.9782 80.6487 70.8368 3887.7756
170.6064 106.0316 81.1799 70.8749 3890.2415
173.7791 106.1039 81.9407 70.9130 3893.5049
176.4599 106.1593 82.6330 70.9512 3896.2742
179.0518 106.2064 83.3463 70.9893 3898.9629
180.9043 106.2391 83.8843 71.0275 3900.8921
184.4284 106.3027 84.9775 71.0656 3904.5825
186.3417 106.3368 85.6072 71.1038 3906.5972
189.3213 106.3889 86.6380 71.1419 3909.7505
192.2366 106.4375 87.7084 71.1801 3912.8564
194.5871 106.4764 88.6180 71.2182 3915.3772
196.7135 106.5109 89.4778 71.2564 3917.6711
198.9235 106.5439 90.4063 71.2945 3920.0684
201.6879 106.5736 91.6151 71.3326 3923.0857
204.5027 106.5992 92.8951 71.3708 3926.1780
206.8180 106.6224 93.9939 71.4089 3928.7410
209.7550 106.6495 95.4369 71.4471 3932.0134
211.8909 106.6668 96.5081 71.4852 3934.4031
214.0995 106.6822 97.6224 71.5234 3936.8770
216.6002 106.6965 98.8870 71.5615 3939.6792
218.7997 106.7078 99.9994 71.5997 3942.1440
221.6815 106.7197 101.4567 71.6378 3945.3733
223.8003 106.7275 102.5274 71.6760 3947.7473
226.7088 106.7363 103.9966 71.7141 3951.0059
229.3082 106.7420 105.3110 71.7523 3953.9187
231.9543 106.7453 106.6515 71.7904 3956.8850
233.6035 106.7475 107.4895 71.8285 3958.7349
236.5849 106.7573 109.0102 71.8667 3962.0818
239.1432 106.7665 110.3193 71.9048 3964.9556
241.9462 106.7758 111.7577 71.9430 3968.1060
244.0029 106.7773 112.8167 71.9811 3970.4194
246.6882 106.7741 114.2045 72.0193 3973.4421
248.6437 106.7688 115.2207 72.0574 3975.6458
251.6252 106.7584 116.7786 72.0956 3979.0098
253.6725 106.7481 117.8555 72.1337 3981.3232
255.7801 106.7327 118.9736 72.1719 3983.7090
257.8771 106.7167 120.1008 72.2100 3986.0898
260.4121 106.7037 121.4853 72.2482 3988.9783
262.3723 106.6968 122.5729 72.2863 3991.2200
264.2350 106.6912 123.6221 72.3244 3993.3579
266.4660 106.6837 124.9057 72.3626 3995.9319
268.0110 106.6770 125.8139 72.4007 3997.7239
270.3164 106.6621 127.2030 72.4389 4000.4158
272.0798 106.6476 128.2971 72.4770 4002.4910
274.2534 106.6245 129.6887 72.5152 4005.0720
276.0621 106.6040 130.8910 72.5533 4007.2439
278.0082 106.5822 132.2346 72.5915 4009.6089
279.0242 106.5710 132.9581 72.6296 4010.8562
281.1803 106.5495 134.5448 72.6678 4013.5334
282.5174 106.5359 135.5667 72.7059 4015.2163
283.8603 106.5225 136.6236 72.7440 4016.9253
285.4951 106.5043 137.9542 72.7822 4019.0334
287.1334 106.4839 139.3354 72.8203 4021.1763
288.2892 106.4680 140.3414 72.8585 4022.7087
290.0739 106.4409 141.9513 72.8966 4025.1123
291.1356 106.4233 142.9470 72.9348 4026.5681
292.3572 106.4024 144.1305 72.9729 4028.2690
293.5578 106.3821 145.3375 73.0111 4029.9717
294.5380 106.3650 146.3549 73.0492 4031.3845
295.8687 106.3429 147.7933 73.0874 4033.3442
296.8987 106.3264 148.9549 73.1255 4034.8970
298.0812 106.3079 150.3468 73.1637 4036.7234
299.2056 106.2889 151.7306 73.2018 4038.5066
300.1828 106.2715 152.9861 73.2399 4040.0977
300.8197 106.2597 153.8343 73.2781 4041.1584
302.0268 106.2346 155.5141 73.3162 4043.2271
302.6455 106.2201 156.4182 73.3544 4044.3228
303.5997 106.1961 157.8740 73.3925 4046.0637
304.1652 106.1805 158.7794 73.4307 4047.1313
305.1736 106.1502 160.4800 73.4688 4049.1086
305.7681 106.1304 161.5411 73.5070 4050.3252
306.6393 106.0981 163.1824 73.5451 4052.1838
307.0811 106.0797 164.0613 73.5833 4053.1675
307.8053 106.0473 165.5768 73.6214 4054.8474
308.3710 106.0191 166.8400 73.6595 4056.2319
309.0025 105.9836 168.3427 73.6977 4057.8625
309.4659 105.9546 169.5221 73.7358 4059.1299
309.9199 105.9238 170.7517 73.7740 4060.4409
310.3609 105.8922 172.0410 73.8121 4061.8042
310.9076 105.8481 173.7820 73.8503 4063.6294
311.2319 105.8200 174.9136 73.8884 4064.8071
311.5767 105.7891 176.2289 73.9266 4066.1672
311.9473 105.7515 177.7853 73.9647 4067.7676
312.2518 105.7174 179.2216 74.0029 4069.2363
312.5111 105.6851 180.6093 74.0410 4070.6482
312.6860 105.6601 181.6469 74.0791 4071.7009
312.9625 105.6126 183.5588 74.1173 4073.6333
313.0898 105.5858 184.6093 74.1554 4074.6919
313.2560 105.5419 186.2550 74.1936 4076.3464
313.3821 105.4949 187.9256 74.2317 4078.0227
313.4498 105.4575 189.2010 74.2699 4079.3003
313.4932 105.4167 190.5717 74.3080 4080.6724
313.5050 105.3671 192.2497 74.3462 4082.3513
313.4833 105.3322 193.4945 74.3843 4083.5967
313.4286 105.2979 194.8598 74.4225 4084.9636
313.3435 105.2603 196.2845 74.4606 4086.3914
313.2018 105.2141 197.9879 74.4988 4088.1013
313.0512 105.1789 199.3700 74.5369 4089.4919
312.9062 105.1493 200.4980 74.5750 4090.6296
312.6367 105.1029 202.2543 74.6132 4092.4072
312.3668 105.0632 203.7587 74.6513 4093.9363
312.1284 105.0351 204.9360 74.6895 4095.1377
311.8295 105.0078 206.2614 74.7276 4096.4966
311.4138 104.9808 207.8941 74.7658 4098.1816
311.0134 104.9619 209.3194 74.8039 4099.6626
310.5391 104.9431 210.8604 74.8421 4101.2749
310.1470 104.9280 212.0507 74.8802 4102.5283
309.5924 104.9062 213.6231 74.9184 4104.1958
309.1187 104.8899 214.8748 74.9565 4105.5342
308.4557 104.8684 216.5188 74.9947 4107.3071
308.0554 104.8557 217.4564 75.0328 4108.3267
307.3426 104.8345 219.0407 75.0709 4110.0640
306.7254 104.8165 220.3324 75.1091 4111.4956
305.9193 104.7952 221.9241 75.1472 4113.2803
305.2863 104.7799 223.1072 75.1854 4114.6221
304.6173 104.7632 224.3061 75.2235 4115.9951
303.8516 104.7457 225.6120 75.2617 4117.5093
303.1147 104.7292 226.8170 75.2998 4118.9214
302.1320 104.7056 228.3526 75.3380 4120.7451
301.3141 104.6859 229.5725 75.3761 4122.2139
300.2803 104.6598 231.0483 75.4143 4124.0161
299.3320 104.6351 232.3436 75.4524 4125.6216
298.2862 104.6075 233.7110 75.4905 4127.3433
297.6043 104.5895 234.5697 75.5287 4128.4399
296.2020 104.5535 236.2602 75.5668 4130.6367
295.4067 104.5329 237.1775 75.6050 4131.8511
294.1445 104.5008 238.5768 75.6431 4133.7358
293.1054 104.4753 239.6802 75.6813 4135.2515
291.8218 104.4458 240.9788 75.7194 4137.0776
290.8376 104.4248 241.9310 75.7576 4138.4473
289.2651 104.3895 243.3888 75.7957 4140.5918
288.3921 104.3703 244.1628 75.8339 4141.7588
286.9663 104.3393 245.3819 75.8720 4143.6353
285.6927 104.3116 246.4246 75.9101 4145.2812
284.1268 104.2784 247.6580 75.9483 4147.2749
282.8235 104.2487 248.6525 75.9864 4148.9146
281.6944 104.2236 249.4903 76.0246 4150.3208
280.0081 104.1884 250.6983 76.0627 4152.3955
278.4672 104.1574 251.7632 76.1009 4154.2690
277.2625 104.1344 252.5726 76.1390 4155.7202
275.8934 104.1058 253.4720 76.1772 4157.3589
274.1555 104.0682 254.5858 76.2153 4159.4233
272.5227 104.0318 255.6055 76.2535 4161.3486
270.9505 103.9958 256.5634 76.2916 4163.1899
269.8010 103.9704 257.2501 76.3298 4164.5293
267.6365 103.9210 258.5164 76.3679 4167.0376
266.4899 103.8955 259.1770 76.4060 4168.3608
264.8215 103.8582 260.1297 76.4442 4170.2827
263.0400 103.8161 261.1378 76.4823 4172.3301
261.0986 103.7726 262.2259 76.5205 4174.5562
259.7213 103.7434 262.9920 76.5586 4176.1323
257.4626 103.6984 264.2400 76.5968 4178.7134
255.9200 103.6706 265.0872 76.6349 4180.4736
254.4267 103.6450 265.9041 76.6731 4182.1758
252.4773 103.6133 266.9647 76.7112 4184.3950
250.5146 103.5812 268.0270 76.7494 4186.6274
249.1255 103.5582 268.7768 76.7875 4188.2061
247.4840 103.5303 269.6606 76.8256 4190.0703
245.4372 103.4946 270.7600 76.8638 4192.3940
243.4725 103.4612 271.8130 76.9019 4194.6235
241.6676 103.4312 272.7784 76.9401 4196.6704
240.4008 103.4090 273.4547 76.9782 4198.1064
237.9024 103.3654 274.7862 77.0164 4200.9380
236.5429 103.3447 275.5122 77.0545 4202.4795
234.3630 103.3156 276.6813 77.0927 4204.9531
233.0276 103.2982 277.3988 77.1308 4206.4692
230.5209 103.2652 278.7465 77.1690 4209.3154
228.8100 103.2439 279.6667 77.2071 4211.2583
226.5697 103.2176 280.8712 77.2453 4213.8018
225.2661 103.2029 281.5714 77.2834 4215.2817
223.0205 103.1777 282.7763 77.3215 4217.8306
221.2052 103.1579 283.7488 77.3597 4219.8896
218.9474 103.1342 284.9572 77.3978 4222.4507
217.1656 103.1168 285.9099 77.4360 4224.4712
215.4306 103.1004 286.8366 77.4741 4226.4385
213.4413 103.0824 287.8979 77.5123 4228.6934
211.7494 103.0679 288.7997 77.5504 4230.6104
209.3395 103.0485 290.0829 77.5886 4233.3408
207.4714 103.0342 291.0767 77.6267 4235.4570
205.1232 103.0168 292.3248 77.6649 4238.1162
203.1009 103.0021 293.3991 77.7030 4240.4062
200.8581 102.9862 294.5899 77.7411 4242.9453
199.5850 102.9776 295.2656 77.7793 4244.3867
196.8590 102.9606 296.7117 77.8174 4247.4727
195.3410 102.9522 297.5170 77.8556 4249.1909
192.9163 102.9405 298.8031 77.8937 4251.9360
190.9731 102.9326 299.8335 77.9319 4254.1353
188.7234 102.9247 301.0261 77.9700 4256.6816
187.0067 102.9193 301.9359 78.0082 4258.6245
184.2753 102.9114 303.3831 78.0463 4261.7158
182.8129 102.9077 304.1578 78.0845 4263.3706
180.5213 102.9027 305.3715 78.1226 4265.9639
178.3980 102.8993 306.4957 78.1608 4268.3662
175.9714 102.8970 307.7799 78.1989 4271.1118
173.9438 102.8959 308.8526 78.2370 4273.4058
172.2530 102.8956 309.7473 78.2752 4275.3184
169.5286 102.8966 311.1892 78.3133 4278.4009
167.3579 102.8993 312.3383 78.3515 4280.8569
165.5093 102.9027 313.3172 78.3896 4282.9487
163.5718 102.9072 314.3435 78.4278 4285.1416
161.0233 102.9139 315.6938 78.4659 4288.0254
158.8706 102.9196 316.8342 78.5041 4290.4614
156.3534 102.9265 318.1682 78.5422 4293.3105
154.9511 102.9307 318.9115 78.5804 4294.8975
152.0241 102.9405 320.4639 78.6185 4298.2109
150.3885 102.9466 321.3318 78.6566 4300.0625
148.2623 102.9551 322.4609 78.6948 4302.4697
145.6767 102.9661 323.8355 78.7329 4305.3979
143.2978 102.9766 325.1019 78.7711 4308.0933
141.0941 102.9867 326.2768 78.8092 4310.5903
138.4638 102.9992 327.6816 78.8474 4313.5723
136.4360 103.0088 328.7666 78.8855 4315.8721
134.5040 103.0169 329.8018 78.9237 4318.0640
132.0293 103.0242 331.1298 78.9618 4320.8726
130.1693 103.0273 332.1287 79.0000 4322.9839
127.5544 103.0294 333.5342 79.0381 4325.9526
125.6476 103.0297 334.5599 79.0762 4328.1177
122.8506 103.0291 336.0654 79.1144 4331.2939
121.2046 103.0280 336.9519 79.1525 4333.1641
118.0222 103.0241 338.6669 79.1907 4336.7788
116.5622 103.0219 339.4542 79.2288 4338.4375
113.4637 103.0169 341.1263 79.2670 4341.9585
111.8314 103.0142 342.0079 79.3051 4343.8140
109.4720 103.0097 343.2831 79.3433 4346.4956
107.0915 103.0032 344.5708 79.3814 4349.2021
104.3908 102.9932 346.0327 79.4196 4352.2729
102.2440 102.9835 347.1956 79.4577 4354.7148
99.4203 102.9688 348.7263 79.4959 4357.9268
97.2987 102.9564 349.8773 79.5340 4360.3403
95.1579 102.9430 351.0396 79.5721 4362.7764
92.9263 102.9278 352.2520 79.6103 4365.3159
90.1642 102.9070 353.7537 79.6484 4368.4600
88.0235 102.8888 354.9186 79.6866 4370.8975
85.3886 102.8627 356.3537 79.7247 4373.8979
83.1858 102.8384 357.5543 79.7629 4376.4067
80.7114 102.8097 358.9041 79.8010 4379.2256
78.3060 102.7827 360.2173 79.8392 4381.9658
76.6680 102.7649 361.1122 79.8773 4383.8325
73.5450 102.7311 362.8198 79.9155 4387.3921
71.2865 102.7043 364.0560 79.9536 4389.9668
68.8835 102.6724 365.3727 79.9918 4392.7075
66.6753 102.6408 366.5839 80.0299 4395.2261
63.9789 102.6005 368.0643 80.0680 4398.3022
61.8467 102.5676 369.2361 80.1062 4400.7354
58.9413 102.5215 370.8347 80.1443 4404.0522
57.2531 102.4940 371.7644 80.1825 4405.9795
54.4104 102.4454 373.3312 80.2206 4409.2256
52.1940 102.4052 374.5540 80.2588 4411.7573
49.4027 102.3515 376.0951 80.2969 4414.9463
47.1976 102.3073 377.3134 80.3351 4417.4658
44.9112 102.2608 378.5774 80.3732 4420.0791
42.5718 102.2134 379.8714 80.4114 4422.7529
40.4468 102.1706 381.0472 80.4495 4425.1816
37.2882 102.1048 382.7957 80.4876 4428.7925
35.2581 102.0599 383.9200 80.5258 4431.1138
32.4498 101.9938 385.4760 80.5639 4434.3247
29.7527 101.9276 386.9706 80.6021 4437.4092
27.2542 101.8650 388.3551 80.6402 4440.2661
25.5399 101.8221 389.3051 80.6784 4442.2266
22.1905 101.7384 391.1613 80.7165 4446.0571
20.5371 101.6966 392.0775 80.7547 4447.9478
17.9099 101.6278 393.5334 80.7928 4450.9521
15.2598 101.5555 395.0018 80.8310 4453.9829
