VERSION 0.7
FIELDS x y z i j k w r ib_distance ob_distance
SIZE 4 4 4 4 4 4 4 4 4 4
TYPE F F F F F F F F F F
COUNT 1 1 1 1 1 1 1 1 1 1
WIDTH 582
HEIGHT 1
VIEWPOINT 0.520 -0.480 -0.488 -0.511 -389.148 91.073 137.390
POINTS 582
DATA ascii
7.2011 100.4540 157.1511 -0.5862 0.3794 0.4054 0.5899 3742.5000 -5.6314 5.6309
8.1677 100.5377 154.8473 -0.5877 0.3773 0.4033 0.5913 3745.0000 -5.6184 5.6186
9.1504 100.6216 152.5499 -0.5890 0.3753 0.4014 0.5926 3747.5000 -5.5935 5.5960
10.1483 100.7060 150.2585 -0.5902 0.3733 0.3996 0.5938 3750.0000 -5.5513 5.5582
11.1622 100.7911 147.9734 -0.5917 0.3708 0.3972 0.5954 3752.5000 -5.4899 5.5021
12.1996 100.8769 145.6992 -0.5942 0.3670 0.3935 0.5978 3755.0000 -5.4198 5.4347
13.2705 100.9630 143.4416 -0.5975 0.3618 0.3884 0.6010 3757.5000 -5.3531 5.3669
14.3848 101.0494 141.2065 -0.6016 0.3552 0.3818 0.6050 3760.0000 -5.3011 5.3105
15.5523 101.1356 138.9997 -0.6066 0.3473 0.3738 0.6097 3762.5000 -5.2740 5.2769
16.7795 101.2216 136.8252 -0.6115 0.3392 0.3656 0.6143 3765.0000 -5.2754 5.2738
18.0622 101.3073 134.6818 -0.6159 0.3318 0.3581 0.6184 3767.5000 -5.2982 5.2946
19.3944 101.3927 132.5677 -0.6197 0.3251 0.3513 0.6220 3770.0000 -5.3347 5.3303
20.7703 101.4779 130.4808 -0.6230 0.3191 0.3452 0.6252 3772.5000 -5.3767 5.3723
22.1840 101.5628 128.4191 -0.6259 0.3138 0.3398 0.6279 3775.0000 -5.4159 5.4119
23.6324 101.6474 126.3822 -0.6288 0.3084 0.3343 0.6307 3777.5000 -5.4479 5.4446
25.1167 101.7320 124.3722 -0.6318 0.3025 0.3285 0.6335 3780.0000 -5.4733 5.4706
26.6386 101.8167 122.3911 -0.6349 0.2964 0.3223 0.6365 3782.5000 -5.4930 5.4910
28.1996 101.9017 120.4411 -0.6381 0.2898 0.3157 0.6396 3785.0000 -5.5079 5.5065
29.8013 101.9870 118.5245 -0.6414 0.2829 0.3089 0.6428 3787.5000 -5.5187 5.5178
31.4433 102.0727 116.6419 -0.6445 0.2762 0.3022 0.6458 3790.0000 -5.5249 5.5246
33.1239 102.1584 114.7932 -0.6474 0.2697 0.2956 0.6486 3792.5000 -5.5259 5.5262
34.8412 102.2438 112.9781 -0.6503 0.2634 0.2892 0.6512 3795.0000 -5.5206 5.5217
36.5934 102.3288 111.1963 -0.6529 0.2574 0.2829 0.6538 3797.5000 -5.5083 5.5103
38.3788 102.4129 109.4477 -0.6555 0.2513 0.2766 0.6562 3800.0000 -5.4885 5.4914
40.1972 102.4966 107.7336 -0.6582 0.2450 0.2702 0.6587 3802.5000 -5.4621 5.4656
42.0491 102.5800 106.0563 -0.6608 0.2383 0.2634 0.6612 3805.0000 -5.4307 5.4344
43.9351 102.6637 104.4180 -0.6634 0.2313 0.2565 0.6638 3807.5000 -5.3955 5.3993
45.8559 102.7481 102.8207 -0.6661 0.2239 0.2493 0.6664 3810.0000 -5.3581 5.3617
47.8115 102.8334 101.2663 -0.6686 0.2165 0.2420 0.6690 3812.5000 -5.3198 5.3231
49.8007 102.9191 99.7549 -0.6711 0.2093 0.2347 0.6714 3815.0000 -5.2824 5.2853
51.8218 103.0045 98.2859 -0.6735 0.2023 0.2276 0.6736 3817.5000 -5.2481 5.2506
53.8732 103.0891 96.8591 -0.6757 0.1956 0.2205 0.6757 3820.0000 -5.2189 5.2210
55.9530 103.1721 95.4739 -0.6779 0.1892 0.2134 0.6776 3822.5000 -5.1970 5.1985
58.0598 103.2532 94.1303 -0.6799 0.1827 0.2065 0.6795 3825.0000 -5.1837 5.1846
60.1928 103.3327 92.8285 -0.6819 0.1762 0.1995 0.6813 3827.5000 -5.1782 5.1785
62.3509 103.4109 91.5692 -0.6838 0.1697 0.1926 0.6830 3830.0000 -5.1798 5.1794
64.5334 103.4882 90.3527 -0.6856 0.1631 0.1858 0.6847 3832.5000 -5.1874 5.1865
66.7393 103.5649 89.1794 -0.6873 0.1564 0.1789 0.6864 3835.0000 -5.2003 5.1988
68.9675 103.6413 88.0492 -0.6889 0.1499 0.1723 0.6879 3837.5000 -5.2164 5.2147
71.2166 103.7174 86.9607 -0.6904 0.1437 0.1659 0.6894 3840.0000 -5.2330 5.2313
73.4851 103.7929 85.9126 -0.6917 0.1377 0.1597 0.6907 3842.5000 -5.2470 5.2456
75.7716 103.8679 84.9037 -0.6930 0.1320 0.1538 0.6919 3845.0000 -5.2553 5.2548
78.0747 103.9423 83.9328 -0.6941 0.1264 0.1480 0.6930 3847.5000 -5.2554 5.2562
80.3939 104.0159 83.0013 -0.6954 0.1204 0.1417 0.6942 3850.0000 -5.2487 5.2504
82.7295 104.0887 82.1125 -0.6966 0.1140 0.1350 0.6954 3852.5000 -5.2384 5.2404
85.0818 104.1605 81.2698 -0.6978 0.1071 0.1277 0.6966 3855.0000 -5.2277 5.2296
87.4509 104.2310 80.4763 -0.6991 0.0998 0.1200 0.6978 3857.5000 -5.2197 5.2209
89.8369 104.3003 79.7350 -0.7003 0.0923 0.1121 0.6990 3860.0000 -5.2168 5.2172
92.2388 104.3683 79.0461 -0.7013 0.0849 0.1043 0.7000 3862.5000 -5.2180 5.2179
94.6552 104.4350 78.4085 -0.7023 0.0777 0.0967 0.7010 3865.0000 -5.2215 5.2212
97.0846 104.5005 77.8214 -0.7032 0.0707 0.0893 0.7018 3867.5000 -5.2254 5.2252
99.5256 104.5648 77.2837 -0.7039 0.0638 0.0821 0.7026 3870.0000 -5.2281 5.2281
101.9770 104.6280 76.7951 -0.7046 0.0569 0.0748 0.7033 3872.5000 -5.2287 5.2289
104.4377 104.6900 76.3568 -0.7053 0.0497 0.0673 0.7040 3875.0000 -5.2289 5.2290
106.9068 104.7511 75.9707 -0.7058 0.0423 0.0596 0.7046 3877.5000 -5.2310 5.2307
109.3836 104.8111 75.6385 -0.7063 0.0347 0.0516 0.7051 3880.0000 -5.2369 5.2361
111.8670 104.8701 75.3618 -0.7067 0.0269 0.0435 0.7056 3882.5000 -5.2487 5.2472
114.3562 104.9281 75.1413 -0.7071 0.0192 0.0355 0.7060 3885.0000 -5.2663 5.2645
116.8498 104.9850 74.9752 -0.7073 0.0117 0.0277 0.7063 3887.5000 -5.2866 5.2847
119.3467 105.0407 74.8617 -0.7074 0.0046 0.0202 0.7065 3890.0000 -5.3059 5.3044
121.8456 105.0950 74.7989 -0.7075 -0.0022 0.0130 0.7066 3892.5000 -5.3209 5.3199
124.3453 105.1478 74.7850 -0.7074 -0.0088 0.0060 0.7067 3895.0000 -5.3281 5.3279
126.8446 105.1994 74.8185 -0.7074 -0.0153 -0.0009 0.7067 3897.5000 -5.3291 5.3293
129.3428 105.2501 74.8987 -0.7072 -0.0218 -0.0075 0.7066 3900.0000 -5.3299 5.3300
131.8391 105.3006 75.0248 -0.7070 -0.0282 -0.0139 0.7065 3902.5000 -5.3366 5.3359
134.3324 105.3512 75.1960 -0.7067 -0.0346 -0.0202 0.7063 3905.0000 -5.3556 5.3530
136.8222 105.4025 75.4115 -0.7064 -0.0409 -0.0263 0.7061 3907.5000 -5.3918 5.3867
139.3078 105.4541 75.6699 -0.7061 -0.0468 -0.0323 0.7058 3910.0000 -5.4401 5.4330
141.7890 105.5049 75.9697 -0.7057 -0.0525 -0.0382 0.7055 3912.5000 -5.4896 5.4821
144.2655 105.5542 76.3094 -0.7053 -0.0577 -0.0441 0.7052 3915.0000 -5.5297 5.5238
146.7370 105.6009 76.6873 -0.7048 -0.0626 -0.0498 0.7049 3917.5000 -5.5495 5.5480
149.2029 105.6443 77.1029 -0.7042 -0.0678 -0.0559 0.7045 3920.0000 -5.5435 5.5471
151.6612 105.6850 77.5609 -0.7035 -0.0740 -0.0627 0.7040 3922.5000 -5.5230 5.5289
154.1091 105.7238 78.0674 -0.7027 -0.0813 -0.0704 0.7033 3925.0000 -5.5024 5.5069
156.5441 105.7614 78.6287 -0.7017 -0.0896 -0.0788 0.7025 3927.5000 -5.4957 5.4955
158.9635 105.7987 79.2510 -0.7004 -0.0989 -0.0881 0.7014 3930.0000 -5.5160 5.5089
161.3657 105.8363 79.9371 -0.6991 -0.1079 -0.0969 0.7002 3932.5000 -5.5684 5.5564
163.7514 105.8742 80.6810 -0.6978 -0.1158 -0.1048 0.6991 3935.0000 -5.6451 5.6306
166.1220 105.9120 81.4749 -0.6966 -0.1226 -0.1115 0.6980 3937.5000 -5.7369 5.7213
168.4788 105.9497 82.3112 -0.6956 -0.1282 -0.1172 0.6971 3940.0000 -5.8344 5.8182
170.8230 105.9870 83.1824 -0.6947 -0.1329 -0.1219 0.6963 3942.5000 -5.9278 5.9118
173.1553 106.0238 84.0836 -0.6938 -0.1373 -0.1265 0.6955 3945.0000 -6.0111 5.9960
175.4751 106.0598 85.0151 -0.6929 -0.1418 -0.1312 0.6947 3947.5000 -6.0834 6.0700
177.7819 106.0948 85.9774 -0.6919 -0.1463 -0.1360 0.6938 3950.0000 -6.1442 6.1330
180.0752 106.1285 86.9709 -0.6908 -0.1509 -0.1409 0.6929 3952.5000 -6.1930 6.1843
182.3545 106.1607 87.9960 -0.6897 -0.1554 -0.1458 0.6920 3955.0000 -6.2291 6.2230
184.6208 106.1912 89.0500 -0.6888 -0.1592 -0.1500 0.6912 3957.5000 -6.2536 6.2494
186.8766 106.2203 90.1270 -0.6880 -0.1620 -0.1532 0.6906 3960.0000 -6.2692 6.2665
189.1246 106.2479 91.2212 -0.6874 -0.1640 -0.1555 0.6902 3962.5000 -6.2787 6.2771
191.3673 106.2740 92.3264 -0.6871 -0.1651 -0.1570 0.6899 3965.0000 -6.2847 6.2839
193.6071 106.2989 93.4372 -0.6869 -0.1654 -0.1577 0.6899 3967.5000 -6.2899 6.2895
195.8456 106.3224 94.5504 -0.6868 -0.1655 -0.1581 0.6898 3970.0000 -6.2955 6.2951
198.0833 106.3449 95.6648 -0.6868 -0.1655 -0.1584 0.6899 3972.5000 -6.3015 6.3010
200.3210 106.3663 96.7790 -0.6868 -0.1652 -0.1584 0.6899 3975.0000 -6.3081 6.3075
202.5596 106.3868 97.8917 -0.6868 -0.1647 -0.1581 0.6900 3977.5000 -6.3156 6.3147
204.7995 106.4064 99.0018 -0.6869 -0.1642 -0.1579 0.6901 3980.0000 -6.3239 6.3229
207.0402 106.4250 100.1102 -0.6869 -0.1639 -0.1579 0.6902 3982.5000 -6.3321 6.3311
209.2810 106.4424 101.2186 -0.6868 -0.1639 -0.1582 0.6902 3985.0000 -6.3389 6.3381
211.5211 106.4582 102.3284 -0.6867 -0.1640 -0.1588 0.6902 3987.5000 -6.3429 6.3426
213.7598 106.4723 103.4413 -0.6865 -0.1643 -0.1596 0.6901 3990.0000 -6.3428 6.3431
215.9964 106.4845 104.5581 -0.6863 -0.1646 -0.1604 0.6901 3992.5000 -6.3380 6.3387
218.2316 106.4951 105.6779 -0.6861 -0.1648 -0.1610 0.6900 3995.0000 -6.3293 6.3302
220.4658 106.5045 106.7996 -0.6860 -0.1649 -0.1614 0.6900 3997.5000 -6.3179 6.3189
222.6996 106.5128 107.9221 -0.6860 -0.1648 -0.1615 0.6900 4000.0000 -6.3050 6.3061
224.9337 106.5206 109.0440 -0.6860 -0.1645 -0.1614 0.6901 4002.5000 -6.2918 6.2929
227.1684 106.5278 110.1648 -0.6861 -0.1643 -0.1613 0.6902 4005.0000 -6.2792 6.2802
229.4035 106.5347 111.2847 -0.6861 -0.1642 -0.1612 0.6902 4007.5000 -6.2668 6.2678
231.6389 106.5413 112.4041 -0.6861 -0.1640 -0.1612 0.6902 4010.0000 -6.2545 6.2555
233.8744 106.5475 113.5231 -0.6861 -0.1640 -0.1612 0.6902 4012.5000 -6.2421 6.2432
236.1100 106.5534 114.6422 -0.6861 -0.1640 -0.1613 0.6902 4015.0000 -6.2294 6.2305
238.3454 106.5587 115.7615 -0.6860 -0.1639 -0.1615 0.6903 4017.5000 -6.2164 6.2176
240.5808 106.5630 116.8810 -0.6860 -0.1637 -0.1617 0.6903 4020.0000 -6.2038 6.2050
242.8160 106.5656 118.0007 -0.6859 -0.1635 -0.1620 0.6903 4022.5000 -6.1921 6.1932
245.0511 106.5662 119.1206 -0.6858 -0.1632 -0.1623 0.6904 4025.0000 -6.1818 6.1826
247.2861 106.5641 120.2407 -0.6857 -0.1629 -0.1627 0.6905 4027.5000 -6.1733 6.1738
249.5211 106.5597 121.3608 -0.6857 -0.1626 -0.1629 0.6906 4030.0000 -6.1656 6.1658
251.7564 106.5537 122.4803 -0.6857 -0.1623 -0.1630 0.6906 4032.5000 -6.1570 6.1572
253.9922 106.5469 123.5989 -0.6857 -0.1620 -0.1629 0.6907 4035.0000 -6.1458 6.1463
256.2288 106.5400 124.7161 -0.6858 -0.1618 -0.1626 0.6907 4037.5000 -6.1303 6.1316
258.4658 106.5334 125.8323 -0.6857 -0.1620 -0.1627 0.6907 4040.0000 -6.1095 6.1120
260.7009 106.5269 126.9523 -0.6855 -0.1630 -0.1638 0.6905 4042.5000 -6.0850 6.0884
262.9308 106.5197 128.0825 -0.6849 -0.1649 -0.1660 0.6900 4045.0000 -6.0585 6.0624
265.1522 106.5111 129.2291 -0.6841 -0.1677 -0.1692 0.6894 4047.5000 -6.0315 6.0356
267.3619 106.5004 130.3985 -0.6829 -0.1714 -0.1735 0.6886 4050.0000 -6.0056 6.0095
269.5565 106.4871 131.5964 -0.6815 -0.1760 -0.1786 0.6875 4052.5000 -5.9818 5.9852
271.7327 106.4717 132.8273 -0.6799 -0.1813 -0.1844 0.6862 4055.0000 -5.9615 5.9644
273.8872 106.4546 134.0953 -0.6780 -0.1873 -0.1907 0.6847 4057.5000 -5.9464 5.9483
276.0164 106.4361 135.4045 -0.6759 -0.1942 -0.1978 0.6829 4060.0000 -5.9377 5.9385
278.1171 106.4169 136.7590 -0.6735 -0.2018 -0.2054 0.6808 4062.5000 -5.9367 5.9364
280.1863 106.3972 138.1617 -0.6709 -0.2097 -0.2133 0.6785 4065.0000 -5.9428 5.9418
282.2219 106.3768 139.6130 -0.6682 -0.2178 -0.2213 0.6761 4067.5000 -5.9531 5.9519
284.2217 106.3556 141.1131 -0.6653 -0.2259 -0.2296 0.6736 4070.0000 -5.9643 5.9633
286.1837 106.3335 142.6621 -0.6622 -0.2343 -0.2380 0.6708 4072.5000 -5.9735 5.9730
288.1059 106.3102 144.2604 -0.6589 -0.2427 -0.2465 0.6680 4075.0000 -5.9775 5.9776
289.9868 106.2861 145.9071 -0.6556 -0.2511 -0.2549 0.6650 4077.5000 -5.9756 5.9759
291.8255 106.2616 147.6009 -0.6522 -0.2595 -0.2631 0.6619 4080.0000 -5.9689 5.9694
293.6213 106.2373 149.3400 -0.6488 -0.2678 -0.2711 0.6587 4082.5000 -5.9589 5.9596
295.3734 106.2137 151.1228 -0.6454 -0.2761 -0.2789 0.6554 4085.0000 -5.9469 5.9477
297.0810 106.1914 152.9479 -0.6419 -0.2842 -0.2865 0.6520 4087.5000 -5.9342 5.9352
298.7441 106.1696 154.8134 -0.6383 -0.2920 -0.2941 0.6487 4090.0000 -5.9199 5.9214
300.3629 106.1473 156.7178 -0.6347 -0.2994 -0.3016 0.6454 4092.5000 -5.9022 5.9043
301.9379 106.1232 158.6593 -0.6310 -0.3065 -0.3091 0.6422 4095.0000 -5.8791 5.8820
303.4694 106.0959 160.6363 -0.6272 -0.3131 -0.3165 0.6390 4097.5000 -5.8488 5.8526
304.9569 106.0646 162.6473 -0.6233 -0.3199 -0.3240 0.6358 4100.0000 -5.8100 5.8144
306.3963 106.0296 164.6929 -0.6189 -0.3274 -0.3321 0.6321 4102.5000 -5.7636 5.7681
307.7813 105.9921 166.7743 -0.6141 -0.3357 -0.3407 0.6278 4105.0000 -5.7109 5.7150
309.1060 105.9530 168.8927 -0.6088 -0.3449 -0.3498 0.6229 4107.5000 -5.6528 5.6565
310.3645 105.9134 171.0495 -0.6031 -0.3548 -0.3594 0.6174 4110.0000 -5.5904 5.5938
311.5515 105.8740 173.2453 -0.5970 -0.3650 -0.3692 0.6116 4112.5000 -5.5250 5.5288
312.6651 105.8346 175.4798 -0.5906 -0.3753 -0.3791 0.6055 4115.0000 -5.4622 5.4666
313.7037 105.7949 177.7523 -0.5840 -0.3854 -0.3891 0.5992 4117.5000 -5.4085 5.4129
314.6659 105.7544 180.0620 -0.5772 -0.3955 -0.3990 0.5926 4120.0000 -5.3705 5.3735
315.5502 105.7127 182.4082 -0.5700 -0.4057 -0.4091 0.5858 4122.5000 -5.3550 5.3543
316.3456 105.6694 184.7890 -0.5609 -0.4179 -0.4213 0.5773 4125.0000 -5.3634 5.3576
317.0244 105.6240 187.2008 -0.5491 -0.4330 -0.4364 0.5662 4127.5000 -5.3865 5.3780
317.5574 105.5759 189.6396 -0.5342 -0.4509 -0.4543 0.5522 4130.0000 -5.4127 5.4059
317.9152 105.5245 192.1016 -0.5160 -0.4714 -0.4747 0.5349 4132.5000 -5.4294 5.4276
318.0699 105.4694 194.5824 -0.4948 -0.4935 -0.4967 0.5147 4135.0000 -5.4246 5.4264
318.0169 105.4114 197.0730 -0.4743 -0.5136 -0.5163 0.4946 4137.5000 -5.3983 5.4019
317.7719 105.3525 199.5599 -0.4550 -0.5315 -0.5334 0.4754 4140.0000 -5.3599 5.3655
317.3512 105.2947 202.0295 -0.4370 -0.5474 -0.5483 0.4569 4142.5000 -5.3190 5.3269
316.7711 105.2399 204.4682 -0.4202 -0.5617 -0.5613 0.4391 4145.0000 -5.2851 5.2940
316.0465 105.1898 206.8638 -0.4042 -0.5746 -0.5731 0.4220 4147.5000 -5.2653 5.2726
315.1866 105.1434 209.2108 -0.3882 -0.5864 -0.5841 0.4052 4150.0000 -5.2597 5.2639
314.1987 105.0992 211.5053 -0.3725 -0.5972 -0.5944 0.3889 4152.5000 -5.2666 5.2669
313.0900 105.0555 213.7436 -0.3568 -0.6071 -0.6041 0.3731 4155.0000 -5.2847 5.2808
311.8678 105.0110 215.9220 -0.3413 -0.6161 -0.6131 0.3578 4157.5000 -5.3126 5.3053
310.5399 104.9645 218.0378 -0.3264 -0.6242 -0.6214 0.3432 4160.0000 -5.3490 5.3393
309.1144 104.9159 220.0903 -0.3121 -0.6315 -0.6288 0.3292 4162.5000 -5.3930 5.3817
307.5996 104.8652 222.0793 -0.2984 -0.6381 -0.6356 0.3159 4165.0000 -5.4434 5.4315
306.0038 104.8124 224.0042 -0.2854 -0.6441 -0.6417 0.3032 4167.5000 -5.4990 5.4873
304.3354 104.7576 225.8649 -0.2731 -0.6494 -0.6472 0.2913 4170.0000 -5.5584 5.5479
302.6028 104.7010 227.6643 -0.2622 -0.6539 -0.6518 0.2806 4172.5000 -5.6209 5.6119
300.8150 104.6432 229.4096 -0.2527 -0.6577 -0.6557 0.2713 4175.0000 -5.6865 5.6786
298.9809 104.5850 231.1079 -0.2449 -0.6609 -0.6588 0.2633 4177.5000 -5.7549 5.7474
297.1095 104.5269 232.7666 -0.2385 -0.6634 -0.6612 0.2568 4180.0000 -5.8255 5.8171
295.2093 104.4697 234.3925 -0.2334 -0.6654 -0.6631 0.2513 4182.5000 -5.8970 5.8870
293.2827 104.4135 235.9863 -0.2277 -0.6675 -0.6651 0.2453 4185.0000 -5.9670 5.9562
291.3282 104.3582 237.5443 -0.2215 -0.6698 -0.6673 0.2388 4187.5000 -6.0322 6.0219
289.3436 104.3035 239.0625 -0.2147 -0.6722 -0.6696 0.2318 4190.0000 -6.0896 6.0808
287.3272 104.2493 240.5373 -0.2073 -0.6746 -0.6721 0.2241 4192.5000 -6.1360 6.1296
285.2776 104.1954 241.9654 -0.1997 -0.6771 -0.6745 0.2164 4195.0000 -6.1689 6.1648
283.1976 104.1422 243.3500 -0.1932 -0.6791 -0.6765 0.2096 4197.5000 -6.1902 6.1875
281.0921 104.0898 244.6971 -0.1877 -0.6808 -0.6781 0.2038 4200.0000 -6.2037 6.2020
278.9661 104.0387 246.0127 -0.1834 -0.6821 -0.6793 0.1990 4202.5000 -6.2135 6.2124
276.8243 103.9892 247.3029 -0.1801 -0.6832 -0.6803 0.1951 4205.0000 -6.2233 6.2226
274.6715 103.9416 248.5737 -0.1778 -0.6839 -0.6809 0.1924 4207.5000 -6.2364 6.2355
272.5115 103.8957 249.8317 -0.1766 -0.6844 -0.6813 0.1906 4210.0000 -6.2535 6.2518
270.3480 103.8512 251.0833 -0.1762 -0.6846 -0.6813 0.1900 4212.5000 -6.2746 6.2717
268.1845 103.8078 252.3349 -0.1769 -0.6845 -0.6812 0.1904 4215.0000 -6.2993 6.2948
266.0248 103.7654 253.5932 -0.1785 -0.6841 -0.6807 0.1918 4217.5000 -6.3274 6.3208
263.8703 103.7236 254.8610 -0.1797 -0.6838 -0.6804 0.1928 4220.0000 -6.3589 6.3507
261.7175 103.6826 256.1316 -0.1796 -0.6839 -0.6804 0.1925 4222.5000 -6.3939 6.3849
259.5617 103.6423 257.3971 -0.1783 -0.6843 -0.6808 0.1909 4225.0000 -6.4314 6.4227
257.3985 103.6028 258.6494 -0.1757 -0.6851 -0.6815 0.1881 4227.5000 -6.4703 6.4631
255.2234 103.5642 259.8805 -0.1720 -0.6861 -0.6825 0.1841 4230.0000 -6.5093 6.5045
253.0349 103.5264 261.0876 -0.1687 -0.6870 -0.6834 0.1806 4232.5000 -6.5478 6.5450
250.8357 103.4894 262.2758 -0.1663 -0.6876 -0.6840 0.1779 4235.0000 -6.5864 6.5850
248.6290 103.4530 263.4505 -0.1647 -0.6880 -0.6844 0.1762 4237.5000 -6.6258 6.6253
246.4181 103.4172 264.6175 -0.1640 -0.6883 -0.6846 0.1753 4240.0000 -6.6668 6.6666
244.2060 103.3817 265.7821 -0.1641 -0.6883 -0.6846 0.1753 4242.5000 -6.7097 6.7094
241.9945 103.3468 266.9477 -0.1644 -0.6882 -0.6845 0.1755 4245.0000 -6.7534 6.7529
239.7844 103.3126 268.1158 -0.1651 -0.6881 -0.6843 0.1758 4247.5000 -6.7956 6.7948
237.5763 103.2795 269.2875 -0.1659 -0.6880 -0.6841 0.1763 4250.0000 -6.8340 6.8328
235.3710 103.2477 270.4644 -0.1670 -0.6879 -0.6838 0.1770 4252.5000 -6.8661 6.8648
233.1689 103.2176 271.6474 -0.1682 -0.6877 -0.6835 0.1778 4255.0000 -6.8900 6.8887
230.9699 103.1890 272.8362 -0.1692 -0.6875 -0.6833 0.1784 4257.5000 -6.9062 6.9052
228.7731 103.1616 274.0293 -0.1699 -0.6874 -0.6831 0.1788 4260.0000 -6.9166 6.9159
226.5779 103.1352 275.2254 -0.1703 -0.6874 -0.6830 0.1790 4262.5000 -6.9230 6.9226
224.3835 103.1096 276.4229 -0.1706 -0.6874 -0.6829 0.1791 4265.0000 -6.9274 6.9271
222.1893 103.0844 277.6209 -0.1707 -0.6874 -0.6829 0.1790 4267.5000 -6.9312 6.9309
219.9953 103.0600 278.8190 -0.1708 -0.6874 -0.6829 0.1790 4270.0000 -6.9341 6.9339
217.8014 103.0365 280.0175 -0.1710 -0.6874 -0.6828 0.1789 4272.5000 -6.9357 6.9357
215.6078 103.0142 281.2164 -0.1713 -0.6874 -0.6827 0.1788 4275.0000 -6.9356 6.9357
213.4145 102.9933 282.4160 -0.1716 -0.6875 -0.6827 0.1787 4277.5000 -6.9331 6.9334
211.2215 102.9739 283.6162 -0.1719 -0.6875 -0.6826 0.1786 4280.0000 -6.9281 6.9286
209.0288 102.9558 284.8168 -0.1721 -0.6875 -0.6825 0.1785 4282.5000 -6.9209 6.9217
206.8360 102.9387 286.0175 -0.1722 -0.6876 -0.6825 0.1783 4285.0000 -6.9120 6.9129
204.6431 102.9223 287.2178 -0.1722 -0.6876 -0.6825 0.1782 4287.5000 -6.9018 6.9028
202.4499 102.9064 288.4176 -0.1721 -0.6876 -0.6825 0.1780 4290.0000 -6.8907 6.8918
200.2563 102.8910 289.6167 -0.1721 -0.6877 -0.6825 0.1778 4292.5000 -6.8789 6.8801
198.0623 102.8761 290.8152 -0.1721 -0.6877 -0.6825 0.1776 4295.0000 -6.8665 6.8677
195.8681 102.8623 292.0133 -0.1722 -0.6878 -0.6825 0.1774 4297.5000 -6.8534 6.8547
193.6738 102.8496 293.2110 -0.1724 -0.6878 -0.6825 0.1772 4300.0000 -6.8396 6.8410
191.4793 102.8385 294.4087 -0.1726 -0.6879 -0.6824 0.1770 4302.5000 -6.8251 6.8266
189.2849 102.8289 295.6063 -0.1728 -0.6880 -0.6824 0.1768 4305.0000 -6.8100 6.8115
187.0905 102.8208 296.8040 -0.1730 -0.6880 -0.6823 0.1766 4307.5000 -6.7945 6.7961
184.8961 102.8140 298.0017 -0.1732 -0.6880 -0.6822 0.1765 4310.0000 -6.7788 6.7804
182.7018 102.8087 299.1997 -0.1734 -0.6881 -0.6822 0.1763 4312.5000 -6.7630 6.7646
180.5077 102.8045 300.3980 -0.1736 -0.6881 -0.6821 0.1762 4315.0000 -6.7474 6.7490
178.3137 102.8013 301.5965 -0.1738 -0.6881 -0.6821 0.1761 4317.5000 -6.7318 6.7334
176.1198 102.7990 302.7950 -0.1739 -0.6882 -0.6821 0.1760 4320.0000 -6.7162 6.7179
173.9258 102.7973 303.9936 -0.1739 -0.6882 -0.6821 0.1759 4322.5000 -6.7005 6.7022
171.7317 102.7960 305.1919 -0.1739 -0.6882 -0.6821 0.1758 4325.0000 -6.6846 6.6862
169.5374 102.7950 306.3899 -0.1739 -0.6882 -0.6821 0.1757 4327.5000 -6.6683 6.6700
167.3431 102.7946 307.5877 -0.1740 -0.6883 -0.6820 0.1756 4330.0000 -6.6519 6.6535
165.1488 102.7953 308.7856 -0.1742 -0.6883 -0.6820 0.1754 4332.5000 -6.6355 6.6371
162.9545 102.7976 309.9837 -0.1745 -0.6884 -0.6819 0.1752 4335.0000 -6.6194 6.6210
160.7605 102.8020 311.1822 -0.1749 -0.6884 -0.6818 0.1750 4337.5000 -6.6038 6.6054
158.5668 102.8087 312.3812 -0.1753 -0.6885 -0.6817 0.1748 4340.0000 -6.5890 6.5904
156.3734 102.8171 313.5807 -0.1756 -0.6885 -0.6816 0.1747 4342.5000 -6.5747 6.5761
154.1802 102.8266 314.7805 -0.1757 -0.6885 -0.6816 0.1746 4345.0000 -6.5609 6.5623
151.9872 102.8367 315.9808 -0.1758 -0.6885 -0.6816 0.1746 4347.5000 -6.5474 6.5489
149.7943 102.8467 317.1813 -0.1758 -0.6885 -0.6816 0.1747 4350.0000 -6.5343 6.5357
147.6015 102.8563 318.3820 -0.1758 -0.6885 -0.6816 0.1748 4352.5000 -6.5212 6.5226
145.4088 102.8659 319.5827 -0.1758 -0.6885 -0.6816 0.1748 4355.0000 -6.5081 6.5096
143.2159 102.8757 320.7833 -0.1758 -0.6885 -0.6816 0.1747 4357.5000 -6.4948 6.4963
141.0229 102.8860 321.9835 -0.1758 -0.6885 -0.6816 0.1745 4360.0000 -6.4811 6.4826
138.8295 102.8971 323.1831 -0.1759 -0.6886 -0.6816 0.1743 4362.5000 -6.4669 6.4684
136.6359 102.9087 324.3822 -0.1758 -0.6886 -0.6816 0.1742 4365.0000 -6.4520 6.4536
134.4419 102.9199 325.5807 -0.1756 -0.6886 -0.6816 0.1742 4367.5000 -6.4365 6.4381
132.2476 102.9297 326.7786 -0.1752 -0.6886 -0.6817 0.1744 4370.0000 -6.4203 6.4220
130.0530 102.9374 327.9760 -0.1748 -0.6885 -0.6818 0.1747 4372.5000 -6.4035 6.4052
127.8581 102.9420 329.1728 -0.1743 -0.6884 -0.6820 0.1750 4375.0000 -6.3861 6.3878
125.6629 102.9438 330.3690 -0.1738 -0.6883 -0.6821 0.1752 4377.5000 -6.3679 6.3698
123.4675 102.9435 331.5648 -0.1735 -0.6883 -0.6822 0.1754 4380.0000 -6.3492 6.3511
121.2717 102.9419 332.7601 -0.1733 -0.6883 -0.6822 0.1755 4382.5000 -6.3298 6.3317
119.0757 102.9396 333.9550 -0.1732 -0.6883 -0.6823 0.1754 4385.0000 -6.3097 6.3116
116.8795 102.9371 335.1494 -0.1732 -0.6883 -0.6823 0.1754 4387.5000 -6.2891 6.2910
114.6835 102.9345 336.3442 -0.1732 -0.6883 -0.6822 0.1756 4390.0000 -6.2686 6.2706
112.4880 102.9313 337.5400 -0.1734 -0.6882 -0.6822 0.1759 4392.5000 -6.2493 6.2511
110.2936 102.9273 338.7377 -0.1736 -0.6881 -0.6822 0.1764 4395.0000 -6.2320 6.2337
108.1006 102.9221 339.9380 -0.1738 -0.6879 -0.6821 0.1771 4397.5000 -6.2177 6.2191
105.9093 102.9155 341.1412 -0.1741 -0.6877 -0.6820 0.1777 4400.0000 -6.2069 6.2080
103.7191 102.9075 342.3468 -0.1742 -0.6876 -0.6820 0.1781 4402.5000 -6.1987 6.1996
101.5298 102.8983 343.5537 -0.1742 -0.6876 -0.6820 0.1785 4405.0000 -6.1922 6.1930
99.3407 102.8879 344.7612 -0.1740 -0.6875 -0.6820 0.1786 4407.5000 -6.1863 6.1871
97.1514 102.8765 345.9682 -0.1737 -0.6875 -0.6821 0.1786 4410.0000 -6.1801 6.1810
94.9617 102.8639 347.1743 -0.1735 -0.6875 -0.6822 0.1787 4412.5000 -6.1731 6.1740
92.7716 102.8501 348.3798 -0.1732 -0.6875 -0.6822 0.1788 4415.0000 -6.1654 6.1663
90.5812 102.8348 349.5849 -0.1729 -0.6874 -0.6823 0.1789 4417.5000 -6.1573 6.1582
88.3907 102.8178 350.7897 -0.1726 -0.6874 -0.6824 0.1792 4420.0000 -6.1490 6.1500
86.2003 102.7988 351.9945 -0.1724 -0.6873 -0.6824 0.1795 4422.5000 -6.1409 6.1418
84.0099 102.7779 353.1994 -0.1722 -0.6872 -0.6825 0.1797 4425.0000 -6.1330 6.1339
81.8197 102.7555 354.4045 -0.1720 -0.6872 -0.6825 0.1799 4427.5000 -6.1254 6.1262
79.6295 102.7319 355.6098 -0.1719 -0.6871 -0.6826 0.1801 4430.0000 -6.1180 6.1188
77.4395 102.7074 356.8152 -0.1718 -0.6871 -0.6826 0.1802 4432.5000 -6.1109 6.1117
75.2495 102.6824 358.0208 -0.1718 -0.6871 -0.6826 0.1803 4435.0000 -6.1041 6.1049
73.0597 102.6567 359.2267 -0.1717 -0.6870 -0.6826 0.1805 4437.5000 -6.0977 6.0984
70.8701 102.6303 360.4328 -0.1717 -0.6870 -0.6826 0.1806 4440.0000 -6.0917 6.0923
68.6806 102.6029 361.6393 -0.1716 -0.6869 -0.6826 0.1808 4442.5000 -6.0861 6.0867
66.4914 102.5742 362.8462 -0.1714 -0.6869 -0.6827 0.1811 4445.0000 -6.0812 6.0817
64.3025 102.5442 364.0536 -0.1713 -0.6868 -0.6827 0.1814 4447.5000 -6.0768 6.0773
62.1139 102.5127 365.2614 -0.1712 -0.6867 -0.6827 0.1816 4450.0000 -6.0730 6.0734
59.9254 102.4797 366.4695 -0.1710 -0.6867 -0.6828 0.1819 4452.5000 -6.0696 6.0700
57.7371 102.4452 367.6778 -0.1708 -0.6866 -0.6828 0.1821 4455.0000 -6.0665 6.0669
55.5489 102.4093 368.8864 -0.1707 -0.6865 -0.6829 0.1823 4457.5000 -6.0638 6.0641
53.3608 102.3718 370.0950 -0.1705 -0.6865 -0.6829 0.1825 4460.0000 -6.0611 6.0615
51.1728 102.3330 371.3037 -0.1703 -0.6864 -0.6830 0.1827 4462.5000 -6.0586 6.0589
48.9848 102.2928 372.5125 -0.1701 -0.6864 -0.6830 0.1829 4465.0000 -6.0561 6.0564
46.7967 102.2515 373.7211 -0.1700 -0.6863 -0.6830 0.1830 4467.5000 -6.0535 6.0538
44.6087 102.2092 374.9297 -0.1698 -0.6863 -0.6831 0.1832 4470.0000 -6.0507 6.0510
42.4206 102.1658 376.1381 -0.1696 -0.6863 -0.6831 0.1833 4472.5000 -6.0478 6.0481
40.2324 102.1211 377.3464 -0.1694 -0.6862 -0.6832 0.1835 4475.0000 -6.0447 6.0451
38.0442 102.0750 378.5545 -0.1692 -0.6862 -0.6832 0.1837 4477.5000 -6.0415 6.0419
35.8559 102.0272 379.7625 -0.1689 -0.6861 -0.6833 0.1839 4480.0000 -6.0381 6.0386
33.6676 101.9775 380.9702 -0.1686 -0.6861 -0.6834 0.1841 4482.5000 -6.0348 6.0352
31.4792 101.9260 382.1778 -0.1684 -0.6860 -0.6834 0.1843 4485.0000 -6.0313 6.0318
29.2907 101.8732 383.3852 -0.1682 -0.6860 -0.6835 0.1844 4487.5000 -6.0278 6.0283
27.1022 101.8194 384.5924 -0.1681 -0.6859 -0.6835 0.1845 4490.0000 -6.0242 6.0247
24.9135 101.7650 385.7995 -0.1680 -0.6859 -0.6835 0.1845 4492.5000 -6.0205 6.0210
22.7249 101.7103 387.0064 -0.1679 -0.6859 -0.6835 0.1846 4495.0000 -6.0167 6.0171
20.5361 101.6552 388.2132 -0.1678 -0.6859 -0.6836 0.1846 4497.5000 -6.0128 6.0132
18.3473 101.5993 389.4199 -0.1677 -0.6859 -0.6836 0.1847 4500.0000 -6.0087 6.0092
16.1585 101.5421 390.6264 -0.1674 -0.6858 -0.6837 0.1849 4502.5000 -6.0046 6.0051
13.9696 101.4833 391.8328 -0.1672 -0.6858 -0.6837 0.1851 4505.0000 -6.0003 6.0008
11.7807 101.4226 393.0391 -0.1669 -0.6857 -0.6838 0.1854 4507.5000 -5.9959 5.9965
9.5918 101.3601 394.2452 -0.1666 -0.6857 -0.6839 0.1856 4510.0000 -5.9915 5.9920
7.4029 101.2960 395.4513 -0.1664 -0.6856 -0.6839 0.1858 4512.5000 -5.9870 5.9875
5.2140 101.2308 396.6573 -0.1663 -0.6856 -0.6839 0.1859 4515.0000 -5.9824 5.9829
3.0250 101.1645 397.8631 -0.1661 -0.6855 -0.6840 0.1860 4517.5000 -5.9778 5.9783
0.8360 101.0975 399.0688 -0.1660 -0.6855 -0.6840 0.1861 4520.0000 -5.9733 5.9737
-1.3530 101.0299 400.2745 -0.1660 -0.6855 -0.6840 0.1862 4522.5000 -5.9687 5.9692
-3.5420 100.9619 401.4802 -0.1659 -0.6855 -0.6840 0.1862 4525.0000 -5.9643 5.9648
-5.7310 100.8935 402.6859 -0.1659 -0.6855 -0.6840 0.1863 4527.5000 -5.9599 5.9604
-7.9199 100.8249 403.8916 -0.1659 -0.6855 -0.6840 0.1863 4530.0000 -5.9557 5.9562
-10.1088 100.7559 405.0974 -0.1658 -0.6854 -0.6841 0.1864 4532.5000 -5.9517 5.9522
-12.2976 100.6857 406.3034 -0.1656 -0.6854 -0.6841 0.1867 4535.0000 -5.9478 5.9483
-14.4862 100.6135 407.5095 -0.1653 -0.6853 -0.6842 0.1870 4537.5000 -5.9442 5.9447
-16.6746 100.5385 408.7158 -0.1649 -0.6851 -0.6843 0.1875 4540.0000 -5.9408 5.9412
-18.8627 100.4600 409.9224 -0.1644 -0.6850 -0.6844 0.1881 4542.5000 -5.9376 5.9380
-21.0506 100.3781 411.1293 -0.1641 -0.6849 -0.6845 0.1885 4545.0000 -5.9346 5.9350
-23.2383 100.2938 412.3363 -0.1638 -0.6848 -0.6845 0.1888 4547.5000 -5.9319 5.9322
-25.4259 100.2081 413.5434 -0.1637 -0.6848 -0.6846 0.1889 4550.0000 -5.9293 5.9296
-27.6134 100.1221 414.7506 -0.1638 -0.6848 -0.6846 0.1889 4552.5000 -5.9270 5.9272
-29.8010 100.0367 415.9577 -0.1638 -0.6848 -0.6845 0.1888 4555.0000 -5.9248 5.9250
-31.9887 99.9518 417.1648 -0.1639 -0.6848 -0.6845 0.1887 4557.5000 -5.9228 5.9230
-34.1763 99.8670 418.3719 -0.1639 -0.6848 -0.6845 0.1888 4560.0000 -5.9210 5.9212
-36.3638 99.7816 419.5791 -0.1638 -0.6848 -0.6846 0.1889 4562.5000 -5.9194 5.9196
-38.5513 99.6951 420.7863 -0.1636 -0.6847 -0.6846 0.1891 4565.0000 -5.9180 5.9182
-40.7387 99.6073 421.9937 -0.1634 -0.6846 -0.6846 0.1893 4567.5000 -5.9169 5.9170
-42.9260 99.5181 423.2011 -0.1633 -0.6846 -0.6847 0.1895 4570.0000 -5.9159 5.9160
-45.1132 99.4281 424.4086 -0.1632 -0.6846 -0.6847 0.1896 4572.5000 -5.9151 5.9152
-47.3003 99.3377 425.6162 -0.1632 -0.6846 -0.6847 0.1896 4575.0000 -5.9145 5.9146
-49.4874 99.2471 426.8239 -0.1632 -0.6846 -0.6847 0.1896 4577.5000 -5.9141 5.9141
-51.6744 99.1567 428.0317 -0.1633 -0.6846 -0.6847 0.1896 4580.0000 -5.9138 5.9138
-53.8614 99.0666 429.2396 -0.1633 -0.6846 -0.6847 0.1895 4582.5000 -5.9137 5.9137
-56.0485 98.9770 430.4474 -0.1634 -0.6846 -0.6846 0.1895 4585.0000 -5.9136 5.9136
-58.2356 98.8880 431.6551 -0.1634 -0.6846 -0.6846 0.1894 4587.5000 -5.9136 5.9136
-60.4228 98.7996 432.8626 -0.1635 -0.6847 -0.6846 0.1892 4590.0000 -5.9137 5.9137
-62.6102 98.7120 434.0700 -0.1636 -0.6847 -0.6846 0.1891 4592.5000 -5.9137 5.9137
-64.7976 98.6251 435.2773 -0.1637 -0.6847 -0.6846 0.1890 4595.0000 -5.9136 5.9137
-66.9850 98.5389 436.4846 -0.1638 -0.6847 -0.6845 0.1889 4597.5000 -5.9134 5.9135
-69.1724 98.4534 437.6922 -0.1639 -0.6848 -0.6845 0.1889 4600.0000 -5.9129 5.9130
-71.3597 98.3686 438.8999 -0.1641 -0.6848 -0.6845 0.1888 4602.5000 -5.9121 5.9122
-73.5469 98.2847 440.1079 -0.1643 -0.6848 -0.6844 0.1887 4605.0000 -5.9108 5.9110
-75.7339 98.2020 441.3163 -0.1645 -0.6849 -0.6844 0.1886 4607.5000 -5.9090 5.9093
-77.9207 98.1210 442.5251 -0.1648 -0.6849 -0.6843 0.1884 4610.0000 -5.9067 5.9070
-80.1074 98.0420 443.7343 -0.1652 -0.6850 -0.6842 0.1881 4612.5000 -5.9035 5.9040
-82.2938 97.9652 444.9441 -0.1656 -0.6850 -0.6841 0.1879 4615.0000 -5.8996 5.9002
-84.4801 97.8906 446.1543 -0.1659 -0.6851 -0.6840 0.1877 4617.5000 -5.8949 5.8955
-86.6661 97.8175 447.3651 -0.1661 -0.6851 -0.6840 0.1876 4620.0000 -5.8895 5.8902
-88.8520 97.7454 448.5762 -0.1663 -0.6851 -0.6839 0.1876 4622.5000 -5.8835 5.8842
-91.0377 97.6739 449.7877 -0.1664 -0.6851 -0.6839 0.1876 4625.0000 -5.8769 5.8777
-93.2231 97.6025 450.9995 -0.1665 -0.6851 -0.6839 0.1876 4627.5000 -5.8698 5.8707
-95.4085 97.5318 452.2116 -0.1666 -0.6851 -0.6838 0.1875 4630.0000 -5.8623 5.8633
-97.5938 97.4623 453.4238 -0.1669 -0.6852 -0.6838 0.1873 4632.5000 -5.8546 5.8556
-99.7792 97.3946 454.6362 -0.1672 -0.6853 -0.6837 0.1870 4635.0000 -5.8468 5.8478
-101.9646 97.3295 455.8485 -0.1676 -0.6854 -0.6836 0.1866 4637.5000 -5.8391 5.8400
-104.1501 97.2673 457.0608 -0.1679 -0.6855 -0.6835 0.1863 4640.0000 -5.8314 5.8323
-106.3357 97.2074 458.2731 -0.1682 -0.6856 -0.6835 0.1860 4642.5000 -5.8238 5.8248
-108.5212 97.1491 459.4855 -0.1684 -0.6856 -0.6834 0.1858 4645.0000 -5.8165 5.8174
-110.7068 97.0918 460.6980 -0.1685 -0.6856 -0.6834 0.1858 4647.5000 -5.8094 5.8103
-112.8922 97.0347 461.9107 -0.1685 -0.6856 -0.6834 0.1858 4650.0000 -5.8026 5.8034
-115.0775 96.9777 463.1236 -0.1686 -0.6856 -0.6834 0.1858 4652.5000 -5.7960 5.7968
-117.2627 96.9214 464.3368 -0.1688 -0.6856 -0.6833 0.1857 4655.0000 -5.7899 5.7906
-119.4478 96.8663 465.5502 -0.1690 -0.6857 -0.6833 0.1855 4657.5000 -5.7840 5.7847
-121.6328 96.8130 466.7638 -0.1694 -0.6858 -0.6832 0.1853 4660.0000 -5.7785 5.7792
-123.8177 96.7622 467.9777 -0.1698 -0.6858 -0.6831 0.1849 4662.5000 -5.7734 5.7741
-126.0026 96.7139 469.1918 -0.1701 -0.6859 -0.6830 0.1847 4665.0000 -5.7687 5.7693
-128.1874 96.6678 470.4061 -0.1704 -0.6860 -0.6829 0.1844 4667.5000 -5.7644 5.7649
-130.3721 96.6236 471.6206 -0.1707 -0.6861 -0.6828 0.1842 4670.0000 -5.7604 5.7609
-132.5567 96.5809 472.8353 -0.1709 -0.6861 -0.6828 0.1840 4672.5000 -5.7568 5.7572
-134.7413 96.5395 474.0502 -0.1711 -0.6861 -0.6827 0.1839 4675.0000 -5.7536 5.7540
-136.9258 96.4991 475.2652 -0.1713 -0.6862 -0.6827 0.1838 4677.5000 -5.7507 5.7511
-139.1102 96.4599 476.4805 -0.1714 -0.6862 -0.6826 0.1837 4680.0000 -5.7482 5.7485
-141.2945 96.4217 477.6960 -0.1716 -0.6862 -0.6826 0.1836 4682.5000 -5.7461 5.7463
-143.4786 96.3846 478.9118 -0.1718 -0.6862 -0.6826 0.1835 4685.0000 -5.7443 5.7445
-145.6626 96.3485 480.1280 -0.1720 -0.6863 -0.6825 0.1834 4687.5000 -5.7429 5.7431
-147.8463 96.3137 481.3445 -0.1723 -0.6863 -0.6824 0.1833 4690.0000 -5.7419 5.7420
-150.0300 96.2800 482.5614 -0.1725 -0.6863 -0.6824 0.1832 4692.5000 -5.7411 5.7411
-152.2134 96.2477 483.7786 -0.1727 -0.6864 -0.6823 0.1830 4695.0000 -5.7405 5.7406
-154.3966 96.2169 484.9962 -0.1730 -0.6864 -0.6822 0.1829 4697.5000 -5.7402 5.7402
-156.5797 96.1877 486.2141 -0.1733 -0.6865 -0.6822 0.1827 4700.0000 -5.7400 5.7400
-158.7626 96.1599 487.4324 -0.1735 -0.6865 -0.6821 0.1826 4702.5000 -5.7399 5.7399
-160.9453 96.1334 488.6509 -0.1737 -0.6865 -0.6821 0.1824 4705.0000 -5.7400 5.7400
-163.1280 96.1083 489.8697 -0.1739 -0.6866 -0.6820 0.1823 4707.5000 -5.7402 5.7402
-165.3105 96.0844 491.0887 -0.1741 -0.6866 -0.6820 0.1822 4710.0000 -5.7406 5.7406
-167.4930 96.0617 492.3079 -0.1743 -0.6866 -0.6819 0.1820 4712.5000 -5.7412 5.7411
-169.6753 96.0403 493.5273 -0.1746 -0.6867 -0.6818 0.1819 4715.0000 -5.7420 5.7419
-171.8575 96.0204 494.7469 -0.1748 -0.6867 -0.6818 0.1817 4717.5000 -5.7432 5.7430
-174.0396 96.0020 495.9669 -0.1751 -0.6868 -0.6817 0.1815 4720.0000 -5.7448 5.7446
-176.2215 95.9853 497.1872 -0.1754 -0.6868 -0.6816 0.1814 4722.5000 -5.7470 5.7467
-178.4032 95.9702 498.4078 -0.1756 -0.6869 -0.6816 0.1812 4725.0000 -5.7498 5.7494
-180.5847 95.9566 499.6288 -0.1759 -0.6869 -0.6815 0.1811 4727.5000 -5.7532 5.7527
-182.7659 95.9445 500.8503 -0.1762 -0.6869 -0.6814 0.1809 4730.0000 -5.7572 5.7567
-184.9469 95.9338 502.0722 -0.1764 -0.6870 -0.6814 0.1808 4732.5000 -5.7620 5.7613
-187.1276 95.9243 503.2947 -0.1767 -0.6870 -0.6813 0.1807 4735.0000 -5.7674 5.7666
-189.3080 95.9162 504.5177 -0.1770 -0.6870 -0.6812 0.1806 4737.5000 -5.7736 5.7727
-191.4882 95.9097 505.7411 -0.1773 -0.6871 -0.6811 0.1805 4740.0000 -5.7804 5.7794
-193.6681 95.9051 506.9651 -0.1776 -0.6871 -0.6810 0.1803 4742.5000 -5.7879 5.7868
-195.8478 95.9025 508.1894 -0.1780 -0.6872 -0.6810 0.1800 4745.0000 -5.7960 5.7948
-198.0272 95.9020 509.4142 -0.1783 -0.6872 -0.6809 0.1798 4747.5000 -5.8047 5.8034
-200.2065 95.9034 510.6392 -0.1786 -0.6873 -0.6808 0.1796 4750.0000 -5.8141 5.8127
-202.3857 95.9062 511.8643 -0.1787 -0.6873 -0.6807 0.1795 4752.5000 -5.8243 5.8228
-204.5649 95.9100 513.0896 -0.1788 -0.6874 -0.6807 0.1794 4755.0000 -5.8354 5.8338
-206.7441 95.9143 514.3148 -0.1789 -0.6874 -0.6807 0.1793 4757.5000 -5.8476 5.8458
-208.9234 95.9189 515.5398 -0.1789 -0.6874 -0.6807 0.1792 4760.0000 -5.8609 5.8589
-211.1028 95.9239 516.7646 -0.1789 -0.6874 -0.6807 0.1791 4762.5000 -5.8753 5.8732
-213.2824 95.9297 517.9891 -0.1790 -0.6875 -0.6807 0.1790 4765.0000 -5.8910 5.8887
-215.4621 95.9365 519.2133 -0.1791 -0.6875 -0.6807 0.1787 4767.5000 -5.9079 5.9054
-217.6421 95.9445 520.4370 -0.1792 -0.6876 -0.6806 0.1785 4770.0000 -5.9262 5.9235
-219.8223 95.9540 521.6604 -0.1794 -0.6876 -0.6806 0.1783 4772.5000 -5.9457 5.9429
-222.0027 95.9646 522.8834 -0.1795 -0.6877 -0.6806 0.1781 4775.0000 -5.9662 5.9633
-224.1832 95.9760 524.1064 -0.1795 -0.6877 -0.6805 0.1780 4777.5000 -5.9873 5.9844
-226.3636 95.9880 525.3292 -0.1796 -0.6877 -0.6805 0.1779 4780.0000 -6.0090 6.0060
-228.5440 96.0002 526.5522 -0.1796 -0.6877 -0.6805 0.1779 4782.5000 -6.0307 6.0278
-230.7244 96.0126 527.7752 -0.1797 -0.6877 -0.6805 0.1779 4785.0000 -6.0524 6.0495
-232.9049 96.0252 528.9981 -0.1796 -0.6877 -0.6805 0.1778 4787.5000 -6.0738 6.0709
-235.0855 96.0379 530.2208 -0.1796 -0.6878 -0.6805 0.1778 4790.0000 -6.0946 6.0918
-237.2663 96.0507 531.4430 -0.1796 -0.6878 -0.6805 0.1777 4792.5000 -6.1145 6.1119
-239.4474 96.0638 532.6647 -0.1795 -0.6878 -0.6806 0.1776 4795.0000 -6.1334 6.1309
-241.6287 96.0770 533.8860 -0.1795 -0.6878 -0.6806 0.1775 4797.5000 -6.1517 6.1493
-243.8100 96.0906 535.1074 -0.1796 -0.6878 -0.6805 0.1775 4800.0000 -6.1698 6.1674
-245.9912 96.1047 536.3290 -0.1797 -0.6878 -0.6805 0.1775 4802.5000 -6.1884 6.1859
-248.1720 96.1193 537.5512 -0.1799 -0.6878 -0.6804 0.1775 4805.0000 -6.2081 6.2054
-250.3524 96.1345 538.7742 -0.1801 -0.6878 -0.6804 0.1775 4807.5000 -6.2294 6.2264
-252.5326 96.1497 539.9975 -0.1800 -0.6878 -0.6804 0.1776 4810.0000 -6.2529 6.2496
-254.7131 96.1643 541.2203 -0.1798 -0.6878 -0.6805 0.1776 4812.5000 -6.2792 6.2754
-256.8942 96.1776 542.4420 -0.1793 -0.6878 -0.6806 0.1776 4815.0000 -6.3086 6.3043
-259.0764 96.1888 543.6618 -0.1786 -0.6878 -0.6808 0.1775 4817.5000 -6.3416 6.3369
-261.2600 96.1976 544.8791 -0.1779 -0.6878 -0.6810 0.1774 4820.0000 -6.3786 6.3734
-263.4453 96.2040 546.0934 -0.1771 -0.6879 -0.6812 0.1772 4822.5000 -6.4200 6.4143
-265.6324 96.2083 547.3043 -0.1762 -0.6879 -0.6814 0.1769 4825.0000 -6.4660 6.4598
-267.8217 96.2107 548.5115 -0.1754 -0.6880 -0.6817 0.1766 4827.5000 -6.5169 6.5103
-270.0132 96.2115 549.7144 -0.1745 -0.6881 -0.6819 0.1761 4830.0000 -6.5728 6.5659
-272.2070 96.2108 550.9133 -0.1737 -0.6882 -0.6821 0.1757 4832.5000 -6.6335 6.6263
-274.4026 96.2091 552.1089 -0.1732 -0.6883 -0.6823 0.1754 4835.0000 -6.6975 6.6902
-276.5994 96.2065 553.3022 -0.1728 -0.6884 -0.6824 0.1752 4837.5000 -6.7637 6.7563
-278.7970 96.2032 554.4941 -0.1726 -0.6884 -0.6824 0.1751 4840.0000 -6.8307 6.8230
-280.9949 96.1997 555.6854 -0.1725 -0.6884 -0.6824 0.1751 4842.5000 -6.8971 6.8893
-283.1931 96.1959 556.8762 -0.1723 -0.6884 -0.6825 0.1750 4845.0000 -6.9620 6.9542
-285.3918 96.1916 558.0659 -0.1720 -0.6884 -0.6826 0.1748 4847.5000 -7.0250 7.0173
-287.5916 96.1866 559.2538 -0.1716 -0.6885 -0.6827 0.1746 4850.0000 -7.0856 7.0783
-289.7927 96.1807 560.4392 -0.1710 -0.6886 -0.6828 0.1743 4852.5000 -7.1433 7.1365
-291.9954 96.1739 561.6215 -0.1704 -0.6886 -0.6830 0.1740 4855.0000 -7.1979 7.1917
-294.1996 96.1658 562.8011 -0.1699 -0.6887 -0.6831 0.1738 4857.5000 -7.2498 7.2439
-296.4048 96.1564 563.9789 -0.1694 -0.6887 -0.6832 0.1738 4860.0000 -7.2999 7.2943
-298.6105 96.1455 565.1557 -0.1691 -0.6886 -0.6833 0.1739 4862.5000 -7.3492 7.3436
-300.8162 96.1331 566.3324 -0.1690 -0.6886 -0.6834 0.1742 4865.0000 -7.3986 7.3930
-303.0216 96.1189 567.5097 -0.1688 -0.6885 -0.6834 0.1745 4867.5000 -7.4487 7.4430
-305.2267 96.1032 568.6875 -0.1687 -0.6884 -0.6834 0.1747 4870.0000 -7.4993 7.4937
-307.4318 96.0862 569.8654 -0.1685 -0.6884 -0.6835 0.1749 4872.5000 -7.5499 7.5443
-309.6370 96.0681 571.0430 -0.1683 -0.6884 -0.6835 0.1749 4875.0000 -7.5998 7.5943
-311.8426 96.0493 572.2198 -0.1681 -0.6884 -0.6836 0.1749 4877.5000 -7.6486 7.6430
-314.0486 96.0298 573.3959 -0.1679 -0.6884 -0.6836 0.1748 4880.0000 -7.6961 7.6901
-316.2551 96.0095 574.5710 -0.1676 -0.6884 -0.6837 0.1748 4882.5000 -7.7428 7.7364
-318.4619 95.9881 575.7455 -0.1674 -0.6884 -0.6838 0.1749 4885.0000 -7.7895 7.7830
-320.6690 95.9656 576.9194 -0.1671 -0.6884 -0.6838 0.1750 4887.5000 -7.8369 7.8307
-322.8764 95.9418 578.0929 -0.1669 -0.6883 -0.6839 0.1751 4890.0000 -7.8857 7.8807
-325.0838 95.9166 579.2664 -0.1668 -0.6883 -0.6839 0.1753 4892.5000 -7.9351 7.9323
-327.2909 95.8906 580.4405 -0.1668 -0.6882 -0.6839 0.1756 4895.0000 -7.9827 7.9821
-329.4972 95.8644 581.6158 -0.1671 -0.6882 -0.6838 0.1758 4897.5000 -8.0261 8.0263
-331.7023 95.8384 582.7933 -0.1675 -0.6881 -0.6837 0.1761 4900.0000 -8.0627 8.0614
-333.9062 95.8131 583.9730 -0.1678 -0.6881 -0.6836 0.1762 4902.5000 -8.0899 8.0839
-336.1119 95.7884 585.1487 -0.1663 -0.6884 -0.6840 0.1746 4905.0000 -8.1050 8.0932
-338.3260 95.7634 586.3082 -0.1628 -0.6892 -0.6849 0.1712 4907.5000 -8.1043 8.0892
-340.5551 95.7376 587.4391 -0.1572 -0.6905 -0.6863 0.1659 4910.0000 -8.0840 8.0709
-342.8056 95.7101 588.5290 -0.1497 -0.6920 -0.6881 0.1588 4912.5000 -8.0399 8.0362
-345.0841 95.6802 589.5638 -0.1394 -0.6940 -0.6904 0.1491 4915.0000 -7.9701 7.9831
-347.3965 95.6477 590.5177 -0.1247 -0.6967 -0.6935 0.1350 4917.5000 -7.8917 7.9179
-349.7481 95.6126 591.3580 -0.1054 -0.6997 -0.6970 0.1163 4920.0000 -7.8240 7.8528
-352.1446 95.5748 592.0522 -0.0814 -0.7028 -0.7006 0.0928 4922.5000 -7.7790 7.7999
-354.5914 95.5343 592.5679 -0.0528 -0.7055 -0.7038 0.0647 4925.0000 -7.7626 7.7712
-357.0877 95.4913 592.8730 -0.0205 -0.7072 -0.7060 0.0329 4927.5000 -7.7760 7.7758
-359.6024 95.4462 592.9388 -0.0153 0.7073 0.7067 0.0024 4930.0000 -7.8107 7.8086
-362.0954 95.3998 592.7375 -0.0556 0.7054 0.7054 0.0423 4932.5000 -7.8481 7.8550
-364.5265 95.3528 592.2411 -0.1010 0.7005 0.7011 0.0873 4935.0000 -7.8663 7.8881
-366.8558 95.3057 591.4225 -0.1510 0.6916 0.6929 0.1370 4937.5000 -7.8436 7.8649
-369.0531 95.2592 590.2814 -0.1973 0.6801 0.6819 0.1832 4940.0000 -7.7671 7.7636
-371.1033 95.2132 588.8605 -0.2379 0.6673 0.6695 0.2235 4942.5000 -7.6553 7.6336
-372.9927 95.1679 587.2058 -0.2734 0.6538 0.6563 0.2588 4945.0000 -7.5382 7.5204
-374.7075 95.1234 585.3636 -0.3051 0.6400 0.6427 0.2903 4947.5000 -7.4502 7.4544
-376.2355 95.0798 583.3792 -0.3334 0.6262 0.6288 0.3182 4950.0000 -7.4199 7.4552
-377.5922 95.0365 581.2867 -0.3561 0.6141 0.6166 0.3405 4952.5000 -7.4516 7.5157
-378.8146 94.9926 579.1115 -0.3728 0.6045 0.6068 0.3568 4955.0000 -7.5383 7.6088
-379.9402 94.9474 576.8782 -0.3840 0.5981 0.6000 0.3673 4957.5000 -7.6599 7.7076
-381.0069 94.9000 574.6121 -0.3897 0.5949 0.5963 0.3724 4960.0000 -7.7809 7.7867
-382.0496 94.8495 572.3362 -0.3916 0.5942 0.5951 0.3735 4962.5000 -7.8517 7.8257
-383.0812 94.7963 570.0583 -0.3931 0.5935 0.5941 0.3745 4965.0000 -7.8623 7.8273
-384.1024 94.7415 567.7777 -0.3945 0.5928 0.5932 0.3755 4967.5000 -7.8315 7.8032
-385.1139 94.6858 565.4938 -0.3957 0.5921 0.5924 0.3767 4970.0000 -7.7785 7.7650
-386.1162 94.6303 563.2059 -0.3968 0.5913 0.5917 0.3779 4972.5000 -7.7230 7.7242
-387.1102 94.5758 560.9135 -0.3977 0.5905 0.5911 0.3791 4975.0000 -7.6813 7.6904
-388.0975 94.5220 558.6175 -0.3984 0.5900 0.5906 0.3799 4977.5000 -7.6550 7.6659
-389.0800 94.4688 556.3190 -0.3989 0.5896 0.5903 0.3805 4980.0000 -7.6417 7.6502
-390.0595 94.4156 554.0190 -0.3992 0.5895 0.5901 0.3807 4982.5000 -7.6390 7.6430
-391.0378 94.3621 551.7188 -0.3993 0.5895 0.5901 0.3807 4985.0000 -7.6443 7.6439
-392.0159 94.3081 549.4189 -0.3994 0.5895 0.5900 0.3807 4987.5000 -7.6556 7.6522
-392.9922 94.2537 547.1185 -0.3998 0.5893 0.5897 0.3810 4990.0000 -7.6718 7.6669
-393.9647 94.1992 544.8163 -0.4004 0.5888 0.5893 0.3817 4992.5000 -7.6920 7.6865
-394.9314 94.1448 542.5112 -0.4013 0.5882 0.5887 0.3826 4995.0000 -7.7156 7.7099
-395.8902 94.0908 540.2019 -0.4025 0.5874 0.5879 0.3839 4997.5000 -7.7417 7.7357
-396.8353 94.0372 537.8865 -0.4049 0.5857 0.5863 0.3863 5000.0000 -7.7717 7.7648
-397.7548 93.9838 535.5614 -0.4089 0.5831 0.5835 0.3903 5002.5000 -7.8078 7.7992
-398.6364 93.9305 533.2230 -0.4143 0.5794 0.5797 0.3957 5005.0000 -7.8512 7.8409
-399.4678 93.8770 530.8675 -0.4213 0.5746 0.5748 0.4025 5007.5000 -7.9025 7.8911
-400.2369 93.8231 528.4915 -0.4294 0.5689 0.5688 0.4104 5010.0000 -7.9611 7.9504
-400.9402 93.7689 526.0947 -0.4369 0.5634 0.5631 0.4179 5012.5000 -8.0237 8.0142
-401.5827 93.7148 523.6797 -0.4437 0.5582 0.5579 0.4247 5015.0000 -8.0852 8.0769
-402.1700 93.6611 521.2495 -0.4497 0.5535 0.5531 0.4307 5017.5000 -8.1402 8.1330
-402.7075 93.6082 518.8071 -0.4549 0.5492 0.5488 0.4361 5020.0000 -8.1830 8.1774
-403.2000 93.5564 516.3550 -0.4597 0.5451 0.5448 0.4412 5022.5000 -8.2084 8.2054
-403.6464 93.5057 513.8948 -0.4650 0.5406 0.5404 0.4466 5025.0000 -8.2190 8.2186
-404.0416 93.4557 511.4268 -0.4708 0.5357 0.5354 0.4525 5027.5000 -8.2204 8.2217
-404.3806 93.4061 508.9511 -0.4771 0.5302 0.5298 0.4588 5030.0000 -8.2179 8.2197
-404.6584 93.3566 506.4683 -0.4839 0.5243 0.5237 0.4656 5032.5000 -8.2167 8.2178
-404.8708 93.3071 503.9789 -0.4908 0.5181 0.5172 0.4724 5035.0000 -8.2196 8.2200
-405.0189 93.2570 501.4841 -0.4973 0.5122 0.5110 0.4788 5037.5000 -8.2233 8.2239
-405.1059 93.2062 498.9860 -0.5035 0.5065 0.5049 0.4848 5040.0000 -8.2237 8.2242
-405.1353 93.1545 496.4862 -0.5092 0.5012 0.4992 0.4903 5042.5000 -8.2165 8.2156
-405.1102 93.1014 493.9866 -0.5146 0.4961 0.4936 0.4954 5045.0000 -8.1970 8.1931
-405.0352 93.0469 491.4887 -0.5192 0.4917 0.4888 0.4998 5047.5000 -8.1618 8.1539
-404.9203 92.9915 488.9923 -0.5226 0.4883 0.4851 0.5031 5050.0000 -8.1123 8.1012
-404.7764 92.9359 486.4971 -0.5249 0.4859 0.4827 0.5054 5052.5000 -8.0509 8.0379
-404.6144 92.8807 484.0027 -0.5260 0.4845 0.4814 0.5067 5055.0000 -7.9798 7.9666
-404.4454 92.8265 481.5085 -0.5261 0.4842 0.4814 0.5070 5057.5000 -7.9008 7.8890
-404.2779 92.7738 479.0145 -0.5256 0.4844 0.4819 0.5068 5060.0000 -7.8164 7.8065
-404.1153 92.7226 476.5202 -0.5249 0.4849 0.4827 0.5064 5062.5000 -7.7305 7.7228
-403.9601 92.6729 474.0256 -0.5239 0.4856 0.4838 0.5056 5065.0000 -7.6474 7.6421
-403.8149 92.6248 471.5305 -0.5226 0.4866 0.4851 0.5047 5067.5000 -7.5714 7.5686
-403.6823 92.5781 469.0346 -0.5212 0.4878 0.4867 0.5035 5070.0000 -7.5068 7.5063
-403.5623 92.5327 466.5381 -0.5200 0.4889 0.4880 0.5025 5072.5000 -7.4550 7.4557
-403.4523 92.4884 464.0409 -0.5191 0.4896 0.4889 0.5018 5075.0000 -7.4127 7.4141
-403.3490 92.4449 461.5433 -0.5185 0.4900 0.4895 0.5014 5077.5000 -7.3764 7.3782
-403.2493 92.4019 459.0456 -0.5183 0.4902 0.4898 0.5012 5080.0000 -7.3428 7.3447
-403.1502 92.3592 456.5479 -0.5183 0.4902 0.4898 0.5013 5082.5000 -7.3084 7.3105
-403.0507 92.3167 454.0502 -0.5183 0.4901 0.4898 0.5013 5085.0000 -7.2723 7.2744
-402.9512 92.2746 451.5525 -0.5182 0.4901 0.4899 0.5014 5087.5000 -7.2352 7.2374
-402.8520 92.2331 449.0549 -0.5181 0.4901 0.4900 0.5014 5090.0000 -7.1981 7.2003
-402.7538 92.1924 446.5572 -0.5179 0.4901 0.4902 0.5013 5092.5000 -7.1617 7.1640
-402.6567 92.1527 444.0594 -0.5177 0.4901 0.4904 0.5013 5095.0000 -7.1270 7.1293
-402.5609 92.1140 441.5615 -0.5174 0.4901 0.4907 0.5013 5097.5000 -7.0939 7.0961
-402.4662 92.0765 439.0636 -0.5172 0.4901 0.4909 0.5013 5100.0000 -7.0620 7.0643
-402.3724 92.0403 436.5656 -0.5170 0.4900 0.4911 0.5014 5102.5000 -7.0310 7.0333
-402.2794 92.0055 434.0676 -0.5168 0.4899 0.4913 0.5015 5105.0000 -7.0006 7.0029
-402.1868 91.9721 431.5695 -0.5166 0.4899 0.4915 0.5015 5107.5000 -6.9704 6.9728
-402.0950 91.9398 429.0714 -0.5164 0.4898 0.4917 0.5016 5110.0000 -6.9405 6.9429
-402.0040 91.9085 426.5732 -0.5163 0.4898 0.4919 0.5016 5112.5000 -6.9107 6.9132
-401.9139 91.8778 424.0750 -0.5161 0.4899 0.4920 0.5015 5115.0000 -6.8811 6.8838
-401.8250 91.8475 421.5768 -0.5160 0.4900 0.4922 0.5014 5117.5000 -6.8518 6.8546
-401.7372 91.8172 419.0786 -0.5159 0.4901 0.4923 0.5013 5120.0000 -6.8229 6.8257
-401.6504 91.7869 416.5802 -0.5158 0.4902 0.4924 0.5012 5122.5000 -6.7944 6.7973
-401.5645 91.7565 414.0819 -0.5157 0.4903 0.4924 0.5011 5125.0000 -6.7666 6.7696
-401.4793 91.7258 411.5836 -0.5157 0.4904 0.4925 0.5010 5127.5000 -6.7397 6.7427
-401.3946 91.6946 409.0852 -0.5157 0.4905 0.4925 0.5009 5130.0000 -6.7139 6.7168
-401.3101 91.6632 406.5868 -0.5158 0.4905 0.4924 0.5009 5132.5000 -6.6894 6.6922
-401.2251 91.6318 404.0884 -0.5158 0.4904 0.4924 0.5010 5135.0000 -6.6668 6.6694
-401.1392 91.6009 401.5901 -0.5158 0.4902 0.4923 0.5012 5137.5000 -6.6466 6.6489
-401.0518 91.5708 399.0918 -0.5159 0.4899 0.4923 0.5015 5140.0000 -6.6292 6.6311
-400.9624 91.5421 396.5936 -0.5160 0.4895 0.4922 0.5019 5142.5000 -6.6150 6.6166
-400.8705 91.5147 394.0954 -0.5161 0.4891 0.4921 0.5023 5145.0000 -6.6044 6.6055
-400.7760 91.4890 391.5974 -0.5162 0.4887 0.4919 0.5027 5147.5000 -6.5972 6.5979
-400.6787 91.4647 389.0993 -0.5164 0.4882 0.4918 0.5031 5150.0000 -6.5935 6.5938
-400.5784 91.4422 386.6015 -0.5165 0.4878 0.4916 0.5036 5152.5000 -6.5934 6.5932
-400.4749 91.4212 384.1037 -0.5167 0.4873 0.4915 0.5040 5155.0000 -6.5967 6.5962
-400.3687 91.4016 381.6060 -0.5168 0.4870 0.4913 0.5044 5157.5000 -6.6029 6.6022
-400.2605 91.3827 379.1085 -0.5169 0.4867 0.4912 0.5046 5160.0000 -6.6114 6.6104
-400.1511 91.3642 376.6109 -0.5170 0.4866 0.4911 0.5047 5162.5000 -6.6215 6.6204
-400.0412 91.3453 374.1134 -0.5170 0.4867 0.4911 0.5046 5165.0000 -6.6324 6.6312
-399.9314 91.3259 371.6159 -0.5171 0.4867 0.4910 0.5046 5167.5000 -6.6437 6.6424
-399.8215 91.3063 369.1184 -0.5171 0.4867 0.4910 0.5046 5170.0000 -6.6550 6.6537
-399.7113 91.2871 366.6209 -0.5171 0.4866 0.4911 0.5047 5172.5000 -6.6661 6.6648
-399.6004 91.2689 364.1234 -0.5170 0.4864 0.4911 0.5049 5175.0000 -6.6769 6.6757
-399.4887 91.2522 361.6260 -0.5169 0.4861 0.4912 0.5052 5177.5000 -6.6872 6.6860
-399.3759 91.2374 359.1286 -0.5169 0.4858 0.4912 0.5055 5180.0000 -6.6967 6.6956
-399.2618 91.2244 356.6312 -0.5169 0.4855 0.4913 0.5058 5182.5000 -6.7051 6.7042
-399.1463 91.2128 354.1339 -0.5169 0.4852 0.4913 0.5060 5185.0000 -6.7121 6.7114
-399.0293 91.2024 351.6367 -0.5169 0.4849 0.4912 0.5063 5187.5000 -6.7175 6.7171
-398.9107 91.1930 349.1395 -0.5170 0.4847 0.4911 0.5066 5190.0000 -6.7210 6.7208
-398.7902 91.1843 346.6424 -0.5172 0.4844 0.4909 0.5068 5192.5000 -6.7220 6.7221
-398.6671 91.1761 344.1454 -0.5174 0.4841 0.4907 0.5071 5195.0000 -6.7198 6.7202
