VERSION 0.7
FIELDS x y z id
SIZE 4 4 4 4
TYPE F F F F
COUNT 1 1 1 1
WIDTH 1329
HEIGHT 1
VIEWPOINT -0.271 0.654 0.653 0.271 -109.206 2.884 463.537
POINTS 1329
DATA ascii
29.65836 3.07381 -227.78074 0.00000
29.16952 3.08423 -225.86103 0.00000
28.70054 3.09437 -223.93612 0.00000
28.25182 3.10422 -222.00627 0.00000
27.82332 3.11378 -220.07185 0.00000
27.41454 3.12307 -218.13329 0.00000
27.02414 3.13217 -216.19121 0.00000
26.64968 3.14113 -214.24643 0.00000
26.28809 3.15006 -212.29985 0.00000
25.93655 3.15895 -210.35227 0.00000
25.59235 3.16774 -208.40436 0.00000
25.25268 3.17630 -206.45682 0.00000
24.91581 3.18446 -204.51006 0.00000
24.58244 3.19216 -202.56398 0.00000
24.25559 3.19951 -200.61794 0.00000
23.93908 3.20678 -198.67090 0.00000
23.63554 3.21428 -196.72184 0.00000
23.34590 3.22201 -194.77009 0.00000
23.06960 3.22974 -192.81553 0.00000
22.80447 3.23708 -190.85852 0.00000
22.54683 3.24379 -188.89973 0.00000
22.29327 3.24996 -186.93980 0.00000
22.04237 3.25577 -184.97906 0.00000
21.79445 3.26141 -183.01752 0.00000
21.55051 3.26699 -181.05513 0.00000
21.31220 3.27239 -179.09175 0.00000
21.08255 3.27733 -177.12719 0.00000
20.86675 3.28149 -175.16110 0.00000
20.67218 3.28462 -173.19306 0.00000
20.50645 3.28663 -171.22268 0.00000
20.37162 3.28767 -169.25021 0.00000
20.26203 3.28801 -167.27658 0.00000
20.17105 3.28792 -165.30273 0.00000
20.09433 3.28758 -163.32933 0.00000
20.02854 3.28698 -161.35684 0.00000
19.97121 3.28593 -159.38542 0.00000
19.92073 3.28404 -157.41485 0.00000
19.87591 3.28104 -155.44439 0.00000
19.83548 3.27689 -153.47309 0.00000
19.79815 3.27179 -151.50044 0.00000
19.76334 3.26612 -149.52656 0.00000
19.73172 3.26022 -147.55176 0.00000
19.70557 3.25417 -145.57627 0.00000
19.68857 3.24807 -143.60027 0.00000
19.68473 3.24209 -141.62388 0.00000
19.69712 3.23643 -139.64726 0.00000
19.72673 3.23121 -137.67061 0.00000
19.77225 3.22640 -135.69414 0.00000
19.83052 3.22185 -133.71803 0.00000
19.89744 3.21724 -131.74239 0.00000
19.96998 3.21221 -129.76727 0.00000
20.04701 3.20640 -127.79278 0.00000
20.12886 3.19968 -125.81913 0.00000
20.21669 3.19229 -123.84676 0.00000
20.31190 3.18465 -121.87640 0.00000
20.41611 3.17723 -119.90886 0.00000
20.53116 3.17030 -117.94430 0.00000
20.65871 3.16400 -115.98183 0.00000
20.79949 3.15825 -114.02040 0.00000
20.95330 3.15294 -112.05939 0.00000
21.11911 3.14783 -110.09860 0.00000
21.29557 3.14260 -108.13806 0.00000
21.48169 3.13704 -106.17792 0.00000
21.67704 3.13111 -104.21841 0.00000
21.88157 3.12488 -102.25976 0.00000
22.09540 3.11848 -100.30219 0.00000
22.31872 3.11207 -98.34594 0.00000
22.55172 3.10579 -96.39122 0.00000
22.79457 3.09981 -94.43823 0.00000
23.04736 3.09419 -92.48704 0.00000
23.30994 3.08890 -90.53746 0.00000
23.58211 3.08384 -88.58902 0.00000
23.86389 3.07894 -86.64119 0.00000
24.15573 3.07422 -84.69377 0.00000
24.45840 3.06981 -82.74694 0.00000
24.77286 3.06585 -80.80107 0.00000
25.10023 3.06247 -78.85660 0.00000
25.44169 3.05961 -76.91400 0.00000
25.79799 3.05705 -74.97367 0.00000
26.16940 3.05467 -73.03593 0.00000
26.55604 3.05271 -71.10107 0.00000
26.95785 3.05161 -69.16935 0.00000
27.37422 3.05180 -67.24089 0.00000
27.80370 3.05339 -65.31563 0.00000
28.24404 3.05616 -63.39329 0.00000
28.69227 3.05976 -61.47341 0.00000
29.14487 3.06388 -59.55534 0.00000
29.59881 3.06828 -57.63845 0.00000
30.05306 3.07286 -55.72247 0.00000
30.50856 3.07768 -53.80740 0.00000
30.96742 3.08291 -51.89326 0.00000
31.43183 3.08872 -49.97998 0.00000
31.90367 3.09515 -48.06758 0.00000
32.38496 3.10209 -46.15647 0.00000
32.87815 3.10927 -44.24740 0.00000
33.38536 3.11631 -42.34119 0.00000
33.90768 3.12290 -40.43842 0.00000
34.44531 3.12877 -38.53945 0.00000
34.99811 3.13390 -36.64452 0.00000
35.56586 3.13842 -34.75382 0.00000
36.14823 3.14258 -32.86753 0.00000
36.74455 3.14663 -30.98569 0.00000
37.35381 3.15084 -29.10823 0.00000
37.97504 3.15547 -27.23509 0.00000
38.60763 3.16075 -25.36629 0.00000
39.25134 3.16664 -23.50199 0.00000
39.90604 3.17281 -21.64238 0.00000
40.57165 3.17895 -19.78766 0.00000
41.24808 3.18508 -17.93792 0.00000
41.93501 3.19161 -16.09297 0.00000
42.63170 3.19890 -14.25213 0.00000
43.33702 3.20670 -12.41439 0.00000
44.05011 3.21429 -10.57902 0.00000
44.77076 3.22108 -8.74580 0.00000
45.49929 3.22709 -6.91495 0.00000
46.23622 3.23288 -5.08684 0.00000
46.98184 3.23905 -3.26179 0.00000
47.73617 3.24581 -1.44001 0.00000
48.49912 3.25293 0.37834 0.00000
49.27065 3.26003 2.19309 0.00000
50.05074 3.26683 4.00408 0.00000
50.83931 3.27319 5.81116 0.00000
51.63632 3.27916 7.61410 0.00000
52.44184 3.28493 9.41263 0.00000
53.25587 3.29069 11.20652 0.00000
54.07819 3.29647 12.99576 0.00000
54.90858 3.30207 14.78070 0.00000
55.74708 3.30718 16.56204 0.00000
56.59408 3.31158 18.34080 0.00000
57.45000 3.31531 20.11774 0.00000
58.31498 3.31856 21.89267 0.00000
59.18909 3.32171 23.66485 0.00000
60.07244 3.32519 25.43356 0.00000
60.96500 3.32898 27.19840 0.00000
61.86645 3.33258 28.95930 0.00000
62.77630 3.33537 30.71634 0.00000
63.69426 3.33677 32.46955 0.00000
64.62058 3.33672 34.21868 0.00000
65.55616 3.33547 35.96308 0.00000
66.50267 3.33338 37.70160 0.00000
67.46242 3.33061 39.43270 0.00000
68.43765 3.32715 41.15484 0.00000
69.42975 3.32283 42.86692 0.00000
70.43913 3.31759 44.56833 0.00000
71.46558 3.31154 46.25883 0.00000
72.50812 3.30501 47.93859 0.00000
73.56441 3.29849 49.60862 0.00000
74.63028 3.29225 51.27119 0.00000
75.70079 3.28625 52.92935 0.00000
76.77332 3.28015 54.58537 0.00000
77.84877 3.27358 56.23949 0.00000
78.93017 3.26648 57.89035 0.00000
80.01977 3.25917 59.53671 0.00000
81.11741 3.25218 61.17863 0.00000
82.22181 3.24597 62.81679 0.00000
83.33211 3.24069 64.45158 0.00000
84.44845 3.23614 66.08270 0.00000
85.57223 3.23194 67.70901 0.00000
86.70585 3.22774 69.32863 0.00000
87.85161 3.22346 70.93969 0.00000
89.01017 3.21926 72.54142 0.00000
90.18087 3.21528 74.13403 0.00000
91.36275 3.21147 75.71795 0.00000
92.55495 3.20744 77.29347 0.00000
93.75675 3.20280 78.86081 0.00000
94.96725 3.19728 80.42022 0.00000
96.18536 3.19080 81.97212 0.00000
97.41010 3.18341 83.51703 0.00000
98.64118 3.17524 85.05550 0.00000
99.87903 3.16661 86.58817 0.00000
101.12440 3.15804 88.11531 0.00000
102.37806 3.15010 89.63668 0.00000
103.64059 3.14308 91.15184 0.00000
104.91209 3.13683 92.66048 0.00000
106.19239 3.13094 94.16247 0.00000
107.48123 3.12506 95.65769 0.00000
108.77843 3.11913 97.14602 0.00000
110.08378 3.11324 98.62737 0.00000
111.39700 3.10750 100.10174 0.00000
112.71783 3.10189 101.56907 0.00000
114.04612 3.09646 103.02922 0.00000
115.38182 3.09125 104.48191 0.00000
116.72490 3.08636 105.92682 0.00000
118.07537 3.08187 107.36370 0.00000
119.43331 3.07797 108.79250 0.00000
120.79903 3.07485 110.21350 0.00000
122.17311 3.07261 111.62734 0.00000
123.55624 3.07109 113.03484 0.00000
124.94862 3.06995 114.43634 0.00000
126.34980 3.06888 115.83161 0.00000
127.75913 3.06788 117.22035 0.00000
129.17610 3.06729 118.60236 0.00000
130.60049 3.06747 119.97745 0.00000
132.03234 3.06865 121.34531 0.00000
133.47172 3.07082 122.70568 0.00000
134.91863 3.07377 124.05841 0.00000
136.37304 3.07727 125.40336 0.00000
137.83485 3.08106 126.74045 0.00000
139.30387 3.08495 128.06965 0.00000
140.77991 3.08892 129.39089 0.00000
142.26288 3.09311 130.70394 0.00000
143.75270 3.09775 132.00851 0.00000
145.24930 3.10292 133.30446 0.00000
146.75262 3.10837 134.59198 0.00000
148.26264 3.11358 135.87213 0.00000
149.77939 3.11821 137.14734 0.00000
151.30266 3.12232 138.42121 0.00000
152.83162 3.12643 139.69669 0.00000
154.36429 3.13115 140.97426 0.00000
155.89862 3.13671 142.25320 0.00000
157.43328 3.14285 143.53278 0.00000
158.96772 3.14900 144.81259 0.00000
160.50178 3.15477 146.09247 0.00000
162.03559 3.16008 147.37235 0.00000
163.56937 3.16517 148.65211 0.00000
165.10323 3.17033 149.93170 0.00000
166.63724 3.17570 151.21109 0.00000
168.17148 3.18139 152.49016 0.00000
169.70611 3.18746 153.76872 0.00000
171.24119 3.19391 155.04670 0.00000
172.77663 3.20045 156.32435 0.00000
174.31231 3.20664 157.60212 0.00000
175.84849 3.21222 158.88018 0.00000
177.38562 3.21740 160.15850 0.00000
178.92351 3.22276 161.43726 0.00000
180.46107 3.22869 162.71726 0.00000
181.99686 3.23521 163.99974 0.00000
183.52980 3.24210 165.28567 0.00000
185.05980 3.24914 166.57508 0.00000
186.58767 3.25624 167.86696 0.00000
188.11450 3.26331 169.16003 0.00000
189.64095 3.27023 170.45352 0.00000
191.16723 3.27682 171.74721 0.00000
192.69326 3.28296 173.04121 0.00000
194.21891 3.28865 174.33569 0.00000
195.74405 3.29388 175.63079 0.00000
197.26870 3.29871 176.92645 0.00000
198.79299 3.30341 178.22241 0.00000
200.31703 3.30825 179.51838 0.00000
201.84083 3.31337 180.81423 0.00000
203.36435 3.31859 182.11002 0.00000
204.88752 3.32344 183.40598 0.00000
206.41023 3.32747 184.70242 0.00000
207.93242 3.33036 185.99947 0.00000
209.45427 3.33203 187.29695 0.00000
210.97603 3.33258 188.59453 0.00000
212.49790 3.33226 189.89199 0.00000
214.01992 3.33132 191.18926 0.00000
215.54212 3.32994 192.48632 0.00000
217.06448 3.32814 193.78321 0.00000
218.58685 3.32583 195.08010 0.00000
220.10912 3.32302 196.37714 0.00000
221.63141 3.31990 197.67413 0.00000
223.15413 3.31682 198.97062 0.00000
224.67782 3.31405 200.26594 0.00000
226.20334 3.31157 201.55907 0.00000
227.73167 3.30910 202.84885 0.00000
229.26330 3.30635 204.13467 0.00000
230.79792 3.30312 205.41692 0.00000
232.33451 3.29921 206.69689 0.00000
233.87189 3.29439 207.97609 0.00000
235.40945 3.28832 209.25542 0.00000
236.94699 3.28084 210.53519 0.00000
238.48439 3.27210 211.81548 0.00000
240.02162 3.26273 213.09649 0.00000
241.55885 3.25358 214.37859 0.00000
243.09675 3.24533 215.66210 0.00000
244.63656 3.23813 216.94651 0.00000
246.18011 3.23158 218.22878 0.00000
247.72922 3.22514 219.50065 0.00000
249.28374 3.21835 220.74656 0.00000
250.83970 3.21098 221.94529 0.00000
252.39281 3.20284 223.07602 0.00000
253.94898 3.19373 224.13054 0.00000
255.52087 3.18353 225.11302 0.00000
257.11642 3.17241 226.02966 0.00000
258.73578 3.16111 226.88497 0.00000
260.37253 3.15105 227.68242 0.00000
262.01650 3.14395 228.42597 0.00000
263.65732 3.14071 229.11997 0.00000
265.28947 3.13985 229.76701 0.00000
266.91748 3.13941 230.36679 0.00000
268.55356 3.13758 230.91748 0.00000
270.20720 3.13290 231.41548 0.00000
271.88008 3.12545 231.85564 0.00000
273.56832 3.11539 232.23255 0.00000
275.26741 3.10325 232.54327 0.00000
276.97812 3.09080 232.79162 0.00000
278.71116 3.07898 232.98947 0.00000
280.48673 3.06957 233.14991 0.00000
282.31936 3.06358 233.27816 0.00000
284.20039 3.05999 233.36876 0.00000
286.11039 3.05755 233.41034 0.00000
288.03287 3.05543 233.39401 0.00000
289.95812 3.05336 233.32156 0.00000
291.88227 3.05147 233.20590 0.00000
293.80553 3.04993 233.06172 0.00000
295.73076 3.04877 232.89572 0.00000
297.66323 3.04794 232.70753 0.00000
299.60954 3.04744 232.49442 0.00000
301.57259 3.04729 232.25400 0.00000
303.54744 3.04751 231.98596 0.00000
305.52706 3.04803 231.69419 0.00000
307.50716 3.04874 231.38733 0.00000
309.48650 3.04942 231.07523 0.00000
311.46519 3.04989 230.76431 0.00000
313.44365 3.05022 230.45685 0.00000
315.42215 3.05085 230.15255 0.00000
317.40080 3.05264 229.85013 0.00000
319.37960 3.05661 229.54868 0.00000
321.35860 3.06365 229.24822 0.00000
323.33794 3.07404 228.95000 0.00000
325.31787 3.08726 228.65609 0.00000
327.29854 3.10237 228.36827 0.00000
329.27985 3.11871 228.08642 0.00000
331.26142 3.13631 227.80856 0.00000
333.24305 3.15543 227.53251 0.00000
335.22510 3.17595 227.25728 0.00000
337.20876 3.19736 226.98268 0.00000
339.19607 3.21904 226.70862 0.00000
341.18913 3.24049 226.43481 0.00000
343.18808 3.26132 226.16114 0.00000
345.19090 3.28108 225.88801 0.00000
347.19548 3.29951 225.61586 0.00000
349.20052 3.31674 225.34487 0.00000
351.20549 3.33339 225.07506 0.00000
353.21030 3.35031 224.80628 0.00000
355.21503 3.36812 224.53818 0.00000
357.21969 3.38673 224.27054 0.00000
359.22401 3.40512 224.00341 0.00000
361.22733 3.42178 223.73709 0.00000
363.22856 3.43549 223.47192 0.00000
365.22672 3.44594 223.20781 0.00000
367.22262 3.45384 222.94404 0.00000
369.22180 3.46023 222.67893 0.00000
371.23879 3.46610 222.40919 0.00000
373.29820 3.47222 222.12979 0.00000
375.42483 3.47900 221.83648 0.00000
377.62012 3.48665 221.53164 0.00000
379.86134 3.49491 221.22921 0.00000
382.12124 3.50319 220.95807 0.00000
384.37468 3.51078 220.76297 0.00000
386.59750 3.51722 220.69927 0.00000
388.76722 3.52248 220.82213 0.00000
390.86994 3.52684 221.16541 0.00000
392.90982 3.53103 221.72434 0.00000
394.90709 3.53589 222.47059 0.00000
396.87806 3.54185 223.38687 0.00000
398.82783 3.54912 224.45976 0.00000
400.75872 3.55806 225.65847 0.00000
402.67152 3.56900 226.93961 0.00000
404.55800 3.58151 228.26290 0.00000
406.39557 3.59452 229.59656 0.00000
408.15388 3.60670 230.91552 0.00000
409.81913 3.61730 232.20986 0.00000
411.40918 3.62625 233.49181 0.00000
412.95311 3.63364 234.77751 0.00000
414.47648 3.63987 236.07229 0.00000
415.99971 3.64548 237.36850 0.00000
417.53860 3.65102 238.65173 0.00000
419.10358 3.65699 239.90904 0.00000
420.69914 3.66344 241.13341 0.00000
422.32539 3.67014 242.32250 0.00000
423.97786 3.67651 243.47686 0.00000
425.64570 3.68202 244.59883 0.00000
427.31141 3.68639 245.69224 0.00000
428.95793 3.68994 246.76230 0.00000
430.58160 3.69312 247.81751 0.00000
432.18105 3.69674 248.86370 0.00000
433.75911 3.70110 249.90999 0.00000
435.32612 3.70549 250.97215 0.00000
436.89045 3.70801 252.06365 0.00000
438.45691 3.70712 253.18923 0.00000
440.02811 3.70227 254.34534 0.00000
441.60416 3.69459 255.52837 0.00000
443.18305 3.68594 256.73840 0.00000
444.76286 3.67840 257.97532 0.00000
446.34227 3.67256 259.23813 0.00000
447.91964 3.66763 260.52713 0.00000
449.49379 3.66279 261.84238 0.00000
451.06528 3.65779 263.18130 0.00000
452.63572 3.65316 264.53992 0.00000
454.20666 3.64980 265.91399 0.00000
455.77895 3.64811 267.29802 0.00000
457.35115 3.64755 268.68445 0.00000
458.91800 3.64664 270.06372 0.00000
460.47041 3.64498 271.42665 0.00000
462.00160 3.64243 272.77055 0.00000
463.51435 3.63889 274.10158 0.00000
465.01676 3.63399 275.42682 0.00000
466.51572 3.62836 276.75063 0.00000
468.01376 3.62203 278.07656 0.00000
469.50953 3.61543 279.40826 0.00000
471.00111 3.60826 280.74786 0.00000
472.48855 3.60073 282.09441 0.00000
473.97351 3.59262 283.44507 0.00000
475.45784 3.58423 284.79704 0.00000
476.94285 3.57591 286.14840 0.00000
478.42971 3.56761 287.49766 0.00000
479.92006 3.55937 288.84313 0.00000
481.41523 3.55109 290.18433 0.00000
482.91528 3.54277 291.52347 0.00000
484.41981 3.53443 292.86405 0.00000
485.92869 3.52591 294.20775 0.00000
487.43985 3.51706 295.55227 0.00000
488.94915 3.50803 296.89179 0.00000
490.45651 3.49915 298.22354 0.00000
491.96454 3.49069 299.54751 0.00000
493.47535 3.48269 300.86485 0.00000
494.98898 3.47498 302.17778 0.00000
496.50410 3.46741 303.48848 0.00000
498.01918 3.45995 304.79828 0.00000
499.53307 3.45266 306.10780 0.00000
501.04527 3.44553 307.41756 0.00000
502.55597 3.43843 308.72798 0.00000
504.06575 3.43107 310.03901 0.00000
505.57537 3.42331 311.35013 0.00000
507.08547 3.41542 312.66078 0.00000
508.59630 3.40801 313.97064 0.00000
510.10771 3.40188 315.27987 0.00000
511.61945 3.39753 316.58874 0.00000
513.13172 3.39491 317.89702 0.00000
514.64540 3.39351 319.20366 0.00000
516.16207 3.39253 320.50682 0.00000
517.68308 3.39118 321.80491 0.00000
519.20880 3.38894 323.09753 0.00000
520.73879 3.38567 324.38519 0.00000
522.27175 3.38158 325.66938 0.00000
523.80620 3.37704 326.95183 0.00000
525.34110 3.37250 328.23377 0.00000
526.87591 3.36828 329.51582 0.00000
528.41032 3.36450 330.79833 0.00000
529.94405 3.36115 332.08162 0.00000
531.47678 3.35828 333.36607 0.00000
533.00829 3.35607 334.65194 0.00000
534.53836 3.35482 335.93949 0.00000
536.06687 3.35473 337.22888 0.00000
537.59401 3.35563 338.51989 0.00000
539.12014 3.35715 339.81211 0.00000
540.64541 3.35895 341.10532 0.00000
542.16985 3.36126 342.39937 0.00000
543.69348 3.36480 343.69400 0.00000
545.21638 3.36988 344.98881 0.00000
546.73872 3.37636 346.28347 0.00000
548.26072 3.38396 347.57792 0.00000
549.78261 3.39237 348.87222 0.00000
551.30449 3.40134 350.16644 0.00000
552.82640 3.41069 351.46064 0.00000
554.34833 3.42037 352.75486 0.00000
555.87023 3.43036 354.04918 0.00000
557.39204 3.44062 355.34366 0.00000
558.91368 3.45108 356.63836 0.00000
560.43523 3.46170 357.93318 0.00000
561.95705 3.47244 359.22769 0.00000
563.48005 3.48327 360.52084 0.00000
565.00568 3.49406 361.81090 0.00000
566.53535 3.50475 363.09627 0.00000
568.06957 3.51540 364.37632 0.00000
569.60801 3.52610 365.65137 0.00000
571.14968 3.53686 366.92242 0.00000
572.69301 3.54747 368.19111 0.00000
574.23596 3.55757 369.45961 0.00000
575.77635 3.56697 370.73062 0.00000
577.31252 3.57584 372.00728 0.00000
578.84430 3.58468 373.29274 0.00000
580.37323 3.59412 374.59037 0.00000
581.90157 3.60464 375.90291 0.00000
583.43009 3.61636 377.22989 0.00000
584.95844 3.62926 378.56758 0.00000
586.48600 3.64333 379.91249 0.00000
588.01093 3.65866 381.26404 0.00000
589.52916 3.67514 382.62536 0.00000
591.03497 3.69217 384.00192 0.00000
592.52293 3.70851 385.39877 0.00000
593.98950 3.72262 386.81876 0.00000
595.43282 3.73365 388.26273 0.00000
596.85231 3.74178 389.73008 0.00000
598.24860 3.74803 391.21896 0.00000
599.62398 3.75358 392.72604 0.00000
600.98296 3.75949 394.24614 0.00000
602.33156 3.76643 395.77290 0.00000
603.67477 3.77445 397.30142 0.00000
605.01480 3.78307 398.83001 0.00000
606.35105 3.79171 400.36025 0.00000
607.68150 3.80011 401.89570 0.00000
609.00394 3.80862 403.44001 0.00000
610.31519 3.81793 404.99665 0.00000
611.61040 3.82847 406.56947 0.00000
612.88389 3.83987 408.16225 0.00000
614.13184 3.85121 409.77701 0.00000
615.35466 3.86153 411.41231 0.00000
616.55711 3.87054 413.06351 0.00000
617.74591 3.87862 414.72476 0.00000
618.92595 3.88653 416.39184 0.00000
620.09952 3.89512 418.06273 0.00000
621.26713 3.90500 419.73680 0.00000
622.42848 3.91633 421.41402 0.00000
623.58268 3.92876 423.09475 0.00000
624.72821 3.94145 424.77967 0.00000
625.86266 3.95354 426.46995 0.00000
626.98295 3.96441 428.16715 0.00000
628.08590 3.97388 429.87312 0.00000
629.16858 3.98210 431.58998 0.00000
630.22862 3.98936 433.32000 0.00000
631.26488 3.99611 435.06481 0.00000
632.27863 4.00285 436.82408 0.00000
633.27350 4.01011 438.59562 0.00000
634.25351 4.01825 440.37673 0.00000
635.22092 4.02728 442.16565 0.00000
636.17640 4.03698 443.96157 0.00000
637.12012 4.04703 445.76402 0.00000
638.05252 4.05723 447.57243 0.00000
638.97474 4.06763 449.38593 0.00000
639.88829 4.07843 451.20350 0.00000
640.79407 4.08970 453.02450 0.00000
641.69235 4.10124 454.84863 0.00000
642.58320 4.11273 456.67569 0.00000
643.46668 4.12401 458.50543 0.00000
644.34286 4.13526 460.33748 0.00000
645.21149 4.14687 462.17128 0.00000
646.07180 4.15913 464.00622 0.00000
646.92226 4.17199 465.84199 0.00000
647.76122 4.18505 467.67930 0.00000
648.58740 4.19783 469.52019 0.00000
649.39925 4.21006 471.36691 0.00000
650.19500 4.22143 473.22113 0.00000
650.97310 4.23177 475.08374 0.00000
651.73269 4.24096 476.95490 0.00000
652.47365 4.24928 478.83434 0.00000
653.19642 4.25712 480.72153 0.00000
653.90204 4.26464 482.61574 0.00000
654.59242 4.27173 484.51596 0.00000
655.27001 4.27818 486.42105 0.00000
655.93669 4.28375 488.33010 0.00000
656.59341 4.28825 490.24262 0.00000
657.24074 4.29167 492.15824 0.00000
657.87989 4.29400 494.07642 0.00000
658.51317 4.29532 495.99622 0.00000
659.14334 4.29583 497.91657 0.00000
659.77240 4.29575 499.83673 0.00000
660.40132 4.29531 501.75638 0.00000
661.03039 4.29458 503.67550 0.00000
661.65962 4.29340 505.59417 0.00000
662.28896 4.29135 507.51241 0.00000
662.91841 4.28795 509.42996 0.00000
663.54790 4.28294 511.34612 0.00000
664.17711 4.27657 513.25965 0.00000
664.80517 4.26961 515.16918 0.00000
665.43089 4.26293 517.07458 0.00000
666.05287 4.25702 518.97764 0.00000
666.66947 4.25163 520.88069 0.00000
667.27950 4.24609 522.78533 0.00000
667.88311 4.23996 524.69205 0.00000
668.48142 4.23322 526.60063 0.00000
669.07551 4.22604 528.51068 0.00000
669.66663 4.21852 530.42173 0.00000
670.25610 4.21051 532.33331 0.00000
670.84497 4.20181 534.24507 0.00000
671.43376 4.19251 536.15685 0.00000
672.02265 4.18312 538.06859 0.00000
672.61164 4.17427 539.98032 0.00000
673.20062 4.16633 541.89204 0.00000
673.78954 4.15902 543.80379 0.00000
674.37844 4.15141 545.71554 0.00000
674.96758 4.14249 547.62721 0.00000
675.55756 4.13170 549.53863 0.00000
676.14925 4.11935 551.44950 0.00000
676.74327 4.10649 553.35966 0.00000
677.33905 4.09421 555.26928 0.00000
677.93524 4.08332 557.17878 0.00000
678.53149 4.07406 559.08826 0.00000
679.12817 4.06616 560.99759 0.00000
679.72443 4.05895 562.90705 0.00000
680.31877 4.05161 564.81711 0.00000
680.91062 4.04357 566.72795 0.00000
681.49993 4.03476 568.63958 0.00000
682.08626 4.02549 570.55215 0.00000
682.66875 4.01615 572.46589 0.00000
683.24758 4.00689 574.38065 0.00000
683.82500 3.99753 576.29565 0.00000
684.40398 3.98776 578.20994 0.00000
684.98656 3.97745 580.12295 0.00000
685.57259 3.96681 582.03482 0.00000
686.16067 3.95627 583.94603 0.00000
686.74958 3.94610 585.85699 0.00000
687.33861 3.93625 587.76794 0.00000
687.92758 3.92647 589.67892 0.00000
688.51649 3.91657 591.58993 0.00000
689.10537 3.90663 593.50094 0.00000
689.69425 3.89690 595.41195 0.00000
690.28315 3.88770 597.32296 0.00000
690.87206 3.87923 599.23398 0.00000
691.46097 3.87144 601.14500 0.00000
692.04986 3.86397 603.05602 0.00000
692.63875 3.85638 604.96703 0.00000
693.22764 3.84827 606.87802 0.00000
693.81653 3.83955 608.78901 0.00000
694.40546 3.83040 610.70000 0.00000
694.99448 3.82121 612.61097 0.00000
695.58367 3.81223 614.52189 0.00000
696.17306 3.80345 616.43277 0.00000
696.76248 3.79480 618.34364 0.00000
697.35134 3.78615 620.25467 0.00000
697.93828 3.77738 622.16629 0.00000
698.52111 3.76827 624.07919 0.00000
699.09749 3.75847 625.99409 0.00000
699.66673 3.74777 627.91123 0.00000
700.23048 3.73629 629.83008 0.00000
700.79175 3.72438 631.74970 0.00000
701.35292 3.71244 633.66939 0.00000
701.91471 3.70073 635.58901 0.00000
702.47719 3.68933 637.50857 0.00000
703.04086 3.67822 639.42791 0.00000
703.60726 3.66739 641.34649 0.00000
704.17894 3.65687 643.26345 0.00000
704.75836 3.64667 645.17801 0.00000
705.34693 3.63681 647.08971 0.00000
705.94456 3.62729 648.99860 0.00000
706.54963 3.61807 650.90516 0.00000
707.15925 3.60910 652.81030 0.00000
707.76996 3.60030 654.71512 0.00000
708.37854 3.59165 656.62060 0.00000
708.98242 3.58318 658.52755 0.00000
709.58058 3.57497 660.43624 0.00000
710.17372 3.56712 662.34643 0.00000
710.76374 3.55972 664.25755 0.00000
711.35248 3.55286 666.16915 0.00000
711.94109 3.54655 668.08118 0.00000
712.53011 3.54083 669.99392 0.00000
713.11971 3.53570 671.90772 0.00000
713.70978 3.53118 673.82254 0.00000
714.30009 3.52728 675.73803 0.00000
714.89040 3.52396 677.65387 0.00000
715.48053 3.52114 679.56988 0.00000
716.07040 3.51871 681.48599 0.00000
716.66023 3.51659 683.40216 0.00000
717.25078 3.51478 685.31819 0.00000
717.84364 3.51344 687.23364 0.00000
718.44094 3.51279 689.14786 0.00000
719.04416 3.51304 691.06044 0.00000
719.65269 3.51419 692.97156 0.00000
720.26444 3.51610 694.88185 0.00000
720.87755 3.51875 696.79188 0.00000
721.49090 3.52218 698.70199 0.00000
722.10410 3.52636 700.61228 0.00000
722.71713 3.53113 702.52277 0.00000
723.33015 3.53632 704.43340 0.00000
723.94333 3.54175 706.34407 0.00000
724.55675 3.54739 708.25467 0.00000
725.17025 3.55326 710.16519 0.00000
725.78319 3.55942 712.07585 0.00000
726.39420 3.56594 713.98740 0.00000
727.00138 3.57291 715.90133 0.00000
727.60329 3.58041 717.81977 0.00000
728.19939 3.58853 719.74476 0.00000
728.78935 3.59726 721.67673 0.00000
729.37266 3.60643 723.61443 0.00000
729.94857 3.61591 725.55648 0.00000
730.51555 3.62569 727.50227 0.00000
731.07073 3.63571 729.45200 0.00000
731.61027 3.64585 731.40638 0.00000
732.13070 3.65618 733.36613 0.00000
732.63024 3.66680 735.33150 0.00000
733.10974 3.67779 737.30208 0.00000
733.57265 3.68919 739.27684 0.00000
734.02457 3.70098 741.25430 0.00000
734.47064 3.71321 743.23313 0.00000
734.91267 3.72588 745.21290 0.00000
735.35013 3.73902 747.19376 0.00000
735.78185 3.75260 749.17598 0.00000
736.20561 3.76652 751.15991 0.00000
736.61878 3.78062 753.14545 0.00000
737.02123 3.79474 755.13101 0.00000
737.41616 3.80878 757.11320 0.00000
737.80681 3.82273 759.08852 0.00000
738.19547 3.83664 761.05652 0.00000
738.58364 3.85058 763.01981 0.00000
738.97198 3.86455 764.98112 0.00000
739.36072 3.87856 766.94209 0.00000
739.74965 3.89258 768.90340 0.00000
740.13810 3.90660 770.86521 0.00000
740.52468 3.92060 772.82757 0.00000
740.90728 3.93454 774.79050 0.00000
741.28366 3.94842 776.75390 0.00000
741.65208 3.96221 778.71745 0.00000
742.01155 3.97593 780.68109 0.00000
742.36285 3.98964 782.64614 0.00000
742.70980 4.00346 784.61717 0.00000
743.05888 4.01751 786.60399 0.00000
743.41775 4.03175 788.62019 0.00000
743.79203 4.04584 790.67274 0.00000
744.17984 4.05904 792.75461 0.00000
744.56666 4.07029 794.86931 0.00000
744.91737 4.07860 797.05818 0.00000
745.16951 4.08359 799.40367 0.00000
745.23495 4.08544 801.98333 0.00000
745.01705 4.08465 804.75873 0.00000
744.45714 4.08233 807.55798 0.00000
743.55315 4.07979 810.19648 0.00000
742.30990 4.07771 812.55968 0.00000
740.71310 4.07621 814.63110 0.00000
738.76839 4.07569 816.45875 0.00000
736.54768 4.07651 818.07665 0.00000
734.19463 4.07852 819.47935 0.00000
731.88067 4.08091 820.64953 0.00000
729.69750 4.08267 821.60399 0.00000
727.62712 4.08334 822.40464 0.00000
725.63213 4.08251 823.10525 0.00000
723.68288 4.08030 823.74668 0.00000
721.75907 4.07692 824.36028 0.00000
719.84561 4.07274 824.95825 0.00000
717.93140 4.06777 825.53877 0.00000
716.01152 4.06214 826.10001 0.00000
714.08649 4.05564 826.64782 0.00000
712.15846 4.04840 827.18895 0.00000
710.22868 4.04044 827.72566 0.00000
708.29732 4.03225 828.25653 0.00000
706.36419 4.02406 828.77995 0.00000
704.42930 4.01621 829.29561 0.00000
702.49249 4.00865 829.80293 0.00000
700.55340 4.00158 830.30063 0.00000
698.61180 3.99488 830.78798 0.00000
696.66795 3.98861 831.26608 0.00000
694.72258 3.98246 831.73803 0.00000
692.77659 3.97644 832.20726 0.00000
690.83062 3.97034 832.67605 0.00000
688.88491 3.96434 833.14504 0.00000
686.93961 3.95828 833.61432 0.00000
684.99492 3.95230 834.08414 0.00000
683.05097 3.94626 834.55497 0.00000
681.10774 3.94030 835.02702 0.00000
679.16491 3.93424 835.49942 0.00000
677.22169 3.92817 835.96918 0.00000
675.27633 3.92181 836.42970 0.00000
673.32624 3.91501 836.87116 0.00000
671.36908 3.90721 837.28457 0.00000
669.40393 3.89827 837.66593 0.00000
667.43014 3.88793 838.01129 0.00000
665.44706 3.87542 838.31525 0.00000
663.45717 3.86056 838.58398 0.00000
661.46570 3.84442 838.83734 0.00000
659.47571 3.82915 839.09615 0.00000
657.48900 3.81629 839.37603 0.00000
655.50796 3.80644 839.68626 0.00000
653.53371 3.79856 840.02810 0.00000
651.56531 3.79146 840.39528 0.00000
649.60082 3.78429 840.77876 0.00000
647.63908 3.77662 841.17332 0.00000
645.68036 3.76845 841.57949 0.00000
643.72551 3.76008 841.99900 0.00000
641.77522 3.75183 842.43148 0.00000
639.83030 3.74387 842.87598 0.00000
637.89107 3.73619 843.33200 0.00000
635.95676 3.72873 843.79949 0.00000
634.02635 3.72145 844.27856 0.00000
632.09912 3.71438 844.76924 0.00000
630.17450 3.70752 845.27050 0.00000
628.25178 3.70085 845.77995 0.00000
626.32997 3.69425 846.29381 0.00000
624.40820 3.68745 846.80854 0.00000
622.48602 3.68003 847.32229 0.00000
620.56338 3.67149 847.83472 0.00000
618.64039 3.66153 848.34634 0.00000
616.71715 3.65017 848.85757 0.00000
614.79366 3.63774 849.36838 0.00000
612.87003 3.62473 849.87931 0.00000
610.94655 3.61150 850.39124 0.00000
609.02351 3.59825 850.90515 0.00000
607.10151 3.58508 851.42299 0.00000
605.18115 3.57204 851.94675 0.00000
603.26256 3.55912 852.47689 0.00000
601.34561 3.54630 853.01287 0.00000
599.43013 3.53354 853.55390 0.00000
597.51585 3.52080 854.09896 0.00000
595.60237 3.50806 854.64672 0.00000
593.68933 3.49526 855.19601 0.00000
591.77672 3.48241 855.74661 0.00000
589.86490 3.46953 856.29970 0.00000
587.95450 3.45671 856.85727 0.00000
586.04605 3.44405 857.42114 0.00000
584.13991 3.43166 857.99255 0.00000
582.23620 3.41965 858.57223 0.00000
580.33486 3.40797 859.16016 0.00000
578.43568 3.39640 859.75560 0.00000
576.53854 3.38486 860.35794 0.00000
574.64347 3.37323 860.96715 0.00000
572.75061 3.36130 861.58343 0.00000
570.85994 3.34906 862.20660 0.00000
568.97112 3.33668 862.83553 0.00000
567.08344 3.32429 863.46809 0.00000
565.19603 3.31192 864.10163 0.00000
563.30801 3.29959 864.73341 0.00000
561.41849 3.28723 865.36064 0.00000
559.52702 3.27477 865.98150 0.00000
557.63391 3.26219 866.59620 0.00000
555.73983 3.24949 867.20608 0.00000
553.84526 3.23670 867.81331 0.00000
551.94944 3.22385 868.42018 0.00000
550.04944 3.21093 869.02922 0.00000
548.14022 3.19796 869.64368 0.00000
546.21706 3.18491 870.26680 0.00000
544.28089 3.17180 870.89902 0.00000
542.33712 3.15869 871.53774 0.00000
540.39060 3.14559 872.18020 0.00000
538.44401 3.13254 872.82472 0.00000
536.49811 3.11972 873.46952 0.00000
534.55226 3.10730 874.11059 0.00000
532.60468 3.09531 874.73962 0.00000
530.65274 3.08347 875.34398 0.00000
528.69314 3.07142 875.91021 0.00000
526.72197 3.05929 876.42954 0.00000
524.73378 3.04778 876.90096 0.00000
522.72098 3.03731 877.32938 0.00000
520.67660 3.02799 877.71828 0.00000
518.59978 3.01949 878.06365 0.00000
516.49468 3.01132 878.35484 0.00000
514.36750 3.00305 878.58013 0.00000
512.22528 2.99433 878.73031 0.00000
510.07556 2.98499 878.80140 0.00000
507.92596 2.97508 878.79666 0.00000
505.78340 2.96481 878.72406 0.00000
503.65298 2.95445 878.59099 0.00000
501.53688 2.94424 878.40188 0.00000
499.43323 2.93430 878.15858 0.00000
497.33632 2.92469 877.86116 0.00000
495.24065 2.91544 877.50875 0.00000
493.14488 2.90651 877.09961 0.00000
491.05234 2.89782 876.63057 0.00000
488.96986 2.88913 876.09669 0.00000
486.90633 2.88019 875.49244 0.00000
484.87052 2.87088 874.81531 0.00000
482.86893 2.86127 874.06846 0.00000
480.90469 2.85149 873.25855 0.00000
478.97668 2.84167 872.39223 0.00000
477.07983 2.83196 871.47273 0.00000
475.20925 2.82233 870.49469 0.00000
473.36368 2.81250 869.44970 0.00000
471.54391 2.80230 868.33591 0.00000
469.75112 2.79181 867.15849 0.00000
467.98766 2.78134 865.92457 0.00000
466.25798 2.77105 864.63950 0.00000
464.56852 2.76093 863.30628 0.00000
462.92657 2.75091 861.92696 0.00000
461.33868 2.74087 860.50422 0.00000
459.80945 2.73070 859.04125 0.00000
458.34060 2.72033 857.53995 0.00000
456.92984 2.70977 855.99887 0.00000
455.57137 2.69918 854.41439 0.00000
454.25850 2.68871 852.78616 0.00000
452.98442 2.67863 851.11884 0.00000
451.74303 2.66923 849.41935 0.00000
450.52822 2.66072 847.69539 0.00000
449.33179 2.65317 845.95610 0.00000
448.14529 2.64643 844.21142 0.00000
446.96483 2.64022 842.47037 0.00000
445.79194 2.63421 840.74184 0.00000
444.63109 2.62811 839.03428 0.00000
443.48421 2.62192 837.35028 0.00000
442.34765 2.61587 835.68321 0.00000
441.21703 2.61041 834.02374 0.00000
440.09088 2.60626 832.36448 0.00000
438.97084 2.60358 830.70090 0.00000
437.85987 2.60208 829.03105 0.00000
436.75987 2.60154 827.35435 0.00000
435.67113 2.60122 825.67106 0.00000
434.59271 2.60079 823.98200 0.00000
433.52353 2.60041 822.28789 0.00000
432.46290 2.60036 820.58909 0.00000
431.41012 2.60098 818.88597 0.00000
430.36435 2.60228 817.17899 0.00000
429.32498 2.60392 815.46848 0.00000
428.29172 2.60519 813.75462 0.00000
427.26447 2.60498 812.03745 0.00000
426.24330 2.60214 810.31693 0.00000
425.22854 2.59615 808.59285 0.00000
424.22098 2.58747 806.86474 0.00000
423.22158 2.57708 805.13206 0.00000
422.23095 2.56585 803.39442 0.00000
421.24928 2.55429 801.65176 0.00000
420.27648 2.54280 799.90413 0.00000
419.31235 2.53150 798.15168 0.00000
418.35667 2.52046 796.39456 0.00000
417.40980 2.50975 794.63255 0.00000
416.47346 2.49914 792.86457 0.00000
415.55197 2.48820 791.08812 0.00000
414.65265 2.47661 789.29914 0.00000
413.78438 2.46448 787.49288 0.00000
412.95429 2.45259 785.66569 0.00000
412.16125 2.44192 783.81831 0.00000
411.39083 2.43361 781.95820 0.00000
410.62132 2.42833 780.09714 0.00000
409.83329 2.42641 778.24616 0.00000
409.01339 2.42776 776.41300 0.00000
408.15689 2.43182 774.60052 0.00000
407.26659 2.43780 772.80723 0.00000
406.34904 2.44497 771.02946 0.00000
405.41200 2.45268 769.26280 0.00000
404.46245 2.46050 767.50331 0.00000
403.50266 2.46809 765.74966 0.00000
402.52918 2.47517 764.00384 0.00000
401.53667 2.48152 762.26896 0.00000
400.52439 2.48716 760.54548 0.00000
399.49824 2.49231 758.82999 0.00000
398.46609 2.49726 757.11791 0.00000
397.43405 2.50221 755.40566 0.00000
396.40569 2.50729 753.69113 0.00000
395.38217 2.51253 751.97364 0.00000
394.36253 2.51790 750.25403 0.00000
393.34515 2.52334 748.53404 0.00000
392.32941 2.52884 746.81556 0.00000
391.31589 2.53441 745.10021 0.00000
390.30526 2.54008 743.38840 0.00000
389.29735 2.54590 741.67877 0.00000
388.29125 2.55189 739.96975 0.00000
387.28585 2.55805 738.26050 0.00000
386.28036 2.56437 736.55075 0.00000
385.27451 2.57084 734.84044 0.00000
384.26824 2.57746 733.12965 0.00000
383.26155 2.58424 731.41847 0.00000
382.25435 2.59114 729.70708 0.00000
381.24645 2.59819 727.99564 0.00000
380.23763 2.60536 726.28430 0.00000
379.22767 2.61265 724.57320 0.00000
378.21612 2.62005 722.86259 0.00000
377.20212 2.62752 721.15308 0.00000
376.18428 2.63501 719.44565 0.00000
375.16083 2.64244 717.74156 0.00000
374.12986 2.64971 716.04216 0.00000
373.08944 2.65675 714.34884 0.00000
372.03731 2.66345 712.66325 0.00000
370.97017 2.66970 710.98775 0.00000
369.88349 2.67540 709.32557 0.00000
368.77298 2.68050 707.67992 0.00000
367.63719 2.68509 706.05262 0.00000
366.47866 2.68928 704.44378 0.00000
365.30237 2.69310 702.85334 0.00000
364.11297 2.69639 701.28258 0.00000
362.91279 2.69894 699.73272 0.00000
361.70117 2.70063 698.20227 0.00000
360.47774 2.70148 696.68755 0.00000
359.24508 2.70163 695.18332 0.00000
358.00310 2.70101 693.68722 0.00000
356.74233 2.69921 692.20427 0.00000
355.44533 2.69574 690.74594 0.00000
354.09452 2.69047 689.32710 0.00000
352.68012 2.68396 687.96862 0.00000
351.21198 2.67737 686.70340 0.00000
349.73873 2.67193 685.57587 0.00000
348.34917 2.66836 684.63260 0.00000
347.11689 2.66619 683.89265 0.00000
346.01922 2.66464 683.32059 0.00000
344.98583 2.66342 682.86688 0.00000
343.96617 2.66229 682.50372 0.00000
342.93836 2.66102 682.22449 0.00000
341.88917 2.66008 682.03006 0.00000
340.79678 2.66013 681.92233 0.00000
339.63965 2.66089 681.90775 0.00000
338.41540 2.66215 681.99996 0.00000
337.13859 2.66431 682.21950 0.00000
335.82214 2.66770 682.59546 0.00000
334.45940 2.67230 683.16914 0.00000
333.02979 2.67804 683.98627 0.00000
331.54811 2.68371 685.05542 0.00000
330.06880 2.68782 686.31985 0.00000
328.62565 2.68976 687.70100 0.00000
327.23096 2.68938 689.14553 0.00000
325.87777 2.68722 690.62146 0.00000
324.54725 2.68435 692.10700 0.00000
323.22647 2.68167 693.59385 0.00000
321.91189 2.67978 695.08318 0.00000
320.60270 2.67911 696.57695 0.00000
319.29699 2.67989 698.07437 0.00000
317.99453 2.68223 699.57526 0.00000
316.69740 2.68597 701.08130 0.00000
315.40835 2.69079 702.59484 0.00000
314.12959 2.69638 704.11790 0.00000
312.86192 2.70238 705.65147 0.00000
311.60407 2.70854 707.19464 0.00000
310.35309 2.71468 708.74467 0.00000
309.10526 2.72063 710.29780 0.00000
307.85783 2.72620 711.85122 0.00000
306.60955 2.73126 713.40365 0.00000
305.36002 2.73594 714.95465 0.00000
304.10932 2.74064 716.50423 0.00000
302.85765 2.74602 718.05263 0.00000
301.60525 2.75275 719.60010 0.00000
300.35221 2.76100 721.14676 0.00000
299.09856 2.77013 722.69263 0.00000
297.84418 2.77889 724.23764 0.00000
296.58892 2.78577 725.78170 0.00000
295.33274 2.78956 727.32483 0.00000
294.07568 2.78982 728.86712 0.00000
292.81791 2.78688 730.40862 0.00000
291.55976 2.78165 731.94935 0.00000
290.30182 2.77526 733.48935 0.00000
289.04479 2.76880 735.02848 0.00000
287.78888 2.76294 736.56637 0.00000
286.53250 2.75772 738.10240 0.00000
285.27028 2.75264 739.63604 0.00000
283.99122 2.74689 741.16799 0.00000
282.68093 2.73968 742.70218 0.00000
281.32958 2.73072 744.24634 0.00000
279.94073 2.72060 745.80448 0.00000
278.52351 2.71056 747.36949 0.00000
277.08101 2.70163 748.92703 0.00000
275.60984 2.69436 750.46072 0.00000
274.10562 2.68879 751.95731 0.00000
272.56788 2.68480 753.41063 0.00000
270.99867 2.68213 754.82052 0.00000
269.39777 2.68021 756.18888 0.00000
267.75937 2.67826 757.51687 0.00000
266.07282 2.67561 758.80245 0.00000
264.32869 2.67194 760.03776 0.00000
262.52272 2.66728 761.21125 0.00000
260.65738 2.66187 762.31376 0.00000
258.74185 2.65602 763.34356 0.00000
256.78982 2.64991 764.30680 0.00000
254.81530 2.64372 765.21263 0.00000
252.82804 2.63774 766.06539 0.00000
250.83182 2.63236 766.86202 0.00000
248.82483 2.62786 767.59555 0.00000
246.80007 2.62425 768.25879 0.00000
244.74798 2.62135 768.84675 0.00000
242.66272 2.61899 769.35801 0.00000
240.54499 2.61706 769.79412 0.00000
238.40052 2.61556 770.15774 0.00000
236.23735 2.61444 770.45046 0.00000
234.06413 2.61360 770.67251 0.00000
231.88943 2.61287 770.82360 0.00000
229.72110 2.61228 770.90366 0.00000
227.56509 2.61214 770.91307 0.00000
225.42368 2.61306 770.85243 0.00000
223.29387 2.61548 770.72213 0.00000
221.16834 2.61956 770.52238 0.00000
219.04043 2.62496 770.25377 0.00000
216.90810 2.63117 769.91801 0.00000
214.77375 2.63763 769.51770 0.00000
212.64259 2.64396 769.05520 0.00000
210.52130 2.64997 768.53192 0.00000
208.41710 2.65576 767.94805 0.00000
206.33708 2.66165 767.30184 0.00000
204.28735 2.66794 766.58862 0.00000
202.27161 2.67472 765.80116 0.00000
200.28981 2.68186 764.93154 0.00000
198.34003 2.68909 763.97523 0.00000
196.42192 2.69625 762.93605 0.00000
194.53593 2.70351 761.82795 0.00000
192.68336 2.71127 760.67243 0.00000
190.87068 2.71965 759.48902 0.00000
189.11055 2.72822 758.28714 0.00000
187.41138 2.73639 757.06243 0.00000
185.77032 2.74424 755.79963 0.00000
184.18169 2.75177 754.48446 0.00000
182.64039 2.75882 753.11129 0.00000
181.13865 2.76531 751.68644 0.00000
179.66218 2.77146 750.22825 0.00000
178.19155 2.77764 748.76145 0.00000
176.70846 2.78414 747.30806 0.00000
175.19894 2.79112 745.88447 0.00000
173.65765 2.79858 744.49913 0.00000
172.09113 2.80640 743.15167 0.00000
170.51504 2.81442 741.83607 0.00000
168.94493 2.82247 740.54337 0.00000
167.38515 2.83060 739.26349 0.00000
165.83249 2.83913 737.98837 0.00000
164.28302 2.84825 736.71330 0.00000
162.73541 2.85734 735.43530 0.00000
161.19123 2.86582 734.15195 0.00000
159.65378 2.87339 732.86071 0.00000
158.12748 2.87968 731.55803 0.00000
156.61637 2.88433 730.24041 0.00000
155.12064 2.88642 728.90784 0.00000
153.63570 2.88482 727.56488 0.00000
152.15744 2.87893 726.21552 0.00000
150.68506 2.86910 724.86049 0.00000
149.21888 2.85637 723.49939 0.00000
147.75844 2.84218 722.13261 0.00000
146.30444 2.82745 720.75939 0.00000
144.85849 2.81262 719.37807 0.00000
143.42041 2.79758 717.98878 0.00000
141.98742 2.78185 716.59430 0.00000
140.55650 2.76514 715.19767 0.00000
139.12622 2.74770 713.80030 0.00000
137.69676 2.73050 712.40201 0.00000
136.26950 2.71492 711.00142 0.00000
134.84649 2.70179 709.59641 0.00000
133.42937 2.69097 708.18523 0.00000
132.01837 2.68120 706.76757 0.00000
130.61258 2.67091 705.34433 0.00000
129.21132 2.65980 703.91618 0.00000
127.81454 2.64908 702.48311 0.00000
126.42265 2.64076 701.04465 0.00000
125.03644 2.63640 699.59995 0.00000
123.65697 2.63607 698.14792 0.00000
122.28521 2.63891 696.68759 0.00000
120.92137 2.64397 695.21898 0.00000
119.56419 2.65048 693.74381 0.00000
118.21110 2.65825 692.26512 0.00000
116.85916 2.66705 690.78591 0.00000
115.50635 2.67640 689.30798 0.00000
114.15144 2.68614 687.83237 0.00000
112.79287 2.69599 686.36054 0.00000
111.42820 2.70561 684.89496 0.00000
110.05472 2.71464 683.43839 0.00000
108.66989 2.72275 681.99342 0.00000
107.27183 2.72991 680.56202 0.00000
105.86055 2.73642 679.14426 0.00000
104.43844 2.74272 677.73780 0.00000
103.00972 2.74917 676.33830 0.00000
101.57855 2.75579 674.94144 0.00000
100.14718 2.76243 673.54484 0.00000
98.71633 2.76886 672.14770 0.00000
97.28598 2.77497 670.75002 0.00000
95.85601 2.78088 669.35195 0.00000
94.42627 2.78692 667.95366 0.00000
92.99644 2.79353 666.55552 0.00000
91.56611 2.80092 665.15792 0.00000
90.13518 2.80891 663.76091 0.00000
88.70370 2.81684 662.36443 0.00000
87.27138 2.82397 660.96877 0.00000
85.83775 2.82982 659.57443 0.00000
84.40247 2.83427 658.18177 0.00000
82.96546 2.83754 656.79086 0.00000
81.52691 2.84030 655.40154 0.00000
80.08708 2.84352 654.01353 0.00000
78.64631 2.84820 652.62649 0.00000
77.20504 2.85476 651.23994 0.00000
75.76367 2.86283 649.85349 0.00000
74.32246 2.87139 648.46689 0.00000
72.88148 2.87935 647.08007 0.00000
71.44060 2.88591 645.69316 0.00000
69.99963 2.89088 644.30639 0.00000
68.55840 2.89460 642.91986 0.00000
67.11689 2.89764 641.53358 0.00000
65.67518 2.90053 640.14746 0.00000
64.23340 2.90367 638.76138 0.00000
62.79158 2.90739 637.37536 0.00000
61.34967 2.91192 635.98945 0.00000
59.90765 2.91734 634.60367 0.00000
58.46561 2.92347 633.21796 0.00000
57.02354 2.93002 631.83230 0.00000
55.58147 2.93669 630.44665 0.00000
54.13944 2.94318 629.06091 0.00000
52.69745 2.94936 627.67513 0.00000
51.25540 2.95541 626.28941 0.00000
49.81304 2.96181 624.90402 0.00000
48.37003 2.96901 623.51930 0.00000
46.92614 2.97691 622.13546 0.00000
45.48146 2.98480 620.75241 0.00000
44.03644 2.99179 619.36969 0.00000
42.59154 2.99725 617.98686 0.00000
41.14690 3.00126 616.60377 0.00000
39.70221 3.00450 615.22074 0.00000
38.25711 3.00778 613.83811 0.00000
36.81158 3.01167 612.45594 0.00000
35.36577 3.01629 611.07406 0.00000
33.91986 3.02152 609.69232 0.00000
32.47392 3.02731 608.31067 0.00000
31.02799 3.03365 606.92910 0.00000
29.58204 3.04036 605.54758 0.00000
28.13613 3.04699 604.16604 0.00000
26.69024 3.05302 602.78448 0.00000
25.24429 3.05809 601.40299 0.00000
23.79814 3.06211 600.02170 0.00000
22.35164 3.06520 598.64073 0.00000
20.90481 3.06772 597.26007 0.00000
19.45787 3.07023 595.87950 0.00000
18.01143 3.07329 594.49845 0.00000
16.56641 3.07734 593.11599 0.00000
15.12380 3.08250 591.73110 0.00000
13.68378 3.08864 590.34355 0.00000
12.24576 3.09559 588.95393 0.00000
10.80922 3.10315 587.56281 0.00000
9.37373 3.11104 586.17063 0.00000
7.93875 3.11891 584.77793 0.00000
6.50385 3.12637 583.38515 0.00000
5.06889 3.13315 581.99243 0.00000
3.63387 3.13920 580.59978 0.00000
2.19876 3.14478 579.20721 0.00000
0.76350 3.15038 577.81479 0.00000
-0.67197 3.15646 576.42259 0.00000
-2.10762 3.16314 575.03059 0.00000
-3.54333 3.17020 573.63865 0.00000
-4.97900 3.17741 572.24664 0.00000
-6.41457 3.18479 570.85454 0.00000
-7.85003 3.19256 569.46237 0.00000
-9.28544 3.20098 568.07015 0.00000
-10.72085 3.21007 566.67791 0.00000
-12.15628 3.21955 565.28568 0.00000
-13.59174 3.22906 563.89346 0.00000
-15.02719 3.23826 562.50122 0.00000
-16.46257 3.24692 561.10891 0.00000
-17.89789 3.25497 559.71656 0.00000
-19.33321 3.26246 558.32425 0.00000
-20.76864 3.26952 556.93203 0.00000
-22.20421 3.27627 555.53994 0.00000
-23.63990 3.28275 554.14795 0.00000
-25.07567 3.28906 552.75606 0.00000
-26.51149 3.29538 551.36423 0.00000
-27.94736 3.30182 549.97242 0.00000
-29.38327 3.30822 548.58064 0.00000
-30.81919 3.31407 547.18889 0.00000
-32.25510 3.31876 545.79713 0.00000
-33.69097 3.32192 544.40533 0.00000
-35.12681 3.32358 543.01350 0.00000
-36.56265 3.32406 541.62168 0.00000
-37.99850 3.32375 540.22994 0.00000
-39.43429 3.32294 538.83830 0.00000
-40.86989 3.32177 537.44669 0.00000
-42.30518 3.32029 536.05490 0.00000
-43.74009 3.31842 534.66281 0.00000
-45.17473 3.31600 533.27047 0.00000
-46.60921 3.31289 531.87796 0.00000
-48.04355 3.30913 530.48532 0.00000
-49.47784 3.30488 529.09263 0.00000
-50.91233 3.30033 527.70013 0.00000
-52.34762 3.29549 526.30843 0.00000
-53.78488 3.29012 524.91872 0.00000
-55.22555 3.28372 523.53248 0.00000
-56.66998 3.27589 522.15009 0.00000
-58.11676 3.26664 520.77010 0.00000
-59.56439 3.25630 519.39101 0.00000
-61.01202 3.24540 518.01195 0.00000
-62.45931 3.23444 516.63257 0.00000
-63.90621 3.22367 515.25282 0.00000
-65.35290 3.21308 513.87282 0.00000
-66.79958 3.20253 512.49281 0.00000
-68.24641 3.19203 511.11296 0.00000
-69.69348 3.18171 509.73338 0.00000
-71.14082 3.17154 508.35410 0.00000
-72.58842 3.16108 506.97506 0.00000
-74.03625 3.14966 505.59609 0.00000
-75.48433 3.13679 504.21699 0.00000
-76.93271 3.12286 502.83759 0.00000
-78.38138 3.10903 501.45788 0.00000
-79.83021 3.09649 500.07794 0.00000
-81.27909 3.08586 498.69787 0.00000
-82.72793 3.07688 497.31772 0.00000
-84.17670 3.06877 495.93751 0.00000
-85.62547 3.06075 494.55728 0.00000
-87.07430 3.05235 493.17716 0.00000
-88.52322 3.04347 491.79719 0.00000
-89.97222 3.03417 490.41732 0.00000
-91.42122 3.02455 489.03743 0.00000
-92.87016 3.01475 487.65746 0.00000
-94.31906 3.00488 486.27745 0.00000
-95.76795 2.99503 484.89746 0.00000
-97.21687 2.98520 483.51749 0.00000
-98.66582 2.97513 482.13757 0.00000
-100.11479 2.96454 480.75767 0.00000
-101.56378 2.95319 479.37779 0.00000
-103.01279 2.94128 477.99793 0.00000
-104.46182 2.92934 476.61811 0.00000
-105.91094 2.91831 475.23839 0.00000
-107.36019 2.90899 473.85880 0.00000
-108.80954 2.90164 472.47931 0.00000
-110.25892 2.89579 471.09986 0.00000
-111.70799 2.89064 469.72023 0.00000
-113.12617 2.88678 468.31808 0.00000
-113.40288 2.89196 467.72255 0.00000
-105.00981 2.87677 459.35075 128.00000
-106.45612 2.86809 457.97729 128.00000
-107.90113 2.85908 456.60309 128.00000
-109.34722 2.84939 455.22969 128.00000
-110.79431 2.83861 453.85729 128.00000
-112.24318 2.82665 452.48670 128.00000
-113.69440 2.81380 451.11849 128.00000
-115.14808 2.80074 449.75277 128.00000
-116.60401 2.78825 448.38931 128.00000
-118.06182 2.77702 447.02772 128.00000
-119.52096 2.76741 445.66744 128.00000
-120.98068 2.75931 444.30771 128.00000
-122.44043 2.75227 442.94792 128.00000
-123.89994 2.74557 441.58785 128.00000
-125.35912 2.73849 440.22737 128.00000
-126.81798 2.73062 438.86651 128.00000
-128.27658 2.72184 437.50531 128.00000
-129.73490 2.71218 436.14380 128.00000
-131.19271 2.70185 434.78177 128.00000
-132.64949 2.69114 433.41873 128.00000
-134.10458 2.68027 432.05406 128.00000
-135.55740 2.66947 430.68710 128.00000
-137.00732 2.65898 429.31692 128.00000
-138.45372 2.64905 427.94222 128.00000
-139.89650 2.63985 426.56191 128.00000
-141.33656 2.63136 425.17610 128.00000
-142.77498 2.62337 423.78612 128.00000
-144.21233 2.61569 422.39361 128.00000
-145.64883 2.60812 420.99968 128.00000
-147.08460 2.60040 419.60496 128.00000
-148.51999 2.59209 418.20996 128.00000
-149.95552 2.58283 416.81520 128.00000
-151.39180 2.57260 415.42125 128.00000
-152.82950 2.56187 414.02876 128.00000
-154.26944 2.55133 412.63853 128.00000
-155.71217 2.54140 411.25112 128.00000
-157.15722 2.53201 409.86604 128.00000
-158.60339 2.52270 408.48208 128.00000
-160.04978 2.51308 407.09832 128.00000
-161.49599 2.50310 405.71434 128.00000
-162.94188 2.49321 404.33000 128.00000
-164.38731 2.48401 402.94519 128.00000
-165.83222 2.47595 401.56000 128.00000
-167.27669 2.46867 400.17478 128.00000
-168.72092 2.46115 398.79014 128.00000
-170.16509 2.45264 397.40647 128.00000
-171.60926 2.44310 396.02363 128.00000
-173.05338 2.43307 394.64117 128.00000
-174.49740 2.42296 393.25878 128.00000
-175.94133 2.41255 391.87629 128.00000
-177.38500 2.40124 390.49350 128.00000
-178.82802 2.38865 389.11000 128.00000
-180.26995 2.37489 387.72538 128.00000
-181.71092 2.36048 386.33978 128.00000
-183.15258 2.34623 384.95488 128.00000
-184.59936 2.33304 383.57517 128.00000
-186.05835 2.32180 382.20779 128.00000
-187.53685 2.31299 380.86013 128.00000
-189.03928 2.30654 379.53663 128.00000
-190.56566 2.30190 378.23731 128.00000
-192.11202 2.29836 376.95812 128.00000
-193.67320 2.29537 375.69382 128.00000
-195.24668 2.29269 374.44186 128.00000
-196.83284 2.29019 373.20262 128.00000
-198.43267 2.28788 371.97706 128.00000
-200.04626 2.28583 370.76528 128.00000
-201.67196 2.28410 369.56560 128.00000
-203.30605 2.28253 368.37426 128.00000
-204.94378 2.28074 367.18647 128.00000
