VERSION 0.7
FIELDS x y z lapdistance
SIZE 4 4 4 4
TYPE F F F F
COUNT 1 1 1 1
WIDTH 1222
HEIGHT 1
VIEWPOINT -0.271 0.654 0.653 0.271 -109.206 2.884 463.537
POINTS 1222
DATA ascii
-318.04836 3.02089 -826.71082 1810.00000
-316.23603 3.01599 -827.60603 1812.00000
-314.42612 3.01101 -828.50486 1814.00000
-312.61882 3.00593 -829.40807 1816.00000
-310.81447 3.00076 -830.31718 1818.00000
-309.01383 2.99551 -831.23441 1820.00000
-307.21805 2.99014 -832.16217 1822.00000
-305.42802 2.98462 -833.10204 1824.00000
-303.64436 2.97883 -834.05479 1826.00000
-301.86748 2.97277 -835.02075 1828.00000
-300.09760 2.96652 -835.99982 1830.00000
-298.33450 2.96018 -836.99124 1832.00000
-296.57749 2.95379 -837.99355 1834.00000
-294.82560 2.94734 -839.00490 1836.00000
-293.07799 2.94086 -840.02378 1838.00000
-291.33424 2.93433 -841.04902 1840.00000
-289.59452 2.92777 -842.07942 1842.00000
-287.85979 2.92114 -843.11326 1844.00000
-286.13225 2.91436 -844.14877 1846.00000
-284.41521 2.90730 -845.18613 1848.00000
-282.71122 2.89986 -846.22991 1850.00000
-281.02088 2.89207 -847.28714 1852.00000
-279.34360 2.88409 -848.36257 1854.00000
-277.67963 2.87619 -849.46010 1856.00000
-276.02933 2.86862 -850.58180 1858.00000
-274.39078 2.86145 -851.72468 1860.00000
-272.75999 2.85457 -852.88185 1862.00000
-271.13100 2.84766 -854.04288 1864.00000
-269.49785 2.84044 -855.19758 1866.00000
-267.85423 2.83264 -856.33541 1868.00000
-266.19003 2.82373 -857.43995 1870.00000
-264.49088 2.81271 -858.48781 1872.00000
-262.74330 2.79845 -859.45630 1874.00000
-260.94075 2.78031 -860.32991 1876.00000
-259.08561 2.75841 -861.09657 1878.00000
-257.18923 2.73372 -861.74001 1880.00000
-255.26912 2.70772 -862.23575 1882.00000
-253.34073 2.68201 -862.56302 1884.00000
-251.41749 2.65802 -862.72875 1886.00000
-249.52288 2.63593 -862.77450 1888.00000
-247.68843 2.61492 -862.75915 1890.00000
-245.94031 2.59477 -862.72288 1892.00000
-244.29288 2.57712 -862.67891 1894.00000
-242.74337 2.56420 -862.62758 1896.00000
-241.28075 2.55730 -862.56426 1898.00000
-239.89797 2.55661 -862.48382 1900.00000
-238.57801 2.56139 -862.38034 1902.00000
-237.28393 2.57033 -862.24734 1904.00000
-235.97335 2.58222 -862.07787 1906.00000
-234.61503 2.59638 -861.86529 1908.00000
-233.19698 2.61233 -861.60291 1910.00000
-231.71494 2.62996 -861.28116 1912.00000
-230.16769 2.64986 -860.88596 1914.00000
-228.56976 2.67221 -860.40067 1916.00000
-226.95071 2.69607 -859.80566 1918.00000
-225.33315 2.72009 -859.08003 1920.00000
-223.71440 2.74303 -858.21199 1922.00000
-222.07776 2.76383 -857.19769 1924.00000
-220.42605 2.78143 -856.05119 1926.00000
-218.77563 2.79555 -854.81688 1928.00000
-217.13119 2.80730 -853.54551 1930.00000
-215.49239 2.81829 -852.26728 1932.00000
-213.85976 2.82987 -850.99178 1934.00000
-212.23395 2.84271 -849.71853 1936.00000
-210.61459 2.85664 -848.44412 1938.00000
-208.99908 2.87100 -847.16626 1940.00000
-207.38156 2.88534 -845.88620 1942.00000
-205.75408 2.89967 -844.60925 1944.00000
-204.10989 2.91415 -843.34379 1946.00000
-202.44555 2.92898 -842.09707 1948.00000
-200.76169 2.94465 -840.87165 1950.00000
-199.06131 2.96199 -839.66661 1952.00000
-197.34496 2.98172 -838.48427 1954.00000
-195.60981 3.00386 -837.33191 1956.00000
-193.85194 3.02731 -836.21863 1958.00000
-192.06961 3.05058 -835.15009 1960.00000
-190.26466 3.07269 -834.12506 1962.00000
-188.44159 3.09357 -833.13567 1964.00000
-186.60511 3.11352 -832.17163 1966.00000
-184.75755 3.13290 -831.22683 1968.00000
-182.89936 3.15184 -830.30004 1970.00000
-181.03056 3.17025 -829.39223 1972.00000
-179.15151 3.18770 -828.50482 1974.00000
-177.26278 3.20347 -827.63924 1976.00000
-175.36506 3.21700 -826.79699 1978.00000
-173.45911 3.22822 -825.97956 1980.00000
-171.54566 3.23771 -825.18826 1982.00000
-169.62497 3.24628 -824.42443 1984.00000
-167.69609 3.25444 -823.68977 1986.00000
-165.75635 3.26216 -822.98677 1988.00000
-163.80276 3.26916 -822.31840 1990.00000
-161.83420 3.27518 -821.68600 1992.00000
-159.85206 3.28037 -821.08702 1994.00000
-157.85955 3.28505 -820.51514 1996.00000
-155.86005 3.28953 -819.96341 1998.00000
-153.85568 3.29400 -819.42866 2000.00000
-151.84723 3.29858 -818.91186 2002.00000
-149.83483 3.30339 -818.41648 2004.00000
-147.81876 3.30852 -817.94577 2006.00000
-145.79971 3.31401 -817.50148 2008.00000
-143.77834 3.31973 -817.08453 2010.00000
-141.75461 3.32514 -816.69617 2012.00000
-139.72728 3.32934 -816.33837 2014.00000
-137.69431 3.33132 -816.01321 2016.00000
-135.65416 3.33057 -815.72194 2018.00000
-133.60662 3.32726 -815.46530 2020.00000
-131.55245 3.32213 -815.24391 2022.00000
-129.49294 3.31594 -815.05818 2024.00000
-127.42946 3.30891 -814.90792 2026.00000
-125.36325 3.30067 -814.79140 2028.00000
-123.29546 3.29073 -814.70384 2030.00000
-121.22750 3.27911 -814.63701 2032.00000
-119.16163 3.26667 -814.58240 2034.00000
-117.10231 3.25477 -814.53483 2036.00000
-115.05748 3.24456 -814.49186 2038.00000
-113.03741 3.23637 -814.45223 2040.00000
-111.04743 3.22979 -814.41390 2042.00000
-109.08049 3.22397 -814.37445 2044.00000
-107.12492 3.21831 -814.33225 2046.00000
-105.17228 3.21243 -814.28524 2048.00000
-103.21872 3.20626 -814.22881 2050.00000
-101.26372 3.20005 -814.15593 2052.00000
-99.30829 3.19429 -814.05962 2054.00000
-97.35387 3.18967 -813.93541 2056.00000
-95.40178 3.18682 -813.78139 2058.00000
-93.45318 3.18603 -813.59715 2060.00000
-91.50915 3.18727 -813.38304 2062.00000
-89.57072 3.18996 -813.13987 2064.00000
-87.63872 3.19333 -812.86907 2066.00000
-85.71325 3.19705 -812.57315 2068.00000
-83.79302 3.20115 -812.25589 2070.00000
-81.87597 3.20580 -811.92167 2072.00000
-79.96076 3.21113 -811.57314 2074.00000
-78.04731 3.21699 -811.20957 2076.00000
-76.13659 3.22296 -810.82732 2078.00000
-74.22998 3.22858 -810.42214 2080.00000
-72.32833 3.23367 -809.99309 2082.00000
-70.43073 3.23849 -809.54754 2084.00000
-68.53538 3.24356 -809.09639 2086.00000
-66.64101 3.24921 -808.64681 2088.00000
-64.74751 3.25548 -808.19998 2090.00000
-62.85603 3.26217 -807.75176 2092.00000
-60.96872 3.26906 -807.29394 2094.00000
-59.08801 3.27607 -806.81660 2096.00000
-57.21514 3.28319 -806.31294 2098.00000
-55.34903 3.29038 -805.78290 2100.00000
-53.48809 3.29755 -805.22909 2102.00000
-51.63182 3.30457 -804.65269 2104.00000
-49.78065 3.31123 -804.05377 2106.00000
-47.93568 3.31741 -803.43131 2108.00000
-46.09822 3.32292 -802.78400 2110.00000
-44.26886 3.32769 -802.11262 2112.00000
-42.44714 3.33190 -801.42071 2114.00000
-40.63212 3.33592 -800.71280 2116.00000
-38.82382 3.34018 -799.99074 2118.00000
-37.02358 3.34484 -799.25287 2120.00000
-35.23285 3.34978 -798.49667 2122.00000
-33.45209 3.35472 -797.72108 2124.00000
-31.68076 3.35929 -796.92568 2126.00000
-29.91798 3.36305 -796.10985 2128.00000
-28.16287 3.36565 -795.27356 2130.00000
-26.41460 3.36688 -794.41815 2132.00000
-24.67195 3.36690 -793.54674 2134.00000
-22.93314 3.36618 -792.66388 2136.00000
-21.19670 3.36516 -791.77334 2138.00000
-19.46278 3.36411 -790.87566 2140.00000
-17.73323 3.36299 -789.96816 2142.00000
-16.01122 3.36166 -789.04601 2144.00000
-14.30004 3.36003 -788.10452 2146.00000
-12.60196 3.35795 -787.14115 2148.00000
-10.91833 3.35526 -786.15527 2150.00000
-9.24992 3.35195 -785.14713 2152.00000
-7.59719 3.34822 -784.11710 2154.00000
-5.96018 3.34421 -783.06527 2156.00000
-4.33833 3.33985 -781.99139 2158.00000
-2.73079 3.33493 -780.89504 2160.00000
-1.13705 3.32914 -779.77598 2162.00000
0.44302 3.32236 -778.63460 2164.00000
2.00970 3.31485 -777.47226 2166.00000
3.56413 3.30694 -776.29166 2168.00000
5.10843 3.29905 -775.09681 2170.00000
6.64491 3.29170 -773.89169 2172.00000
8.17462 3.28510 -772.67845 2174.00000
9.69692 3.27920 -771.45702 2176.00000
11.20961 3.27363 -770.22545 2178.00000
12.70934 3.26805 -768.98059 2180.00000
14.19261 3.26239 -767.71912 2182.00000
15.65760 3.25667 -766.43954 2184.00000
17.10509 3.25093 -765.14252 2186.00000
18.53806 3.24512 -763.83018 2188.00000
19.96012 3.23926 -762.50473 2190.00000
21.37328 3.23353 -761.16719 2192.00000
22.77754 3.22810 -759.81733 2194.00000
24.17199 3.22313 -758.45459 2196.00000
25.55632 3.21864 -757.07935 2198.00000
26.93003 3.21445 -755.69197 2200.00000
28.29101 3.21027 -754.29133 2202.00000
29.63562 3.20570 -752.87499 2204.00000
30.96070 3.20054 -751.44104 2206.00000
32.26557 3.19478 -749.98994 2208.00000
33.55289 3.18847 -748.52507 2210.00000
34.82651 3.18173 -747.05062 2212.00000
36.08792 3.17476 -745.56816 2214.00000
37.33610 3.16780 -744.07643 2216.00000
38.56971 3.16107 -742.57302 2218.00000
39.78820 3.15480 -741.05593 2220.00000
40.99131 3.14906 -739.52409 2222.00000
42.17872 3.14361 -737.97725 2224.00000
43.35005 3.13810 -736.41570 2226.00000
44.50480 3.13232 -734.83997 2228.00000
45.64239 3.12626 -733.25054 2230.00000
46.76217 3.12016 -731.64788 2232.00000
47.86360 3.11418 -730.03248 2234.00000
48.94637 3.10826 -728.40500 2236.00000
50.01039 3.10213 -726.76627 2238.00000
51.05554 3.09572 -725.11709 2240.00000
52.08147 3.08931 -723.45802 2242.00000
53.08788 3.08328 -721.78939 2244.00000
54.07471 3.07784 -720.11115 2246.00000
55.04223 3.07281 -718.42271 2248.00000
55.99088 3.06780 -716.72312 2250.00000
56.92088 3.06260 -715.01161 2252.00000
57.83243 3.05737 -713.28816 2254.00000
58.72624 3.05248 -711.55357 2256.00000
59.60406 3.04828 -709.80940 2258.00000
60.46863 3.04496 -708.05769 2260.00000
61.32245 3.04249 -706.30026 2262.00000
62.16620 3.04080 -704.53797 2264.00000
62.99859 3.03986 -702.77071 2266.00000
63.81695 3.03973 -700.99782 2268.00000
64.61824 3.04050 -699.21857 2270.00000
65.39950 3.04211 -697.43227 2272.00000
66.15783 3.04437 -695.63804 2274.00000
66.89073 3.04704 -693.83471 2276.00000
67.59642 3.04990 -692.02086 2278.00000
68.27372 3.05283 -690.19523 2280.00000
68.92280 3.05584 -688.35763 2282.00000
69.54597 3.05903 -686.50923 2284.00000
70.14765 3.06247 -684.65222 2286.00000
70.73283 3.06625 -682.78903 2288.00000
71.30451 3.07040 -680.92139 2290.00000
71.86263 3.07493 -679.05005 2292.00000
72.40496 3.07987 -677.17521 2294.00000
72.92797 3.08531 -675.29674 2296.00000
73.42797 3.09132 -673.41419 2298.00000
73.90306 3.09790 -671.52653 2300.00000
74.35504 3.10485 -669.63148 2302.00000
74.78978 3.11190 -667.72511 2304.00000
75.21531 3.11900 -665.80335 2306.00000
75.63809 3.12626 -663.86678 2308.00000
76.06124 3.13371 -661.92091 2310.00000
76.48533 3.14115 -659.97106 2312.00000
76.90965 3.14837 -658.02026 2314.00000
77.33299 3.15520 -656.06957 2316.00000
77.75363 3.16163 -654.11888 2318.00000
78.16926 3.16777 -652.16754 2320.00000
78.57786 3.17375 -650.21492 2322.00000
78.97834 3.17960 -648.26068 2324.00000
79.37053 3.18525 -646.30477 2326.00000
79.75539 3.19065 -644.34734 2328.00000
80.13519 3.19580 -642.38863 2330.00000
80.51290 3.20073 -640.42880 2332.00000
80.89106 3.20529 -638.46772 2334.00000
81.27091 3.20935 -636.50523 2336.00000
81.65253 3.21300 -634.54167 2338.00000
82.03550 3.21672 -632.57761 2340.00000
82.41951 3.22123 -630.61351 2342.00000
82.80462 3.22684 -628.64963 2344.00000
83.19113 3.23320 -626.68611 2346.00000
83.57946 3.23966 -624.72302 2348.00000
83.96991 3.24580 -622.76041 2350.00000
84.36239 3.25157 -620.79823 2352.00000
84.75649 3.25717 -618.83640 2354.00000
85.15184 3.26284 -616.87482 2356.00000
85.54831 3.26865 -614.91347 2358.00000
85.94588 3.27454 -612.95233 2360.00000
86.34443 3.28052 -610.99139 2362.00000
86.74384 3.28667 -609.03062 2364.00000
87.14406 3.29308 -607.06995 2366.00000
87.54515 3.29971 -605.10936 2368.00000
87.94726 3.30639 -603.14886 2370.00000
88.35047 3.31291 -601.18857 2372.00000
88.75473 3.31914 -599.22892 2374.00000
89.15971 3.32505 -597.27072 2376.00000
89.56494 3.33069 -595.31506 2378.00000
89.97001 3.33606 -593.36258 2380.00000
90.37483 3.34122 -591.41260 2382.00000
90.77952 3.34634 -589.46389 2384.00000
91.18407 3.35169 -587.51554 2386.00000
91.58839 3.35753 -585.56708 2388.00000
91.99246 3.36387 -583.61838 2390.00000
92.39640 3.37048 -581.66947 2392.00000
92.80029 3.37713 -579.72043 2394.00000
93.20405 3.38368 -577.77129 2396.00000
93.60754 3.39014 -575.82205 2398.00000
94.01066 3.39656 -573.87269 2400.00000
94.41344 3.40300 -571.92323 2402.00000
94.81606 3.40955 -569.97369 2404.00000
95.21874 3.41629 -568.02408 2406.00000
95.62156 3.42334 -566.07438 2408.00000
96.02427 3.43072 -564.12443 2410.00000
96.42603 3.43824 -562.17400 2412.00000
96.82525 3.44555 -560.22290 2414.00000
97.21957 3.45235 -558.27127 2416.00000
97.60595 3.45848 -556.31993 2418.00000
97.98130 3.46394 -554.37064 2420.00000
98.34339 3.46875 -552.42517 2422.00000
98.69196 3.47290 -550.48321 2424.00000
99.02828 3.47636 -548.54234 2426.00000
99.35329 3.47911 -546.60029 2428.00000
99.66609 3.48108 -544.65566 2430.00000
99.96389 3.48200 -542.70773 2432.00000
100.24300 3.48154 -540.75627 2434.00000
100.50016 3.47945 -538.80139 2436.00000
100.73278 3.47575 -536.84338 2438.00000
100.93894 3.47070 -534.88264 2440.00000
101.11862 3.46469 -532.91973 2442.00000
101.27457 3.45804 -530.95542 2444.00000
101.41121 3.45105 -528.99047 2446.00000
101.53212 3.44388 -527.02534 2448.00000
101.63938 3.43667 -525.06000 2450.00000
101.73418 3.42948 -523.09404 2452.00000
101.81739 3.42238 -521.12709 2454.00000
101.88958 3.41535 -519.15914 2456.00000
101.95122 3.40836 -517.19042 2458.00000
102.00300 3.40138 -515.22119 2460.00000
102.04570 3.39443 -513.25174 2462.00000
102.07995 3.38761 -511.28227 2464.00000
102.10609 3.38099 -509.31300 2466.00000
102.12421 3.37454 -507.34413 2468.00000
102.13409 3.36826 -505.37591 2470.00000
102.13489 3.36209 -503.40865 2472.00000
102.12469 3.35598 -501.44249 2474.00000
102.10056 3.34984 -499.47729 2476.00000
102.05987 3.34359 -497.51245 2478.00000
102.00299 3.33725 -495.54741 2480.00000
101.93379 3.33096 -493.58183 2482.00000
101.85637 3.32489 -491.61562 2484.00000
101.77191 3.31912 -489.64892 2486.00000
101.67879 3.31364 -487.68200 2488.00000
101.57451 3.30853 -485.71522 2490.00000
101.45718 3.30396 -483.74891 2492.00000
101.32571 3.30017 -481.78342 2494.00000
101.17942 3.29732 -479.81906 2496.00000
101.01773 3.29538 -477.85618 2498.00000
100.83999 3.29424 -475.89515 2500.00000
100.64555 3.29384 -473.93639 2502.00000
100.43389 3.29423 -471.98032 2504.00000
100.20468 3.29544 -470.02730 2506.00000
99.95809 3.29739 -468.07749 2508.00000
99.69516 3.29986 -466.13065 2510.00000
99.41805 3.30267 -464.18611 2512.00000
99.12965 3.30571 -462.24298 2514.00000
98.83218 3.30897 -460.30066 2516.00000
98.52655 3.31245 -458.35899 2518.00000
98.21301 3.31611 -456.41805 2520.00000
97.89153 3.31986 -454.47800 2522.00000
97.56200 3.32371 -452.53904 2524.00000
97.22440 3.32769 -450.60136 2526.00000
96.87865 3.33186 -448.66516 2528.00000
96.52438 3.33618 -446.73074 2530.00000
96.16046 3.34056 -444.79854 2532.00000
95.78488 3.34493 -442.86914 2534.00000
95.39514 3.34923 -440.94314 2536.00000
94.98882 3.35343 -439.02094 2538.00000
94.56465 3.35750 -437.10247 2540.00000
94.12318 3.36146 -435.18729 2542.00000
93.66619 3.36535 -433.27488 2544.00000
93.19567 3.36922 -431.36494 2546.00000
92.71380 3.37311 -429.45718 2548.00000
92.22277 3.37709 -427.55128 2550.00000
91.72412 3.38117 -425.64709 2552.00000
91.21856 3.38539 -423.74464 2554.00000
90.70622 3.38974 -421.84412 2556.00000
90.18652 3.39421 -419.94593 2558.00000
89.65788 3.39861 -418.05060 2560.00000
89.11748 3.40264 -416.15865 2562.00000
88.56146 3.40587 -414.27029 2564.00000
87.98596 3.40798 -412.38512 2566.00000
87.38852 3.40886 -410.50255 2568.00000
86.76869 3.40851 -408.62310 2570.00000
86.12771 3.40689 -406.74792 2572.00000
85.46840 3.40392 -404.87750 2574.00000
84.79483 3.39961 -403.01137 2576.00000
84.11120 3.39420 -401.14857 2578.00000
83.42009 3.38805 -399.28839 2580.00000
82.72237 3.38144 -397.43058 2582.00000
82.01807 3.37446 -395.57513 2584.00000
81.30706 3.36713 -393.72211 2586.00000
80.58965 3.35948 -391.87146 2588.00000
79.86699 3.35159 -390.02280 2590.00000
79.14113 3.34355 -388.17548 2592.00000
78.41415 3.33546 -386.32882 2594.00000
77.68740 3.32738 -384.48240 2596.00000
76.96171 3.31933 -382.63598 2598.00000
76.23784 3.31134 -380.78931 2600.00000
75.51653 3.30343 -378.94199 2602.00000
74.79850 3.29562 -377.09327 2604.00000
74.08399 3.28793 -375.24190 2606.00000
73.37168 3.28032 -373.38649 2608.00000
72.65912 3.27276 -371.52625 2610.00000
71.94506 3.26519 -369.66194 2612.00000
71.22939 3.25759 -367.79546 2614.00000
70.51231 3.24996 -365.92844 2616.00000
69.79402 3.24228 -364.06173 2618.00000
69.07465 3.23457 -362.19563 2620.00000
68.35427 3.22682 -360.33014 2622.00000
67.63289 3.21903 -358.46516 2624.00000
66.91053 3.21122 -356.60061 2626.00000
66.18721 3.20338 -354.73645 2628.00000
65.46288 3.19550 -352.87268 2630.00000
64.73744 3.18759 -351.00934 2632.00000
64.01073 3.17965 -349.14650 2634.00000
63.28253 3.17165 -347.28422 2636.00000
62.55277 3.16361 -345.42257 2638.00000
61.82159 3.15549 -343.56149 2640.00000
61.08936 3.14728 -341.70081 2642.00000
60.35653 3.13894 -339.84038 2644.00000
59.62345 3.13050 -337.98004 2646.00000
58.89023 3.12214 -336.11975 2648.00000
58.15686 3.11430 -334.25952 2650.00000
57.42328 3.10780 -332.39938 2652.00000
56.68945 3.10363 -330.53933 2654.00000
55.95547 3.10232 -328.67926 2656.00000
55.22158 3.10368 -326.81902 2658.00000
54.48804 3.10691 -324.95846 2660.00000
53.75513 3.11102 -323.09754 2662.00000
53.02299 3.11538 -321.23626 2664.00000
52.29178 3.11972 -319.37461 2666.00000
51.56160 3.12401 -317.51254 2668.00000
50.83255 3.12831 -315.65003 2670.00000
50.10465 3.13265 -313.78706 2672.00000
49.37782 3.13703 -311.92367 2674.00000
48.65194 3.14144 -310.05990 2676.00000
47.92687 3.14584 -308.19583 2678.00000
47.20253 3.15022 -306.33153 2680.00000
46.47888 3.15457 -304.46705 2682.00000
45.75594 3.15888 -302.60245 2684.00000
45.03367 3.16307 -300.73778 2686.00000
44.31200 3.16706 -298.87283 2688.00000
43.59074 3.17081 -297.00700 2690.00000
42.86958 3.17442 -295.13911 2692.00000
42.14820 3.17795 -293.26763 2694.00000
41.42651 3.18150 -291.39180 2696.00000
40.70494 3.18508 -289.51259 2698.00000
39.98407 3.18827 -287.63142 2700.00000
39.26427 3.19025 -285.74925 2702.00000
38.54567 3.19015 -283.86658 2704.00000
37.82813 3.18758 -281.98358 2706.00000
37.11130 3.18290 -280.10037 2708.00000
36.39475 3.17725 -278.21706 2710.00000
35.67806 3.17204 -276.33372 2712.00000
34.96112 3.16834 -274.45037 2714.00000
34.24449 3.16661 -272.56680 2716.00000
33.52977 3.16680 -270.68247 2718.00000
32.81966 3.16859 -268.79647 2720.00000
32.11698 3.17181 -266.90789 2722.00000
31.42336 3.17654 -265.01629 2724.00000
30.73932 3.18289 -263.12160 2726.00000
30.06478 3.19072 -261.22398 2728.00000
29.39937 3.19973 -259.32352 2730.00000
28.74255 3.20958 -257.42011 2732.00000
28.09380 3.22002 -255.51322 2734.00000
27.45276 3.23074 -253.60201 2736.00000
26.81937 3.24154 -251.68585 2738.00000
26.19382 3.25246 -249.76479 2740.00000
25.57673 3.26344 -247.83936 2742.00000
24.96956 3.27417 -245.91036 2744.00000
24.37504 3.28452 -243.97854 2746.00000
23.79677 3.29462 -242.04382 2748.00000
23.23735 3.30474 -240.10375 2750.00000
22.69764 3.31512 -238.15505 2752.00000
22.17816 3.32595 -236.19740 2754.00000
21.67926 3.33717 -234.23181 2756.00000
21.20092 3.34843 -232.25949 2758.00000
20.74230 3.35921 -230.28151 2760.00000
20.30157 3.36899 -228.29890 2762.00000
19.87605 3.37773 -226.31265 2764.00000
19.46215 3.38607 -224.32385 2766.00000
19.05525 3.39440 -222.33371 2768.00000
18.65077 3.40281 -220.34329 2770.00000
18.24594 3.41125 -218.35305 2772.00000
17.84076 3.41962 -216.36253 2774.00000
17.43819 3.42779 -214.37045 2776.00000
17.04372 3.43561 -212.37521 2778.00000
16.66356 3.44297 -210.37640 2780.00000
16.30144 3.44983 -208.37652 2782.00000
15.95673 3.45629 -206.37759 2784.00000
15.62609 3.46248 -204.37978 2786.00000
15.30592 3.46854 -202.38259 2788.00000
14.99293 3.47458 -200.38543 2790.00000
14.68401 3.48075 -198.38774 2792.00000
14.37715 3.48727 -196.38900 2794.00000
14.07195 3.49437 -194.38892 2796.00000
13.76950 3.50218 -192.38731 2798.00000
13.47215 3.51053 -190.38393 2800.00000
13.18330 3.51887 -188.37850 2802.00000
12.90620 3.52647 -186.37078 2804.00000
12.64274 3.53287 -184.36074 2806.00000
12.39343 3.53802 -182.34854 2808.00000
12.15820 3.54206 -180.33440 2810.00000
11.93688 3.54525 -178.31859 2812.00000
11.72933 3.54787 -176.30134 2814.00000
11.53551 3.55012 -174.28291 2816.00000
11.35552 3.55204 -172.26349 2818.00000
11.18964 3.55357 -170.24330 2820.00000
11.03805 3.55456 -168.22256 2822.00000
10.90066 3.55483 -166.20151 2824.00000
10.77701 3.55429 -164.18045 2826.00000
10.66619 3.55309 -162.15968 2828.00000
10.56692 3.55136 -160.13947 2830.00000
10.47797 3.54908 -158.11995 2832.00000
10.39798 3.54621 -156.10099 2834.00000
10.32517 3.54274 -154.08218 2836.00000
10.25775 3.53888 -152.06301 2838.00000
10.19468 3.53487 -150.04311 2840.00000
10.13571 3.53082 -148.02233 2842.00000
10.08117 3.52677 -146.00066 2844.00000
10.03200 3.52271 -143.97816 2846.00000
9.98991 3.51864 -141.95491 2848.00000
9.95744 3.51438 -139.93103 2850.00000
9.93714 3.50975 -137.90666 2852.00000
9.93061 3.50475 -135.88198 2854.00000
9.93874 3.49958 -133.85722 2856.00000
9.96229 3.49447 -131.83265 2858.00000
10.00205 3.48954 -129.80854 2860.00000
10.05855 3.48474 -127.78518 2862.00000
10.13190 3.47994 -125.76277 2864.00000
10.22157 3.47506 -123.74132 2866.00000
10.32633 3.47005 -121.72045 2868.00000
10.44428 3.46481 -119.69942 2870.00000
10.57364 3.45920 -117.67746 2872.00000
10.71352 3.45312 -115.65447 2874.00000
10.86374 3.44667 -113.63081 2876.00000
11.02445 3.44007 -111.60693 2878.00000
11.19594 3.43349 -109.58322 2880.00000
11.37842 3.42695 -107.55995 2882.00000
11.57186 3.42045 -105.53735 2884.00000
11.77609 3.41401 -103.51558 2886.00000
11.99105 3.40760 -101.49485 2888.00000
12.21682 3.40100 -99.47536 2890.00000
12.45352 3.39399 -97.45734 2892.00000
12.70119 3.38656 -95.44101 2894.00000
12.95969 3.37903 -93.42662 2896.00000
13.22878 3.37188 -91.41452 2898.00000
13.50827 3.36546 -89.40513 2900.00000
13.79809 3.35983 -87.39887 2902.00000
14.09832 3.35482 -85.39568 2904.00000
14.40912 3.35022 -83.39487 2906.00000
14.73075 3.34593 -81.39569 2908.00000
15.06351 3.34186 -79.39775 2910.00000
15.40759 3.33789 -77.40099 2912.00000
15.76303 3.33413 -75.40557 2914.00000
16.12971 3.33093 -73.41170 2916.00000
16.50744 3.32879 -71.41957 2918.00000
16.89609 3.32790 -69.42939 2920.00000
17.29575 3.32809 -67.44139 2922.00000
17.70654 3.32903 -65.45578 2924.00000
18.12837 3.33047 -63.47272 2926.00000
18.56099 3.33230 -61.49237 2928.00000
19.00403 3.33455 -59.51486 2930.00000
19.45724 3.33729 -57.54034 2932.00000
19.92062 3.34058 -55.56901 2934.00000
20.39432 3.34449 -53.60104 2936.00000
20.87839 3.34901 -51.63640 2938.00000
21.37279 3.35402 -49.67479 2940.00000
21.87754 3.35925 -47.71571 2942.00000
22.39262 3.36446 -45.75873 2944.00000
22.91799 3.36954 -43.80365 2946.00000
23.45366 3.37462 -41.85052 2948.00000
23.99969 3.37980 -39.89951 2950.00000
24.55616 3.38511 -37.95082 2952.00000
25.12307 3.39050 -36.00468 2954.00000
25.70035 3.39598 -34.06127 2956.00000
26.28797 3.40151 -32.12078 2958.00000
26.88594 3.40706 -30.18339 2960.00000
27.49419 3.41267 -28.24928 2962.00000
28.11254 3.41853 -26.31859 2964.00000
28.74085 3.42492 -24.39146 2966.00000
29.37914 3.43196 -22.46811 2968.00000
30.02759 3.43946 -20.54883 2970.00000
30.68629 3.44707 -18.63384 2972.00000
31.35518 3.45442 -16.72320 2974.00000
32.03415 3.46137 -14.81668 2976.00000
32.72324 3.46792 -12.91378 2978.00000
33.42264 3.47411 -11.01391 2980.00000
34.13250 3.47994 -9.11678 2982.00000
34.85282 3.48550 -7.22240 2984.00000
35.58345 3.49093 -5.33092 2986.00000
36.32431 3.49636 -3.44256 2988.00000
37.07543 3.50177 -1.55759 2990.00000
37.83691 3.50701 0.32370 2992.00000
38.60882 3.51205 2.20107 2994.00000
39.39120 3.51727 4.07427 2996.00000
40.18405 3.52312 5.94310 2998.00000
40.98743 3.52982 7.80731 3000.00000
41.80138 3.53725 9.66668 3002.00000
42.62577 3.54498 11.52104 3004.00000
43.46026 3.55236 13.37034 3006.00000
44.30453 3.55898 15.21447 3008.00000
45.15823 3.56477 17.05334 3010.00000
46.02081 3.56989 18.88685 3012.00000
46.89147 3.57460 20.71505 3014.00000
47.76942 3.57923 22.53817 3016.00000
48.65431 3.58404 24.35662 3018.00000
49.54638 3.58902 26.17107 3020.00000
50.44611 3.59380 27.98200 3022.00000
51.35385 3.59797 29.78964 3024.00000
52.26969 3.60128 31.59402 3026.00000
53.19374 3.60378 33.39497 3028.00000
54.12701 3.60555 35.19175 3030.00000
55.07200 3.60661 36.98275 3032.00000
56.03257 3.60680 38.76552 3034.00000
57.01210 3.60597 40.53789 3036.00000
58.01140 3.60399 42.29908 3038.00000
59.02921 3.60083 44.04949 3040.00000
60.06320 3.59652 45.79014 3042.00000
61.11041 3.59128 47.52242 3044.00000
62.16811 3.58539 49.24762 3046.00000
63.23492 3.57908 50.96633 3048.00000
64.31052 3.57245 52.67859 3050.00000
65.39492 3.56563 54.38446 3052.00000
66.48787 3.55886 56.08445 3054.00000
67.58858 3.55243 57.77970 3056.00000
68.69542 3.54654 59.47184 3058.00000
69.80639 3.54098 61.16236 3060.00000
70.92017 3.53546 62.85212 3062.00000
72.03630 3.52993 64.54130 3064.00000
73.15524 3.52450 66.22949 3066.00000
74.27851 3.51929 67.91558 3068.00000
75.40861 3.51417 69.59771 3070.00000
76.54872 3.50901 71.27352 3072.00000
77.70167 3.50381 72.94081 3074.00000
78.86800 3.49872 74.59895 3076.00000
80.04542 3.49387 76.24931 3078.00000
81.23028 3.48926 77.89426 3080.00000
82.41944 3.48475 79.53590 3082.00000
83.61191 3.48020 81.17477 3084.00000
84.80930 3.47547 82.80949 3086.00000
86.01533 3.47043 84.43704 3088.00000
87.23540 3.46479 86.05318 3090.00000
88.47528 3.45819 87.65356 3092.00000
89.73765 3.45062 89.23645 3094.00000
91.02066 3.44257 90.80376 3096.00000
92.31959 3.43473 92.35939 3098.00000
93.62970 3.42750 93.90701 3100.00000
94.94773 3.42078 95.44896 3102.00000
96.27129 3.41424 96.98695 3104.00000
97.59828 3.40774 98.52253 3106.00000
98.92709 3.40133 100.05692 3108.00000
100.25673 3.39512 101.59094 3110.00000
101.58738 3.38915 103.12437 3112.00000
102.92079 3.38340 104.65562 3114.00000
104.25974 3.37774 106.18210 3116.00000
105.60677 3.37217 107.70137 3118.00000
106.96349 3.36682 109.21171 3120.00000
108.33099 3.36186 110.71184 3122.00000
109.70987 3.35739 112.20087 3124.00000
111.09934 3.35346 113.67912 3126.00000
112.49712 3.35009 115.14821 3128.00000
113.90044 3.34720 116.61006 3130.00000
115.30759 3.34465 118.06550 3132.00000
116.71895 3.34232 119.51365 3134.00000
118.13679 3.34024 120.95284 3136.00000
119.56388 3.33849 122.38178 3138.00000
121.00199 3.33713 123.79978 3140.00000
122.45186 3.33612 125.20657 3142.00000
123.91352 3.33545 126.60209 3144.00000
125.38646 3.33521 127.98654 3146.00000
126.86991 3.33550 129.36037 3148.00000
128.36289 3.33640 130.72422 3150.00000
129.86437 3.33794 132.07892 3152.00000
131.37346 3.34011 133.42517 3154.00000
132.88956 3.34280 134.76340 3156.00000
134.41206 3.34607 136.09414 3158.00000
135.93981 3.35007 137.41859 3160.00000
137.47088 3.35492 138.73888 3162.00000
139.00312 3.36068 140.05735 3164.00000
140.53500 3.36733 141.37545 3166.00000
142.06559 3.37478 142.69329 3168.00000
143.59411 3.38277 144.00997 3170.00000
145.11975 3.39085 145.32391 3172.00000
146.64232 3.39854 146.63391 3174.00000
148.16304 3.40577 147.94019 3176.00000
149.68345 3.41274 149.24378 3178.00000
151.20448 3.41957 150.54565 3180.00000
152.72635 3.42619 151.84653 3182.00000
154.24887 3.43243 153.14700 3184.00000
155.77171 3.43827 154.44741 3186.00000
157.29467 3.44395 155.74789 3188.00000
158.81764 3.44987 157.04845 3190.00000
160.34060 3.45639 158.34909 3192.00000
161.86358 3.46361 159.64979 3194.00000
163.38657 3.47134 160.95055 3196.00000
164.90954 3.47912 162.25141 3198.00000
166.43240 3.48652 163.55236 3200.00000
167.95499 3.49323 164.85330 3202.00000
169.47711 3.49926 166.15387 3204.00000
170.99858 3.50512 167.45370 3206.00000
172.51954 3.51141 168.75258 3208.00000
174.04058 3.51818 170.05036 3210.00000
175.56234 3.52503 171.34683 3212.00000
177.08529 3.53163 172.64178 3214.00000
178.60993 3.53784 173.93477 3216.00000
180.13703 3.54362 175.22489 3218.00000
181.66768 3.54892 176.51080 3220.00000
183.20287 3.55360 177.79129 3222.00000
184.74301 3.55764 179.06587 3224.00000
186.28771 3.56137 180.33499 3226.00000
187.83586 3.56533 181.59997 3228.00000
189.38603 3.56992 182.86254 3230.00000
190.93711 3.57503 184.12407 3232.00000
192.48835 3.58007 185.38557 3234.00000
194.03896 3.58440 186.64813 3236.00000
195.58790 3.58779 187.91314 3238.00000
197.13401 3.59080 189.18199 3240.00000
198.67675 3.59390 190.45514 3242.00000
200.21660 3.59691 191.73185 3244.00000
201.75480 3.59953 193.01054 3246.00000
203.29258 3.60151 194.28971 3248.00000
204.83063 3.60269 195.56854 3250.00000
206.36890 3.60304 196.84709 3252.00000
207.90679 3.60277 198.12609 3254.00000
209.44346 3.60222 199.40656 3256.00000
210.97842 3.60146 200.68907 3258.00000
212.51213 3.60023 201.97306 3260.00000
214.04538 3.59806 203.25758 3262.00000
215.57862 3.59477 204.54210 3264.00000
217.11197 3.59060 205.82650 3266.00000
218.64537 3.58597 207.11084 3268.00000
220.17875 3.58116 208.39524 3270.00000
221.71203 3.57625 209.67981 3272.00000
223.24520 3.57124 210.96454 3274.00000
224.77832 3.56611 212.24933 3276.00000
226.31145 3.56081 213.53402 3278.00000
227.84456 3.55517 214.81849 3280.00000
229.37753 3.54901 216.10268 3282.00000
230.91027 3.54225 217.38655 3284.00000
232.44283 3.53497 218.67016 3286.00000
233.97513 3.52741 219.95355 3288.00000
235.50684 3.51982 221.23665 3290.00000
237.03724 3.51241 222.51926 3292.00000
238.56568 3.50532 223.80121 3294.00000
240.09252 3.49872 225.08270 3296.00000
241.62110 3.49272 226.36504 3298.00000
243.16068 3.48737 227.65162 3300.00000
244.72782 3.48250 228.94792 3302.00000
246.34174 3.47764 230.25784 3304.00000
248.01144 3.47237 231.57380 3306.00000
249.73395 3.46636 232.87457 3308.00000
251.50385 3.45948 234.13561 3310.00000
253.31466 3.45189 235.33918 3312.00000
255.15892 3.44405 236.47713 3314.00000
257.03235 3.43651 237.54430 3316.00000
258.93879 3.42955 238.53078 3318.00000
260.89069 3.42296 239.42097 3320.00000
262.90200 3.41608 240.20046 3322.00000
264.97492 3.40844 240.86701 3324.00000
267.09809 3.39998 241.43330 3326.00000
269.25390 3.39100 241.91890 3328.00000
271.42583 3.38191 242.33826 3330.00000
273.60020 3.37323 242.69833 3332.00000
275.76507 3.36544 243.00079 3334.00000
277.90948 3.35882 243.24349 3336.00000
280.02522 3.35342 243.42099 3338.00000
282.11191 3.34912 243.52636 3340.00000
284.17972 3.34567 243.55527 3342.00000
286.24026 3.34259 243.50824 3344.00000
288.30033 3.33928 243.39010 3346.00000
290.36228 3.33526 243.21293 3348.00000
292.42600 3.33039 242.99467 3350.00000
294.48979 3.32490 242.75178 3352.00000
296.55006 3.31926 242.49592 3354.00000
298.60065 3.31424 242.23521 3356.00000
300.63347 3.31062 241.97464 3358.00000
302.64366 3.30858 241.71528 3360.00000
304.63564 3.30762 241.45495 3362.00000
306.61745 3.30706 241.19092 3364.00000
308.59516 3.30680 240.92129 3366.00000
310.57184 3.30716 240.64489 3368.00000
312.54847 3.30833 240.36131 3370.00000
314.52514 3.31023 240.07144 3372.00000
316.50179 3.31243 239.77757 3374.00000
318.47842 3.31440 239.48182 3376.00000
320.45498 3.31567 239.18525 3378.00000
322.43147 3.31532 238.88833 3380.00000
324.40792 3.31244 238.59145 3382.00000
326.38445 3.30682 238.29505 3384.00000
328.36115 3.29908 237.99947 3386.00000
330.33815 3.29023 237.70478 3388.00000
332.31553 3.28111 237.41077 3390.00000
334.29321 3.27235 237.11716 3392.00000
336.27071 3.26425 236.82384 3394.00000
338.24690 3.25692 236.53098 3396.00000
340.21989 3.25019 236.23911 3398.00000
342.18756 3.24367 235.94876 3400.00000
344.14946 3.23705 235.65991 3402.00000
346.10750 3.23017 235.37217 3404.00000
348.06386 3.22308 235.08537 3406.00000
350.01996 3.21590 234.79959 3408.00000
351.97643 3.20875 234.51502 3410.00000
353.93337 3.20186 234.23180 3412.00000
355.89072 3.19558 233.95008 3414.00000
357.84835 3.19035 233.66990 3416.00000
359.80621 3.18659 233.39111 3418.00000
361.76442 3.18450 233.11337 3420.00000
363.72323 3.18377 232.83597 3422.00000
365.68294 3.18360 232.55766 3424.00000
367.64346 3.18344 232.27717 3426.00000
369.60347 3.18326 231.99400 3428.00000
371.55922 3.18369 231.71001 3430.00000
373.50399 3.18538 231.43220 3432.00000
375.43016 3.18839 231.17642 3434.00000
377.33570 3.19239 230.96787 3436.00000
379.22311 3.19723 230.83688 3438.00000
381.09001 3.20322 230.81677 3440.00000
382.92712 3.21075 230.93464 3442.00000
384.72293 3.21975 231.18926 3444.00000
386.46784 3.22987 231.54817 3446.00000
388.15364 3.23970 231.97886 3448.00000
389.77502 3.24786 232.46518 3450.00000
391.33570 3.25487 233.01106 3452.00000
392.84953 3.25975 233.63776 3454.00000
394.32926 3.26187 234.36908 3456.00000
395.78318 3.26312 235.21056 3458.00000
397.22076 3.26484 236.14228 3460.00000
398.65682 3.26725 237.13552 3462.00000
400.10693 3.27096 238.17856 3464.00000
401.58571 3.27700 239.27744 3466.00000
403.10055 3.28504 240.43689 3468.00000
404.64229 3.29428 241.64490 3470.00000
406.19580 3.30389 242.88214 3472.00000
407.75038 3.31309 244.13323 3474.00000
409.30198 3.32133 245.38851 3476.00000
410.85073 3.32834 246.64322 3478.00000
412.39782 3.33427 247.89615 3480.00000
413.94419 3.33951 249.14772 3482.00000
415.49025 3.34448 250.39876 3484.00000
417.03608 3.34923 251.64993 3486.00000
418.58174 3.35344 252.90152 3488.00000
420.12754 3.35653 254.15370 3490.00000
421.67411 3.35808 255.40675 3492.00000
423.22222 3.35814 256.66131 3494.00000
424.77225 3.35711 257.91818 3496.00000
426.32348 3.35539 259.17770 3498.00000
427.87449 3.35310 260.43990 3500.00000
429.42415 3.35014 261.70466 3502.00000
430.97206 3.34642 262.97165 3504.00000
432.51838 3.34230 264.24038 3506.00000
434.06344 3.33819 265.51045 3508.00000
435.60748 3.33437 266.78164 3510.00000
437.15074 3.33093 268.05374 3512.00000
438.69343 3.32774 269.32651 3514.00000
440.23569 3.32457 270.59979 3516.00000
441.77762 3.32116 271.87349 3518.00000
443.31934 3.31746 273.14748 3520.00000
444.86100 3.31352 274.42163 3522.00000
446.40276 3.30945 275.69576 3524.00000
447.94456 3.30536 276.96985 3526.00000
449.48617 3.30119 278.24390 3528.00000
451.02732 3.29691 279.51776 3530.00000
452.56770 3.29248 280.79116 3532.00000
454.10719 3.28789 282.06394 3534.00000
455.64603 3.28309 283.33614 3536.00000
457.18454 3.27789 284.60800 3538.00000
458.72282 3.27221 285.87986 3540.00000
460.26086 3.26629 287.15202 3542.00000
461.79875 3.26050 288.42445 3544.00000
463.33664 3.25507 289.69697 3546.00000
464.87459 3.24997 290.96949 3548.00000
466.41259 3.24498 292.24199 3550.00000
467.95055 3.23993 293.51456 3552.00000
469.48838 3.23462 294.78731 3554.00000
471.02600 3.22888 296.06032 3556.00000
472.56336 3.22257 297.33363 3558.00000
474.10059 3.21580 298.60710 3560.00000
475.63798 3.20917 299.88039 3562.00000
477.17568 3.20307 301.15333 3564.00000
478.71348 3.19772 302.42618 3566.00000
480.25108 3.19269 303.69924 3568.00000
481.78848 3.18749 304.97254 3570.00000
483.32583 3.18197 306.24587 3572.00000
484.86327 3.17607 307.51906 3574.00000
486.40080 3.16971 308.79211 3576.00000
487.93841 3.16289 310.06516 3578.00000
489.47627 3.15567 311.33834 3580.00000
491.01465 3.14824 312.61189 3582.00000
492.55368 3.14081 313.88622 3584.00000
494.09320 3.13349 315.16152 3586.00000
495.63294 3.12640 316.43751 3588.00000
497.17277 3.11947 317.71381 3590.00000
498.71264 3.11275 318.99015 3592.00000
500.25251 3.10633 320.26644 3594.00000
501.79237 3.10028 321.54268 3596.00000
503.33216 3.09488 322.81894 3598.00000
504.87180 3.09042 324.09539 3600.00000
506.41112 3.08687 325.37220 3602.00000
507.95007 3.08366 326.64945 3604.00000
509.48875 3.07984 327.92699 3606.00000
511.02725 3.07464 329.20475 3608.00000
512.56544 3.06788 330.48289 3610.00000
514.10322 3.06005 331.76150 3612.00000
515.64069 3.05209 333.04045 3614.00000
517.17803 3.04506 334.31956 3616.00000
518.71533 3.03986 335.59872 3618.00000
520.25266 3.03690 336.87784 3620.00000
521.79002 3.03603 338.15692 3622.00000
523.32739 3.03657 339.43600 3624.00000
524.86471 3.03770 340.71513 3626.00000
526.40184 3.03880 341.99448 3628.00000
527.93863 3.03954 343.27423 3630.00000
529.47497 3.03992 344.55450 3632.00000
531.01090 3.04014 345.83522 3634.00000
532.54667 3.04049 347.11611 3636.00000
534.08240 3.04138 348.39703 3638.00000
535.61793 3.04326 349.67827 3640.00000
537.15313 3.04662 350.96014 3642.00000
538.68815 3.05178 352.24270 3644.00000
540.22320 3.05865 353.52582 3646.00000
541.75838 3.06684 354.80926 3648.00000
543.29367 3.07592 356.09280 3650.00000
544.82907 3.08578 357.37631 3652.00000
546.36462 3.09649 358.65964 3654.00000
547.90049 3.10795 359.94258 3656.00000
549.43685 3.11965 361.22492 3658.00000
550.97364 3.13098 362.50675 3660.00000
552.51045 3.14168 363.78854 3662.00000
554.04687 3.15201 365.07080 3664.00000
555.58280 3.16247 366.35361 3666.00000
557.11839 3.17356 367.63681 3668.00000
558.65378 3.18550 368.92022 3670.00000
560.18907 3.19827 370.20373 3672.00000
561.72433 3.21155 371.48726 3674.00000
563.25969 3.22480 372.77074 3676.00000
564.79538 3.23753 374.05413 3678.00000
566.33177 3.24949 375.33738 3680.00000
567.86912 3.26070 376.62051 3682.00000
569.40707 3.27140 377.90362 3684.00000
570.94366 3.28194 379.18706 3686.00000
572.47400 3.29267 380.47155 3688.00000
573.99013 3.30384 381.75821 3690.00000
575.48404 3.31553 383.04834 3692.00000
576.95428 3.32766 384.34418 3694.00000
578.40751 3.34002 385.64699 3696.00000
579.85134 3.35219 386.95666 3698.00000
581.29016 3.36379 388.27307 3700.00000
582.72486 3.37467 389.59683 3702.00000
584.15399 3.38508 390.92941 3704.00000
585.57487 3.39543 392.27285 3706.00000
586.98426 3.40603 393.62956 3708.00000
588.37929 3.41702 395.00159 3710.00000
589.75816 3.42844 396.38986 3712.00000
591.12015 3.44019 397.79424 3714.00000
592.46535 3.45205 399.21376 3716.00000
593.79415 3.46368 400.64720 3718.00000
595.10657 3.47480 402.09368 3720.00000
596.40238 3.48533 403.55262 3722.00000
597.68146 3.49544 405.02364 3724.00000
598.94380 3.50524 406.50667 3726.00000
600.18954 3.51463 408.00229 3728.00000
601.41908 3.52341 409.51140 3730.00000
602.63288 3.53145 411.03459 3732.00000
603.83140 3.53885 412.57177 3734.00000
605.01549 3.54608 414.12192 3736.00000
606.18680 3.55371 415.68318 3738.00000
607.34771 3.56210 417.25309 3740.00000
608.50017 3.57120 418.82963 3742.00000
609.64507 3.58056 420.41170 3744.00000
610.78237 3.58958 421.99897 3746.00000
611.91158 3.59792 423.59145 3748.00000
613.03219 3.60558 425.18918 3750.00000
614.14367 3.61299 426.79207 3752.00000
615.24558 3.62071 428.39996 3754.00000
616.33777 3.62917 430.01253 3756.00000
617.42026 3.63864 431.62963 3758.00000
618.49275 3.64911 433.25204 3760.00000
619.55423 3.66040 434.88206 3762.00000
620.60270 3.67221 436.52368 3764.00000
621.63489 3.68414 438.18111 3766.00000
622.64668 3.69581 439.85641 3768.00000
623.63545 3.70692 441.54921 3770.00000
624.60214 3.71744 443.25710 3772.00000
625.55128 3.72766 444.97620 3774.00000
626.48892 3.73803 446.70236 3776.00000
627.41950 3.74888 448.43278 3778.00000
628.34524 3.76017 450.16609 3780.00000
629.26670 3.77165 451.90194 3782.00000
630.18347 3.78314 453.64044 3784.00000
631.09401 3.79460 455.38223 3786.00000
631.99580 3.80604 457.12835 3788.00000
632.88526 3.81745 458.88023 3790.00000
633.75876 3.82881 460.63918 3792.00000
634.61415 3.84014 462.40573 3794.00000
635.45109 3.85143 464.17977 3796.00000
636.27061 3.86254 465.96115 3798.00000
637.07448 3.87321 467.75038 3800.00000
637.86507 3.88328 469.54861 3802.00000
638.64545 3.89292 471.35627 3804.00000
639.41924 3.90258 473.17134 3806.00000
640.18974 3.91265 474.99079 3808.00000
640.95863 3.92318 476.81257 3810.00000
641.72574 3.93395 478.63605 3812.00000
642.49024 3.94471 480.46131 3814.00000
643.25166 3.95544 482.28851 3816.00000
644.00889 3.96611 484.11806 3818.00000
644.75936 3.97650 485.95096 3820.00000
645.49989 3.98622 487.78836 3822.00000
646.22760 3.99493 489.63125 3824.00000
646.94082 4.00239 491.48010 3826.00000
647.63903 4.00863 493.33490 3828.00000
648.32205 4.01372 495.19548 3830.00000
648.98991 4.01779 497.06161 3832.00000
649.64272 4.02108 498.93304 3834.00000
650.28032 4.02383 500.80960 3836.00000
650.90255 4.02604 502.69113 3838.00000
651.51011 4.02743 504.57714 3840.00000
652.10526 4.02752 506.46657 3842.00000
652.69159 4.02592 508.35796 3844.00000
653.27292 4.02274 510.24984 3846.00000
653.85155 4.01838 512.14170 3848.00000
654.42789 4.01314 514.03441 3850.00000
655.00199 4.00724 515.92999 3852.00000
655.57563 4.00081 517.83073 3854.00000
656.15163 3.99372 519.73738 3856.00000
656.73174 3.98570 521.64802 3858.00000
657.31567 3.97639 523.56019 3860.00000
657.90182 3.96569 525.47254 3862.00000
658.48915 3.95393 527.38451 3864.00000
659.07823 3.94175 529.29566 3866.00000
659.67151 3.92992 531.20528 3868.00000
660.27082 3.91903 533.11290 3870.00000
660.87486 3.90928 535.01901 3872.00000
661.48233 3.90062 536.92404 3874.00000
662.09211 3.89279 538.82835 3876.00000
662.70299 3.88533 540.73234 3878.00000
663.31413 3.87791 542.63625 3880.00000
663.92492 3.87042 544.54028 3882.00000
664.53464 3.86280 546.44466 3884.00000
665.14232 3.85509 548.34968 3886.00000
665.74712 3.84724 550.25559 3888.00000
666.34919 3.83913 552.16234 3890.00000
666.94924 3.83058 554.06971 3892.00000
667.54736 3.82151 555.97768 3894.00000
668.14292 3.81199 557.88645 3896.00000
668.73541 3.80221 559.79619 3898.00000
669.32511 3.79236 561.70679 3900.00000
669.91195 3.78256 563.61829 3902.00000
670.49511 3.77281 565.53092 3904.00000
671.07412 3.76310 567.44483 3906.00000
671.65030 3.75339 569.35959 3908.00000
672.22616 3.74361 571.27445 3910.00000
672.80432 3.73369 573.18861 3912.00000
673.38658 3.72365 575.10153 3914.00000
673.97269 3.71365 577.01335 3916.00000
674.56112 3.70390 578.92463 3918.00000
675.15050 3.69455 580.83585 3920.00000
675.74004 3.68558 582.74721 3922.00000
676.32946 3.67688 584.65869 3924.00000
676.91870 3.66826 586.57025 3926.00000
677.50785 3.65952 588.48186 3928.00000
678.09695 3.65047 590.39348 3930.00000
678.68604 3.64105 592.30508 3932.00000
679.27513 3.63150 594.21669 3934.00000
679.86424 3.62218 596.12829 3936.00000
680.45334 3.61344 598.03989 3938.00000
681.04245 3.60533 599.95148 3940.00000
681.63156 3.59760 601.86308 3942.00000
682.22067 3.58988 603.77467 3944.00000
682.80978 3.58189 605.68627 3946.00000
683.39889 3.57355 607.59787 3948.00000
683.98800 3.56480 609.50948 3950.00000
684.57711 3.55560 611.42109 3952.00000
685.16622 3.54598 613.33270 3954.00000
685.75533 3.53611 615.24429 3956.00000
686.34444 3.52616 617.15588 3958.00000
686.93354 3.51622 619.06747 3960.00000
687.52265 3.50612 620.97907 3962.00000
688.11177 3.49564 622.89069 3964.00000
688.70088 3.48472 624.80231 3966.00000
689.29000 3.47353 626.71394 3968.00000
689.87912 3.46231 628.62557 3970.00000
690.46824 3.45116 630.53720 3972.00000
691.05736 3.44002 632.44882 3974.00000
691.64647 3.42884 634.36043 3976.00000
692.23557 3.41755 636.27199 3978.00000
692.82463 3.40614 638.18343 3980.00000
693.41363 3.39475 640.09469 3982.00000
694.00257 3.38367 642.00576 3984.00000
694.59149 3.37321 643.91671 3986.00000
695.18038 3.36354 645.82762 3988.00000
695.76928 3.35466 647.73852 3990.00000
696.35817 3.34645 649.64943 3992.00000
696.94707 3.33886 651.56033 3994.00000
697.53597 3.33187 653.47123 3996.00000
698.12486 3.32548 655.38214 3998.00000
698.71373 3.31969 657.29306 4000.00000
699.30259 3.31452 659.20400 4002.00000
699.89145 3.30996 661.11496 4004.00000
700.48035 3.30605 663.02595 4006.00000
701.06942 3.30280 664.93695 4008.00000
701.65882 3.30020 666.84790 4010.00000
702.24867 3.29824 668.75861 4012.00000
702.83872 3.29689 670.66884 4014.00000
703.42786 3.29607 672.57836 4016.00000
704.01355 3.29570 674.48742 4018.00000
704.59188 3.29572 676.39727 4020.00000
705.15904 3.29622 678.30968 4022.00000
705.71323 3.29718 680.22570 4024.00000
706.25510 3.29844 682.14543 4026.00000
706.78759 3.29991 684.06804 4028.00000
707.31496 3.30153 685.99223 4030.00000
707.84060 3.30326 687.91695 4032.00000
708.36606 3.30499 689.84169 4034.00000
708.89177 3.30671 691.76632 4036.00000
709.41773 3.30847 693.69081 4038.00000
709.94389 3.31030 695.61520 4040.00000
710.47026 3.31223 697.53947 4042.00000
710.99682 3.31426 699.46363 4044.00000
711.52330 3.31642 701.38775 4046.00000
712.04880 3.31874 703.31207 4048.00000
712.57156 3.32125 705.23714 4050.00000
713.08934 3.32400 707.16360 4052.00000
713.60096 3.32702 709.09184 4054.00000
714.10753 3.33036 711.02161 4056.00000
714.61142 3.33405 712.95230 4058.00000
715.11443 3.33811 714.88333 4060.00000
715.61738 3.34254 716.81407 4062.00000
716.12033 3.34735 718.74339 4064.00000
716.62289 3.35262 720.66954 4066.00000
717.12454 3.35845 722.59069 4068.00000
717.62511 3.36490 724.50676 4070.00000
718.12458 3.37197 726.41979 4072.00000
718.62228 3.37966 728.33211 4074.00000
719.11651 3.38791 730.24546 4076.00000
719.60530 3.39671 732.16082 4078.00000
720.08766 3.40604 734.07850 4080.00000
720.56325 3.41593 735.99843 4082.00000
721.03105 3.42634 737.92068 4084.00000
721.48855 3.43723 739.84565 4086.00000
721.93215 3.44850 741.77405 4088.00000
722.35865 3.46009 743.70640 4090.00000
722.76731 3.47198 745.64265 4092.00000
723.15993 3.48423 747.58209 4094.00000
723.54030 3.49688 749.52360 4096.00000
723.91262 3.50996 751.46603 4098.00000
724.28052 3.52340 753.40856 4100.00000
724.64680 3.53706 755.35111 4102.00000
725.01313 3.55081 757.29471 4104.00000
725.38045 3.56452 759.24149 4106.00000
725.74928 3.57817 761.19399 4108.00000
726.11961 3.59177 763.15281 4110.00000
726.49095 3.60534 765.11604 4112.00000
726.86273 3.61891 767.08136 4114.00000
727.23437 3.63250 769.04727 4116.00000
727.60520 3.64612 771.01315 4118.00000
727.97444 3.65977 772.97896 4120.00000
728.34128 3.67339 774.94498 4122.00000
728.70485 3.68689 776.91168 4124.00000
729.06440 3.70027 778.87967 4126.00000
729.41956 3.71354 780.84964 4128.00000
729.77011 3.72671 782.82192 4130.00000
730.11547 3.73982 784.79567 4132.00000
730.45453 3.75287 786.76697 4134.00000
730.78584 3.76580 788.72713 4136.00000
731.10801 3.77845 790.66355 4138.00000
731.42043 3.79051 792.56830 4140.00000
731.72286 3.80173 794.44748 4142.00000
732.00867 3.81182 796.30223 4144.00000
732.25564 3.82025 798.10102 4146.00000
732.42509 3.82646 799.76750 4148.00000
732.48307 3.83034 801.20554 4150.00000
732.42747 3.83232 802.38597 4152.00000
732.26971 3.83237 803.36535 4154.00000
732.00310 3.83119 804.19132 4156.00000
731.59365 3.82997 804.86889 4158.00000
731.00740 3.82846 805.39559 4160.00000
730.24657 3.82573 805.80300 4162.00000
729.32364 3.82088 806.13568 4164.00000
728.23506 3.81364 806.46360 4166.00000
726.94206 3.80506 806.87237 4168.00000
725.43554 3.79690 807.41155 4170.00000
723.78196 3.79123 808.07234 4172.00000
722.04012 3.78740 808.81232 4174.00000
720.24705 3.78410 809.57309 4176.00000
718.41503 3.78052 810.30501 4178.00000
716.54552 3.77654 810.98094 4180.00000
714.64685 3.77208 811.60135 4182.00000
712.73061 3.76710 812.17862 4184.00000
710.80430 3.76155 812.72185 4186.00000
708.87214 3.75547 813.23947 4188.00000
706.93652 3.74902 813.73961 4190.00000
704.99897 3.74232 814.22950 4192.00000
703.06059 3.73550 814.71493 4194.00000
701.12194 3.72865 815.19914 4196.00000
699.18333 3.72179 815.68352 4198.00000
697.24480 3.71495 816.16829 4200.00000
695.30633 3.70809 816.65318 4202.00000
693.36784 3.70118 817.13786 4204.00000
691.42929 3.69422 817.62214 4206.00000
689.49065 3.68724 818.10606 4208.00000
687.55182 3.68029 818.58973 4210.00000
685.61255 3.67338 819.07328 4212.00000
683.67244 3.66651 819.55670 4214.00000
681.73122 3.65965 820.03998 4216.00000
679.78909 3.65276 820.52318 4218.00000
677.84638 3.64585 821.00604 4220.00000
675.90342 3.63892 821.48848 4222.00000
673.96034 3.63199 821.97038 4224.00000
672.01717 3.62506 822.45173 4226.00000
670.07390 3.61814 822.93252 4228.00000
668.13055 3.61120 823.41285 4230.00000
666.18714 3.60420 823.89292 4232.00000
664.24370 3.59708 824.37281 4234.00000
662.30020 3.58976 824.85252 4236.00000
660.35660 3.58220 825.33193 4238.00000
658.41293 3.57435 825.81114 4240.00000
656.46921 3.56618 826.29025 4242.00000
654.52551 3.55768 826.76953 4244.00000
652.58177 3.54883 827.24866 4246.00000
650.63788 3.53960 827.72709 4248.00000
648.69390 3.52995 828.20492 4250.00000
646.74996 3.51986 828.68259 4252.00000
