VERSION 0.7
FIELDS x y z lapdistance time
SIZE 4 4 4 4 4
TYPE F F F F F
COUNT 1 1 1 1 1
WIDTH 800
HEIGHT 1
VIEWPOINT -0.267 0.655 0.655 0.265 -5.986 3.074 69.569
POINTS 800
DATA ascii
-112.34841 2.92367 465.84473 0.00000 0.00000
-118.23351 2.87290 460.18686 8.16139 0.09926
-124.12411 2.82468 454.52338 16.33021 0.19853
-130.02016 2.79265 448.85522 24.50674 0.29779
-135.92230 2.76480 443.18219 32.69074 0.39706
-141.82982 2.71313 437.50671 40.88000 0.49632
-147.74525 2.66743 431.82764 49.07855 0.59558
-153.66838 2.63786 426.14709 57.28999 0.69485
-159.59894 2.60085 420.46548 65.50748 0.79411
-165.53691 2.56792 414.78293 73.73054 0.89338
-171.48245 2.51926 409.09659 81.96188 0.99264
-177.43529 2.48144 403.41071 90.19558 1.09190
-183.39653 2.43343 397.72421 98.43123 1.19117
-189.36502 2.38076 392.03787 106.67184 1.29043
-195.34180 2.33216 386.35239 114.91776 1.38970
-201.32829 2.29711 380.66751 123.16962 1.48896
-207.32323 2.26333 374.98291 131.42801 1.58823
-213.32581 2.22037 369.29962 139.69006 1.68749
-219.34056 2.17012 363.62061 147.95828 1.78675
-225.37210 2.12807 357.95209 156.23021 1.88602
-231.41437 2.08997 352.28833 164.50684 1.98528
-237.46239 2.04698 346.62399 172.78790 2.08455
-243.51663 1.99905 340.95868 181.07350 2.18381
-249.57655 1.94488 335.29410 189.37299 2.28307
-255.64116 1.89647 329.62695 197.68344 2.38234
-261.70844 1.84987 323.95578 205.99921 2.48160
-267.77783 1.81162 318.28030 214.32059 2.58087
-273.85022 1.78166 312.60114 222.64763 2.68013
-279.92453 1.76157 306.92029 230.97830 2.77939
-286.00070 1.74843 301.23456 239.31430 2.87866
-292.07593 1.74777 295.54227 247.65276 2.97792
-298.14987 1.75333 289.84402 255.97778 3.07719
-304.22202 1.77541 284.13858 264.30627 3.17645
-310.28986 1.79855 278.42569 272.63693 3.27571
-316.35452 1.82295 272.70523 280.97012 3.37498
-322.41571 1.84738 266.97717 289.30630 3.47424
-328.47278 1.87230 261.24142 297.64432 3.57351
-334.39264 1.90777 255.61157 305.81033 3.67277
-339.98138 1.97078 250.24658 313.55313 3.77204
-345.18774 2.05062 245.13411 320.84689 3.87130
-349.97931 2.12842 240.21254 327.71188 3.97056
-354.34369 2.19619 235.41792 334.17999 4.06983
-358.27652 2.24779 230.70854 340.27570 4.16909
-361.78537 2.27359 226.07588 346.01321 4.26836
-364.89661 2.26799 221.51320 351.41971 4.36762
-367.63632 2.24121 216.97948 356.54477 4.46688
-370.02985 2.20364 212.42421 361.44254 4.56615
-372.07428 2.16690 207.85127 366.10138 4.66541
-373.79178 2.12940 203.23053 370.55133 4.76468
-375.20319 2.08286 198.54738 376.01074 4.86394
-376.28384 2.06026 193.80183 382.83646 4.96320
-377.02780 2.10564 189.00046 391.04266 5.06247
-377.45264 2.18924 184.15805 397.51007 5.16173
-377.56927 2.29162 179.26831 401.62323 5.26100
-377.41415 2.37363 174.32283 406.00177 5.36026
-376.98969 2.43565 169.34134 410.66162 5.45952
-376.34619 2.45952 164.34996 415.54892 5.55879
-375.48450 2.45913 159.33014 420.72495 5.65805
-374.44452 2.43653 154.23828 426.11884 5.75732
-373.31735 2.39015 149.05984 431.69510 5.85658
-372.12433 2.35418 143.79675 437.42667 5.95584
-370.95358 2.33719 138.43665 443.26590 6.05511
-369.88367 2.31509 132.96626 449.15094 6.15437
-369.03662 2.33513 127.37770 455.11295 6.25364
-368.42133 2.35662 121.68301 461.18423 6.35290
-368.05667 2.37913 115.89517 467.31897 6.45217
-367.95001 2.40062 110.02779 473.48157 6.55143
-368.11261 2.42696 104.09634 479.70078 6.65069
-368.55148 2.44550 98.11839 485.99313 6.74996
-369.28705 2.47483 92.11260 492.26712 6.84922
-370.31259 2.50444 86.09409 498.55148 6.94849
-371.64108 2.53464 80.08513 504.87097 7.04775
-373.27615 2.57312 74.12331 511.23492 7.14701
-375.21207 2.60584 68.20078 517.62817 7.24628
-377.45355 2.64051 62.33536 524.00079 7.34554
-379.99219 2.67546 56.53959 530.38873 7.44481
-382.82251 2.71288 50.82742 536.82410 7.54407
-385.93735 2.75146 45.21310 543.24762 7.64333
-389.33777 2.79701 39.71386 549.64862 7.74260
-393.00980 2.84158 34.33827 556.05444 7.84186
-396.94174 2.87761 29.09492 562.49872 7.94113
-401.12454 2.92563 23.99145 569.01910 8.04039
-405.53503 2.97345 19.02362 575.57867 8.13966
-410.15918 3.01682 14.18984 582.17908 8.23892
-414.96915 3.04932 9.47671 588.82928 8.33818
-419.94849 3.06878 4.87375 595.62183 8.43745
-425.05151 3.08386 0.33857 602.46387 8.53671
-430.24512 3.07386 -4.16330 609.35242 8.63597
-435.49658 3.05358 -8.67101 616.28900 8.73524
-440.79080 3.01524 -13.20126 623.27264 8.83450
-446.12747 2.99652 -17.75286 630.30157 8.93377
-451.49005 2.98084 -22.34237 637.38580 9.03303
-456.87537 2.95458 -26.96032 644.50586 9.13230
-462.26010 2.95616 -31.61643 651.64795 9.23156
-467.62866 2.99935 -36.34874 658.82831 9.33082
-472.97632 3.02694 -41.16267 666.04626 9.43009
-478.29822 3.05107 -46.05946 673.30231 9.52935
-483.59509 3.06971 -51.03777 680.59607 9.62862
-488.87418 3.09042 -56.08637 687.92633 9.72788
-494.13620 3.11654 -61.20246 695.29559 9.82714
-499.38422 3.13842 -66.38071 702.69672 9.92641
-504.62613 3.15560 -71.61211 710.12939 10.02567
-509.85904 3.17743 -76.89807 717.59375 10.12494
-515.08435 3.19289 -82.23409 725.08704 10.22420
-520.30731 3.20174 -87.61543 732.61151 10.32346
-525.52716 3.19870 -93.04129 740.16583 10.42273
-530.74243 3.19405 -98.51161 747.75024 10.52199
-535.95032 3.18411 -104.02771 755.36469 10.62126
-541.16034 3.16593 -109.57992 763.00806 10.72052
-546.37421 3.14832 -115.16478 770.67084 10.81979
-551.57715 3.12610 -120.79492 778.35651 10.91905
-556.76562 3.09800 -126.47289 786.06592 11.01831
-561.93811 3.07693 -132.19693 793.79645 11.11758
-567.09583 3.05645 -137.96536 801.54950 11.21684
-572.23969 3.03614 -143.77783 809.32404 11.31611
-577.36987 3.01106 -149.63132 817.11902 11.41537
-582.48370 2.99234 -155.52515 824.93378 11.51463
-587.58246 2.97030 -161.46098 832.77075 11.61390
-592.66400 2.96140 -167.43742 840.62769 11.71316
-597.72821 2.94307 -173.45317 848.50934 11.81243
-602.77142 2.92170 -179.51079 856.40778 11.91169
-607.79321 2.90484 -185.60974 864.31958 12.01095
-612.79718 2.88296 -191.74394 872.24408 12.11022
-617.78979 2.86228 -197.91003 880.18176 12.20948
-622.76184 2.84154 -204.11145 888.13196 12.30875
-627.71240 2.82200 -210.35056 896.09766 12.40801
-632.63983 2.80388 -216.62675 904.07605 12.50727
-637.54163 2.77791 -222.93973 912.06726 12.60654
-642.41339 2.75474 -229.28363 920.06409 12.70580
-647.25568 2.72514 -235.65744 928.06708 12.80507
-652.06940 2.69802 -242.06686 936.07654 12.90433
-656.84778 2.67332 -248.50110 944.07904 13.00359
-661.59442 2.63649 -254.97221 952.08649 13.10286
-666.29968 2.59907 -261.48660 960.10089 13.20212
-670.95831 2.57050 -268.04651 968.12195 13.30139
-675.57019 2.54919 -274.65112 976.14948 13.40065
-680.13611 2.53555 -281.29871 984.18536 13.49992
-684.64612 2.53011 -287.99442 992.22974 13.59918
-689.10205 2.53401 -294.73703 1000.28424 13.69844
-693.50360 2.54423 -301.52582 1008.34967 13.79771
-697.81592 2.55741 -308.32199 1016.37152 13.89697
-701.87921 2.57525 -314.86392 1024.04297 13.99624
-705.65912 2.62170 -321.08154 1031.28857 14.09550
-709.16467 2.67960 -326.97296 1038.11206 14.19476
-712.40460 2.73818 -332.52240 1044.51184 14.29403
-715.38940 2.79298 -337.73480 1050.49231 14.39329
-718.12146 2.84493 -342.61639 1056.06116 14.49256
-720.60425 2.89088 -347.18286 1061.25476 14.59182
-722.82904 2.92503 -351.48624 1066.09912 14.69108
-724.78375 2.94551 -355.58020 1070.63074 14.79035
-726.45587 2.95358 -359.49548 1074.87097 14.88961
-727.84357 2.95076 -363.25436 1078.84229 14.98888
-728.95959 2.93996 -366.87726 1082.56030 15.08814
-729.80927 2.92362 -370.34375 1086.01611 15.18740
-730.40692 2.90198 -373.65024 1089.21765 15.28667
-730.76392 2.87441 -376.86017 1092.22742 15.38593
-730.88739 2.84175 -379.98654 1095.06116 15.48520
-730.78717 2.80624 -382.98407 1097.88757 15.58446
-730.45825 2.77298 -385.87918 1101.04187 15.68373
-729.89441 2.74666 -388.70630 1104.37085 15.78299
-729.09674 2.72906 -391.48163 1108.09119 15.88225
-728.06342 2.72206 -394.22391 1112.54761 15.98152
-726.79456 2.72650 -396.92850 1117.25220 16.08078
-725.28754 2.74340 -399.55563 1121.61292 16.18005
-723.55304 2.77144 -402.07831 1125.88440 16.27931
-721.60718 2.80928 -404.47668 1129.26697 16.37857
-719.48901 2.85187 -406.71194 1132.33008 16.47784
-717.20557 2.89269 -408.80005 1135.33887 16.57710
-714.73956 2.92839 -410.79099 1138.35876 16.67637
-712.09613 2.95859 -412.65546 1141.41711 16.77563
-709.29962 2.98216 -414.34830 1144.54224 16.87489
-706.35901 2.99827 -415.85696 1147.73230 16.97416
-703.27679 3.00725 -417.18381 1150.99487 17.07342
-700.06854 3.00860 -418.31171 1154.32190 17.17269
-696.75018 3.00354 -419.22827 1157.70605 17.27195
-693.33862 2.99050 -419.93350 1161.18689 17.37121
-689.84424 2.96487 -420.43030 1164.70947 17.47048
-686.26892 2.92872 -420.74429 1168.27673 17.56974
-682.60254 2.89035 -420.91998 1171.90601 17.66901
-678.81256 2.85566 -421.00433 1175.63892 17.76827
-674.88831 2.83356 -421.00366 1179.48706 17.86753
-670.82745 2.81888 -420.95261 1183.46069 17.96680
-666.62463 2.81369 -420.91132 1187.57544 18.06606
-662.28595 2.82026 -420.95825 1191.84180 18.16533
-657.83618 2.83056 -421.19073 1196.25085 18.26459
-653.29272 2.84108 -421.62708 1200.78418 18.36386
-648.74628 2.84381 -422.30338 1205.36572 18.46312
-644.27692 2.83408 -423.20837 1209.91711 18.56238
-639.90826 2.81530 -424.34015 1214.41650 18.66165
-635.66620 2.78898 -425.70541 1218.84216 18.76091
-631.56982 2.75812 -427.31601 1223.18005 18.86018
-627.63562 2.72034 -429.16718 1227.41504 18.95944
-623.85480 2.67573 -431.26300 1231.64197 19.05870
-620.23639 2.63517 -433.60828 1235.94421 19.15797
-616.78674 2.61109 -436.20532 1240.39270 19.25723
-613.49951 2.59089 -439.03311 1245.09766 19.35650
-610.39484 2.58400 -442.09143 1250.08813 19.45576
-607.50061 2.59081 -445.36115 1255.07507 19.55503
-604.84912 2.61766 -448.82224 1260.12292 19.65429
-602.42627 2.65153 -452.47021 1265.19897 19.75355
-600.23737 2.69543 -456.30817 1269.99500 19.85282
-598.31647 2.74840 -460.29852 1274.60413 19.95208
-596.66864 2.80675 -464.42328 1279.11035 20.05134
-595.27380 2.86930 -468.69638 1283.40820 20.15061
-594.14032 2.93309 -473.08829 1287.76624 20.24987
-593.25183 2.99236 -477.60330 1292.20520 20.34914
-592.61200 3.04381 -482.22897 1296.72620 20.44840
-592.20349 3.08983 -486.96149 1301.40698 20.54766
-592.01154 3.13220 -491.80542 1306.23425 20.64693
-592.00555 3.18198 -496.76498 1311.18909 20.74619
-592.14325 3.19750 -501.81491 1316.24377 20.84546
-592.44135 3.21276 -506.95129 1321.39490 20.94472
-592.88751 3.20746 -512.17242 1326.63818 21.04399
-593.47736 3.17805 -517.45709 1331.95361 21.14325
-594.21600 3.15950 -522.80505 1337.34009 21.24251
-595.09033 3.14879 -528.22760 1342.80701 21.34178
-596.08868 3.14392 -533.72137 1348.35071 21.44104
-597.17828 3.15267 -539.28973 1353.96960 21.54031
-598.31622 3.18066 -544.93683 1359.66943 21.63957
-599.46796 3.23281 -550.66632 1365.45300 21.73883
-600.64172 3.28230 -556.47198 1371.31311 21.83810
-601.81635 3.34128 -562.35632 1377.25293 21.93736
-602.94843 3.39418 -568.32178 1383.27124 22.03663
-603.98724 3.44296 -574.37329 1389.37109 22.13589
-604.91156 3.50011 -580.49500 1395.53467 22.23516
-605.70496 3.54410 -586.69043 1401.76465 22.33442
-606.33276 3.57893 -592.96692 1408.06604 22.43368
-606.77209 3.60654 -599.31787 1414.43176 22.53295
-606.97986 3.63430 -605.73450 1420.85046 22.63221
-606.92603 3.64975 -612.20325 1427.30652 22.73148
-606.58124 3.65795 -618.70801 1433.78259 22.83074
-605.93286 3.64544 -625.23022 1440.25952 22.93000
-604.95081 3.62343 -631.74597 1446.71423 23.02927
-603.62250 3.59134 -638.23181 1453.25134 23.12853
-601.93341 3.56244 -644.66046 1459.96887 23.22779
-599.87537 3.55405 -651.00415 1467.04871 23.32706
-597.45416 3.56190 -657.24176 1474.34583 23.42632
-594.68988 3.58431 -663.35474 1481.77454 23.52559
-591.57391 3.63551 -669.31592 1489.15442 23.62485
-588.11188 3.70341 -675.10120 1496.18994 23.72412
-584.32495 3.76134 -680.70282 1502.94189 23.82338
-580.22107 3.83745 -686.10254 1509.50842 23.92264
-575.82593 3.90452 -691.29858 1516.13574 24.02191
-571.15082 3.95902 -696.27466 1522.83728 24.12117
-566.21075 3.99903 -701.02039 1529.64697 24.22044
-561.03247 4.01658 -705.54919 1536.52185 24.31970
-555.64386 4.03388 -709.88141 1543.44885 24.41896
-550.10413 4.02864 -714.08826 1550.40710 24.51823
-544.44916 4.00268 -718.21057 1557.40320 24.61749
-538.69702 3.95970 -722.27240 1564.44080 24.71676
-532.85461 3.89171 -726.27600 1571.51355 24.81602
-526.93536 3.81715 -730.20184 1578.59082 24.91529
-520.92389 3.76083 -734.05109 1585.69751 25.01455
-514.82367 3.72766 -737.83270 1592.83838 25.11381
-508.63724 3.69483 -741.54266 1600.00989 25.21308
-502.36182 3.69123 -745.17480 1607.21179 25.31234
-496.00323 3.67520 -748.73029 1614.44116 25.41161
-489.56512 3.64253 -752.21368 1621.70239 25.51087
-483.04813 3.60240 -755.62048 1629.02795 25.61013
-476.46362 3.56565 -758.96899 1636.41382 25.70940
-469.82819 3.52334 -762.29089 1643.86804 25.80866
-463.14325 3.47887 -765.58606 1651.40027 25.90792
-456.42966 3.44505 -768.89374 1658.99170 26.00719
-449.69897 3.41992 -772.23389 1666.62769 26.10645
-442.91287 3.38069 -775.52649 1674.30859 26.20572
-436.06262 3.36491 -778.74707 1681.97192 26.30498
-429.15567 3.34391 -781.90729 1689.65295 26.40425
-422.20239 3.31687 -785.03217 1697.35681 26.50351
-415.21637 3.29060 -788.14832 1705.05640 26.60277
-408.20703 3.28190 -791.27521 1712.72693 26.70204
-401.17871 3.27506 -794.41772 1720.41968 26.80130
-394.14117 3.26205 -797.59796 1728.13354 26.90057
-387.11139 3.24018 -800.84961 1735.86316 26.99983
-380.08572 3.23180 -804.16211 1743.60132 27.09909
-373.06735 3.23518 -807.53821 1751.35889 27.19836
-366.06589 3.22503 -810.99286 1759.13293 27.29762
-359.08459 3.20441 -814.52026 1766.92029 27.39689
-352.12146 3.16670 -818.11804 1774.73120 27.49615
-345.17361 3.11359 -821.78699 1782.57520 27.59542
-338.23312 3.08119 -825.51215 1790.45544 27.69468
-331.29614 3.04840 -829.28064 1798.38708 27.79394
-324.35522 3.02010 -833.07928 1806.35315 27.89321
-317.40506 2.99526 -836.89532 1814.35474 27.99247
-310.44095 2.97428 -840.72076 1822.37927 28.09174
-303.62344 2.97691 -844.45734 1830.23157 28.19100
-297.15170 2.99658 -847.96124 1837.66113 28.29026
-291.01358 3.01410 -851.17670 1844.65063 28.38953
-285.11731 3.03254 -854.03882 1851.17346 28.48879
-279.39935 3.02904 -856.50995 1857.33118 28.58806
-273.77255 2.99022 -858.60364 1863.23401 28.68732
-268.14877 2.92397 -860.33667 1868.96973 28.78658
-262.50925 2.83709 -861.71381 1874.56042 28.88585
-256.83728 2.73947 -862.73883 1880.03040 28.98511
-251.14400 2.64843 -863.40656 1885.79565 29.08438
-245.45496 2.57040 -863.71960 1892.03955 29.18364
-239.79240 2.53187 -863.66522 1899.36206 29.28290
-234.17621 2.60249 -863.21167 1907.25745 29.38217
-228.62140 2.70255 -862.40015 1913.92188 29.48143
-223.13347 2.80553 -861.24353 1919.58899 29.58070
-217.70654 2.90893 -859.74573 1924.70618 29.67996
-212.33768 2.99477 -857.92560 1929.85596 29.77922
-207.02788 3.05089 -855.81140 1935.24731 29.87849
-201.75684 3.07982 -853.46216 1940.84509 29.97775
-196.51598 3.05630 -850.92230 1946.73804 30.07702
-191.29489 3.01643 -848.23010 1952.79102 30.17628
-186.05826 2.98601 -845.41742 1958.99243 30.27555
-180.79001 2.94169 -842.51300 1965.32031 30.37481
-175.45499 2.91877 -839.58337 1971.70056 30.47407
-170.01505 2.88073 -836.70874 1978.12659 30.57334
-164.43652 2.91001 -833.95691 1984.61987 30.67260
-158.72681 2.94088 -831.34027 1991.14453 30.77187
-152.88219 2.97121 -828.88141 1997.66333 30.87113
-146.90781 3.00908 -826.59106 2004.19446 30.97039
-140.80835 3.07257 -824.48334 2010.75806 31.06966
-134.59471 3.13102 -822.55371 2017.33130 31.16892
-128.27127 3.18387 -820.81036 2023.87195 31.26819
-121.84833 3.22416 -819.24994 2030.39612 31.36745
-115.33265 3.23419 -817.87268 2036.92249 31.46671
-108.73231 3.23452 -816.65564 2043.56030 31.56598
-102.06055 3.20955 -815.54779 2050.35254 31.66524
-95.32880 3.18470 -814.48175 2057.24854 31.76451
-88.54818 3.18434 -813.39496 2064.24121 31.86377
-81.73826 3.19788 -812.20270 2071.32983 31.96304
-74.91000 3.21728 -810.86481 2078.46094 32.06230
-68.08170 3.23254 -809.33539 2085.63086 32.16156
-61.26723 3.25356 -807.58960 2092.85400 32.26083
-54.47897 3.27721 -805.61951 2100.13818 32.36009
-47.73605 3.30080 -803.41553 2107.42871 32.45935
-41.05460 3.31939 -800.97375 2114.72803 32.55862
-34.43854 3.33507 -798.27979 2122.06714 32.65788
-27.90463 3.35318 -795.32550 2129.44678 32.75715
-21.46132 3.35115 -792.11835 2136.82446 32.85641
-15.11981 3.34438 -788.65918 2144.21924 32.95568
-8.88746 3.33387 -784.95367 2151.64990 33.05494
-2.77305 3.31760 -781.01001 2159.12891 33.15421
3.21038 3.29575 -776.82928 2166.61133 33.25347
9.05116 3.26971 -772.41272 2174.10229 33.35273
14.73956 3.25296 -767.76550 2181.62329 33.45200
20.26755 3.23322 -762.89606 2189.18726 33.55126
25.63057 3.21382 -757.81146 2196.75000 33.65052
30.82003 3.20021 -752.51990 2204.31641 33.74979
35.83167 3.17900 -747.03046 2211.90967 33.84905
40.65890 3.15458 -741.34985 2219.54175 33.94831
45.29398 3.13950 -735.48480 2227.16406 34.04758
49.73191 3.12081 -729.44421 2234.78442 34.14684
53.96532 3.10268 -723.23700 2242.42310 34.24611
57.99220 3.09324 -716.87000 2250.09180 34.34537
61.80846 3.08628 -710.35309 2257.74316 34.44464
65.41913 3.09080 -703.69788 2265.38623 34.54390
68.82652 3.10566 -696.91553 2273.04199 34.64317
72.03492 3.13341 -690.01520 2280.70728 34.74243
75.04791 3.17061 -683.00739 2288.33813 34.84169
77.89320 3.19772 -675.90894 2295.94702 34.94096
80.64484 3.24836 -668.74829 2303.54468 35.04022
83.26942 3.30677 -661.51923 2311.16309 35.13948
85.68004 3.36615 -654.20123 2318.81494 35.23875
87.86986 3.41338 -646.79993 2326.49609 35.33801
89.89897 3.45364 -639.33228 2334.20630 35.43728
91.80382 3.47573 -631.81177 2341.96045 35.53654
93.57999 3.50859 -624.24036 2349.73877 35.63581
95.24545 3.53182 -616.62457 2357.53784 35.73507
96.80378 3.55981 -608.96680 2365.35693 35.83434
98.24572 3.58208 -601.26770 2373.19141 35.93360
99.56175 3.58729 -593.52875 2381.02173 36.03286
100.73895 3.60426 -585.75092 2388.84570 36.13213
101.77435 3.60872 -577.93744 2396.68384 36.23139
102.66554 3.61583 -570.09064 2404.53638 36.33065
103.41026 3.61652 -562.21527 2412.40234 36.42992
104.00178 3.61068 -554.31390 2420.28027 36.52918
104.43188 3.60130 -546.38922 2428.16357 36.62844
104.70637 3.57697 -538.44531 2436.07373 36.72771
104.83691 3.53684 -530.48450 2444.02271 36.82697
104.82190 3.49288 -522.51105 2452.01538 36.92624
104.65034 3.45259 -514.52826 2460.03027 37.02550
104.32204 3.41231 -506.53796 2468.07275 37.12477
103.84145 3.37457 -498.54465 2476.15283 37.22403
103.20808 3.33763 -490.55579 2484.24927 37.32330
102.42338 3.30657 -482.58362 2492.34448 37.42256
101.48861 3.29007 -474.61899 2500.45898 37.52182
100.39599 3.29046 -466.66803 2508.60083 37.62109
99.14175 3.30230 -458.73505 2516.76025 37.72035
97.72998 3.31523 -450.82144 2524.92041 37.81961
96.16706 3.33014 -442.92859 2533.09277 37.91888
94.45191 3.34636 -435.06094 2541.28027 38.01814
92.57726 3.36451 -427.22290 2549.46265 38.11741
90.54821 3.38406 -419.41800 2557.64380 38.21667
88.38107 3.40314 -411.64236 2565.83252 38.31594
86.08430 3.40656 -403.89825 2573.97266 38.41520
83.66213 3.39324 -396.18466 2582.10986 38.51447
81.11355 3.37437 -388.50284 2590.24805 38.61373
78.47005 3.35101 -380.84659 2598.38745 38.71299
75.74749 3.32685 -373.20981 2606.53296 38.81226
72.96315 3.29860 -365.58661 2614.65405 38.91152
70.12376 3.27078 -357.97565 2622.77734 39.01078
67.25568 3.24253 -350.36713 2630.90845 39.11005
64.38120 3.21010 -342.75244 2639.04785 39.20931
61.50686 3.18130 -335.12906 2647.19531 39.30858
58.64485 3.15320 -327.49014 2655.35254 39.40784
55.78745 3.14747 -319.84222 2663.51562 39.50711
52.91575 3.13258 -312.19324 2671.68457 39.60637
50.03959 3.11847 -304.54071 2679.85913 39.70563
47.18560 3.10168 -296.87268 2688.03979 39.80490
44.37761 3.08104 -289.17947 2696.22070 39.90416
41.65058 3.05455 -281.45132 2704.39771 40.00343
39.01901 3.01695 -273.68481 2712.58228 40.10269
36.52616 3.00708 -265.86838 2720.77490 40.20195
34.19389 3.01943 -258.00040 2728.97534 40.30122
32.01978 3.04926 -250.08392 2737.19727 40.40048
30.00264 3.07809 -242.12311 2745.43335 40.49974
28.13814 3.10841 -234.12531 2753.65918 40.59901
26.41664 3.13958 -226.08900 2761.88843 40.69827
24.86067 3.17232 -218.01891 2770.12109 40.79754
23.49069 3.20464 -209.91348 2778.36743 40.89680
22.29925 3.23489 -201.77824 2786.63501 40.99607
21.26963 3.26147 -193.62041 2794.92065 41.09533
20.40418 3.28408 -185.44240 2803.20020 41.19460
19.71583 3.29206 -177.24547 2811.48096 41.29386
19.20309 3.29172 -169.03374 2819.77002 41.39312
18.86216 3.29214 -160.81317 2828.07520 41.49239
18.69210 3.28156 -152.58232 2836.40210 41.59165
18.67622 3.25384 -144.34778 2844.71655 41.69091
18.81362 3.22700 -136.11218 2853.02881 41.79018
19.13268 3.20618 -127.88110 2861.34448 41.88944
19.64011 3.17085 -119.65849 2869.67261 41.98871
20.31528 3.14256 -111.44673 2878.03101 42.08797
21.14890 3.11941 -103.24675 2886.38501 42.18724
22.14788 3.09132 -95.06474 2894.74194 42.28650
23.31796 3.06770 -86.90268 2903.11035 42.38577
24.65858 3.04729 -78.76637 2911.46826 42.48503
26.16845 3.04047 -70.65620 2919.82056 42.58429
27.84750 3.04504 -62.58148 2928.17090 42.68356
29.69869 3.06721 -54.54233 2936.53174 42.78282
31.71840 3.08857 -46.54288 2944.89893 42.88208
33.90559 3.11699 -38.58588 2953.25366 42.98135
36.25805 3.13551 -30.67594 2961.60181 43.08061
38.77424 3.15807 -22.81547 2969.95361 43.17987
41.45309 3.18911 -15.00915 2978.31421 43.27914
44.29445 3.22669 -7.26613 2986.66724 43.37840
47.30502 3.25140 0.41672 2995.01074 43.47767
50.48427 3.28376 8.02680 3003.34595 43.57693
53.83004 3.30855 15.56838 3011.68945 43.67620
57.32977 3.32739 23.03866 3020.02563 43.77546
60.98018 3.34695 30.43846 3028.34082 43.87473
64.79221 3.34956 37.75519 3036.64624 43.97399
68.77193 3.33492 44.98120 3044.95020 44.07325
72.90739 3.30984 52.12295 3053.26294 44.17252
77.18612 3.29256 59.18034 3061.58179 44.27178
81.60889 3.27627 66.15248 3069.88745 44.37104
86.17461 3.26604 73.02966 3078.18115 44.47031
90.88174 3.25073 79.81374 3086.47388 44.56957
95.72623 3.23535 86.50306 3094.77539 44.66884
100.70459 3.21836 93.09328 3103.06812 44.76810
105.81484 3.20224 99.58546 3111.34204 44.86737
111.05288 3.18696 105.97581 3119.60522 44.96663
116.41485 3.18447 112.26348 3127.86401 45.06590
121.89462 3.18389 118.44977 3136.12402 45.16516
127.48030 3.19299 124.54498 3144.37061 45.26442
133.16646 3.21439 130.54674 3152.60059 45.36369
138.95728 3.24569 136.45183 3160.82300 45.46295
144.86037 3.29095 142.24591 3169.04224 45.56221
150.85286 3.33093 147.95181 3177.28809 45.66148
156.90343 3.36999 153.59755 3185.54663 45.76074
163.01503 3.40413 159.18416 3193.81177 45.86000
169.19551 3.44184 164.69969 3202.08252 45.95927
175.43561 3.46313 170.15045 3210.36572 46.05853
181.71989 3.49662 175.55803 3218.65771 46.15780
188.02895 3.51682 180.94261 3226.95508 46.25706
194.35152 3.54202 186.31541 3235.25586 46.35633
200.68729 3.56030 191.67812 3243.55615 46.45559
207.04549 3.56846 197.01878 3251.85889 46.55486
213.41278 3.56201 202.29483 3260.12671 46.65412
219.68839 3.54331 207.32321 3268.16553 46.75338
225.81949 3.51785 211.94249 3275.83105 46.85265
231.85931 3.47816 216.09456 3283.12744 46.95191
237.84888 3.42383 219.78310 3290.08887 47.05117
243.78058 3.36417 223.00632 3296.70483 47.15044
249.74040 3.29952 225.81638 3303.08813 47.24970
255.75656 3.23845 228.23354 3309.53711 47.34897
261.86185 3.17607 230.28267 3316.22021 47.44823
268.05237 3.12822 231.95990 3323.30957 47.54750
274.32053 3.11197 233.26573 3330.48535 47.64676
280.64920 3.07342 234.24380 3337.71875 47.74603
287.02902 3.08825 234.83647 3344.33936 47.84529
293.44315 3.09442 235.06355 3350.88940 47.94455
299.87613 3.10495 234.92381 3357.41309 48.04382
306.31210 3.11201 234.43242 3363.85449 48.14308
312.74115 3.11587 233.60670 3370.33423 48.24234
319.16501 3.11831 232.49635 3376.84766 48.34161
325.59854 3.12922 231.19745 3383.39551 48.44087
332.07767 3.15374 229.86658 3389.99146 48.54014
338.62946 3.20140 228.64127 3396.64404 48.63940
345.26437 3.25547 227.65240 3403.31714 48.73867
351.96658 3.29541 226.96901 3410.00977 48.83793
358.71777 3.32445 226.63597 3416.72900 48.93719
365.49326 3.33056 226.66257 3423.46631 49.03646
372.26477 3.30779 227.05824 3430.20996 49.13572
379.00620 3.27525 227.83855 3436.89941 49.23499
385.67953 3.25268 229.01079 3443.87500 49.33425
392.23471 3.26941 230.57245 3451.41431 49.43351
398.67151 3.34371 232.51556 3458.69629 49.53278
404.97211 3.43792 234.82416 3465.25513 49.63204
411.13876 3.52464 237.48946 3471.73999 49.73130
417.15997 3.58828 240.49956 3478.31348 49.83057
423.02313 3.64204 243.84596 3484.95752 49.92983
428.73615 3.67123 247.49649 3491.66431 50.02910
434.31650 3.66716 251.40273 3498.44434 50.12836
439.77164 3.67732 255.52296 3505.65527 50.22763
445.12378 3.66074 259.83102 3512.59375 50.32689
450.40475 3.64587 264.28354 3519.42407 50.42616
455.65112 3.62667 268.82321 3526.18018 50.52542
460.88394 3.60471 273.41306 3532.94189 50.62468
466.12186 3.58470 278.04037 3539.91162 50.72395
471.37787 3.55991 282.70230 3546.91846 50.82321
476.66037 3.52399 287.39661 3553.96753 50.92247
481.96979 3.49397 292.11575 3561.05444 51.02174
487.30090 3.46619 296.84836 3568.16748 51.12100
492.66360 3.43517 301.60666 3575.32178 51.22027
498.05997 3.40784 306.38727 3582.51978 51.31953
503.48804 3.37383 311.19046 3589.76733 51.41880
508.94516 3.34327 316.01422 3597.05176 51.51806
514.43549 3.33262 320.85806 3604.37402 51.61732
519.95532 3.32170 325.71930 3611.72998 51.71659
525.50116 3.29638 330.60190 3619.12036 51.81585
531.06329 3.28225 335.51706 3626.54321 51.91512
536.64160 3.27465 340.46524 3634.00122 52.01438
542.21619 3.27501 345.46399 3641.48779 52.11364
547.75916 3.29140 350.54205 3649.00562 52.21291
553.26343 3.31286 355.70242 3656.54834 52.31217
558.72284 3.33776 360.94986 3664.11108 52.41143
564.13275 3.36028 366.28571 3671.69287 52.51070
569.47913 3.37670 371.72235 3679.29028 52.60996
574.74744 3.38631 377.26447 3686.89355 52.70923
579.93512 3.39624 382.91357 3694.56226 52.80849
585.03857 3.41991 388.66986 3702.30640 52.90776
590.06293 3.44448 394.52405 3710.09717 53.00702
595.00293 3.47374 400.47681 3717.94385 53.10629
599.84753 3.50378 406.53366 3725.85791 53.20555
604.58374 3.53390 412.69791 3733.81494 53.30481
609.20050 3.56039 418.97437 3741.77881 53.40408
613.69110 3.59939 425.36075 3749.75928 53.50334
618.05560 3.62814 431.85431 3757.77539 53.60260
622.27771 3.67675 438.45895 3765.81104 53.70187
626.36511 3.72479 445.16592 3773.80151 53.80113
630.32184 3.77503 451.96902 3781.78564 53.90040
634.15210 3.82475 458.85837 3789.77246 53.99966
637.85712 3.88042 465.83170 3797.77197 54.09893
641.43604 3.93705 472.88638 3805.76099 54.19819
644.89050 3.99356 480.01749 3813.72412 54.29745
648.21741 4.04173 487.22443 3821.68604 54.39672
651.42346 4.07754 494.49933 3829.64771 54.49598
654.51184 4.09351 501.83829 3837.61426 54.59525
657.48999 4.10796 509.23544 3845.58911 54.69451
660.37268 4.10502 516.68549 3853.57642 54.79377
663.16675 4.08900 524.18103 3861.56299 54.89304
665.88690 4.07029 531.71466 3869.56445 54.99230
668.53906 4.03927 539.26807 3877.56543 55.09156
671.15186 4.01448 546.84894 3885.57983 55.19083
673.73547 3.98473 554.44897 3893.60352 55.29009
676.29803 3.95154 562.06720 3901.63916 55.38936
678.84314 3.92297 569.70319 3909.68579 55.48862
681.37061 3.88590 577.35309 3917.73999 55.58789
683.89343 3.85144 585.01904 3925.80933 55.68715
686.41077 3.81812 592.69513 3933.88745 55.78642
688.92474 3.78371 600.38245 3941.97485 55.88568
691.43713 3.76316 608.07996 3950.07251 55.98494
693.94958 3.72089 615.78680 3958.17798 56.08421
696.43683 3.69274 623.51123 3966.29370 56.18347
698.91833 3.65266 631.24591 3974.41724 56.28273
701.41028 3.61073 638.98669 3982.54980 56.38200
703.91217 3.57590 646.73370 3990.68848 56.48126
706.41724 3.53924 654.48645 3998.83521 56.58053
708.92719 3.50846 662.24939 4006.99243 56.67979
711.44183 3.48629 670.01904 4015.15796 56.77906
713.95941 3.47310 677.79279 4023.31567 56.87832
716.46838 3.46939 685.57556 4031.47559 56.97758
718.97009 3.46992 693.36938 4039.64136 57.07685
721.47052 3.48458 701.17053 4047.81274 57.17611
723.96484 3.50672 708.98120 4055.98828 57.27538
726.41980 3.53215 716.75116 4064.11108 57.37464
728.72595 3.56736 724.21112 4071.85620 57.47390
730.83118 3.60857 731.27991 4079.14502 57.57317
732.71246 3.65170 737.95715 4085.99365 57.67243
734.36182 3.69695 744.24890 4092.40747 57.77170
735.77319 3.74218 750.15918 4098.40088 57.87096
736.95331 3.78761 755.70135 4103.99414 57.97022
737.91962 3.82610 760.90759 4109.25635 58.06949
738.65393 3.85489 765.81531 4114.21582 58.16875
739.15753 3.88197 770.45752 4118.86963 58.26802
739.43707 3.90240 774.85040 4123.23535 58.36728
739.49261 3.91736 778.99951 4127.32129 58.46655
739.33301 3.92684 782.91156 4131.13184 58.56581
738.96771 3.93112 786.59509 4134.68066 58.66507
738.41058 3.93049 790.04858 4137.95752 58.76434
737.66052 3.92480 793.30902 4141.02002 58.86360
736.71674 3.91291 796.40381 4143.99561 58.96286
735.57281 3.89294 799.36804 4146.93359 59.06213
734.23303 3.86524 802.19952 4150.53418 59.16139
732.68707 3.84016 804.90552 4155.92139 59.26066
730.92719 3.83357 807.48773 4162.08789 59.35992
728.94098 3.85836 809.94714 4166.62256 59.45919
726.75629 3.88606 812.32648 4169.54053 59.55845
724.38037 3.90895 814.62213 4172.50879 59.65771
721.81458 3.92820 816.79352 4175.56250 59.75698
719.06976 3.94328 818.81549 4178.71045 59.85624
716.16223 3.95449 820.70325 4181.99170 59.95551
713.09033 3.96190 822.46045 4185.39990 60.05477
709.86633 3.96592 824.10559 4188.92578 60.15403
706.48578 3.96715 825.67200 4192.58447 60.25330
702.94794 3.96638 827.17566 4196.37842 60.35256
699.25342 3.96167 828.60333 4200.30566 60.45183
695.40295 3.95587 829.95441 4204.36572 60.55109
691.39545 3.94889 831.22687 4208.55713 60.65036
687.24109 3.93818 832.43060 4212.87549 60.74962
682.93878 3.92398 833.56714 4217.32227 60.84888
678.51172 3.90619 834.63690 4221.87891 60.94815
673.95538 3.88510 835.64777 4226.55811 61.04741
669.26361 3.86305 836.60278 4231.34717 61.14668
664.44385 3.84149 837.52417 4236.25049 61.24594
659.50824 3.81503 838.44940 4241.26807 61.34520
654.46796 3.79399 839.41370 4246.39648 61.44447
649.33417 3.76838 840.43359 4251.62793 61.54373
644.12372 3.74721 841.53986 4256.95557 61.64299
638.85846 3.72542 842.73792 4262.36133 61.74226
633.51556 3.70424 844.02032 4267.88623 61.84152
628.09479 3.68226 845.37744 4273.50195 61.94079
622.60022 3.66029 846.80872 4279.20898 62.04005
617.03528 3.63298 848.31458 4285.00049 62.13932
611.40033 3.59381 849.88599 4290.87695 62.23858
605.69873 3.55748 851.51678 4296.83447 62.33784
599.92981 3.52028 853.19586 4302.87158 62.43711
594.09802 3.48250 854.92004 4308.98193 62.53637
588.20300 3.44414 856.68378 4315.16455 62.63564
582.26489 3.40494 858.47430 4321.39844 62.73490
576.27155 3.36473 860.29431 4327.69141 62.83416
570.21356 3.32323 862.13715 4334.04980 62.93343
564.09344 3.28063 863.99292 4340.47021 63.03269
557.89850 3.23422 865.81915 4346.95117 63.13196
551.65613 3.18289 867.52130 4353.43164 63.23122
545.42108 3.12700 869.01099 4359.80176 63.33049
539.19409 3.06259 870.21051 4366.00098 63.42975
532.98694 2.99056 871.07947 4372.14795 63.52901
526.81744 2.91388 871.59900 4378.24463 63.62828
520.70544 2.83995 871.75983 4384.33301 63.72754
514.67474 2.78325 871.55658 4390.50391 63.82681
508.74518 2.73067 871.00244 4396.63867 63.92607
502.93732 2.68258 870.10358 4402.81738 64.02533
497.23471 2.63789 868.86920 4409.10547 64.12460
491.63599 2.60402 867.30249 4415.33643 64.22386
486.15363 2.57729 865.41351 4421.56982 64.32313
480.79559 2.54388 863.20673 4427.89893 64.42239
475.58438 2.52420 860.66833 4434.13623 64.52165
470.52649 2.51048 857.80658 4440.24365 64.62092
465.62726 2.50440 854.62488 4446.32129 64.72018
460.89325 2.50431 851.13116 4452.38525 64.81944
456.33572 2.51056 847.33838 4458.31006 64.91871
451.96133 2.52343 843.26288 4464.15723 65.01797
447.76489 2.54060 838.92987 4469.97168 65.11724
443.74210 2.54952 834.36420 4475.91406 65.21650
439.89279 2.55450 829.57605 4481.97803 65.31577
436.22119 2.55980 824.58130 4488.13428 65.41503
432.72412 2.56292 819.39557 4494.36865 65.51430
429.39371 2.56929 814.03711 4500.66016 65.61356
426.20636 2.56773 808.52710 4507.02295 65.71282
423.17224 2.52935 802.87177 4513.44141 65.81209
420.34842 2.50168 797.05396 4519.89209 65.91135
417.71475 2.46813 791.08948 4526.38232 66.01061
415.21228 2.45549 785.00732 4532.91162 66.10988
412.73279 2.46233 778.85431 4539.48730 66.20914
410.22745 2.49210 772.65021 4546.11963 66.30841
407.69769 2.54062 766.39911 4552.80225 66.40767
405.14041 2.58928 760.10327 4559.53516 66.50694
402.50012 2.63667 753.78699 4566.32617 66.60620
399.74466 2.68202 747.46552 4573.17578 66.70547
396.87329 2.72426 741.14929 4580.07568 66.80473
393.88016 2.76403 734.86462 4586.97412 66.90399
390.88776 2.80286 728.87115 4593.60596 67.00326
387.92807 2.83660 723.29401 4599.85400 67.10252
385.01419 2.86483 718.15613 4605.70117 67.20178
382.16782 2.88687 713.44220 4611.15625 67.30105
379.38504 2.90497 709.14038 4616.23486 67.40031
376.65747 2.91522 705.20898 4620.98340 67.49957
373.95969 2.92121 701.61792 4625.44043 67.59884
371.28186 2.92229 698.36133 4629.62109 67.69810
368.59891 2.91790 695.42462 4633.52637 67.79737
365.92020 2.90648 692.79321 4637.17725 67.89663
363.26355 2.88885 690.47009 4640.60254 67.99590
360.64127 2.86518 688.44537 4643.81055 68.09516
358.05600 2.83621 686.70026 4646.81787 68.19443
355.45032 2.80223 685.19592 4649.69824 68.29369
352.83755 2.76322 683.93304 4652.44775 68.39295
350.20728 2.72484 682.91010 4655.08057 68.49222
347.55396 2.69201 682.12769 4658.56641 68.59148
344.88663 2.67024 681.59076 4662.50684 68.69074
342.21945 2.66180 681.30078 4666.88965 68.79001
339.54932 2.66513 681.25043 4671.42725 68.88927
336.86099 2.67983 681.43170 4675.24951 68.98854
334.14374 2.70660 681.83966 4678.70410 69.08780
331.42029 2.74338 682.47168 4681.68311 69.18707
328.72226 2.78193 683.31903 4684.20361 69.28633
326.07901 2.81695 684.37469 4686.82275 69.38560
323.53668 2.84426 685.63422 4689.50488 69.48486
321.12234 2.86421 687.07886 4692.22314 69.58412
318.84497 2.87689 688.69165 4694.95947 69.68339
316.65872 2.88085 690.48096 4697.75488 69.78265
314.52237 2.87634 692.44635 4700.63965 69.88191
312.47711 2.86244 694.59198 4703.59131 69.98118
310.53909 2.84088 696.90918 4706.59326 70.08044
308.71219 2.81454 699.38953 4709.64160 70.17970
307.01343 2.78888 702.02954 4712.72363 70.27897
305.41718 2.76635 704.82922 4715.86133 70.37823
303.90176 2.74351 707.77966 4719.06299 70.47750
302.39328 2.72284 710.85870 4722.36133 70.57676
300.81567 2.71215 714.04651 4725.79346 70.67603
299.15781 2.71208 717.31030 4729.34326 70.77529
297.37106 2.72334 720.65826 4733.04736 70.87456
295.40637 2.73893 724.05103 4736.90967 70.97382
293.23853 2.74800 727.44739 4740.91309 71.07308
290.85086 2.74281 730.80017 4745.03125 71.17235
288.23154 2.72795 734.06891 4749.23535 71.27161
285.37427 2.71202 737.22949 4753.51025 71.37087
282.28857 2.68915 740.26807 4757.83301 71.47014
278.98416 2.65336 743.16876 4762.13721 71.56940
275.46072 2.61130 745.90881 4766.43262 71.66867
271.73636 2.56896 748.44666 4770.79834 71.76793
267.80991 2.52603 750.78735 4775.29004 71.86720
263.67789 2.48770 752.93311 4779.97168 71.96646
259.35831 2.44808 754.86353 4784.83643 72.06573
254.86523 2.41588 756.54407 4789.78760 72.16499
250.22742 2.38082 757.96204 4794.87695 72.26425
245.46700 2.34869 759.09534 4800.16895 72.36352
240.59628 2.32741 759.92993 4805.58643 72.46278
235.63495 2.30731 760.47021 4811.00293 72.56204
230.59265 2.29798 760.70361 4816.49463 72.66131
225.47481 2.30274 760.63080 4822.15527 72.76057
220.28845 2.31503 760.25922 4827.88281 72.85984
215.05299 2.33904 759.58789 4833.54004 72.95910
209.80882 2.37222 758.62231 4839.17139 73.05836
204.55327 2.41409 757.35901 4844.86035 73.15763
199.30595 2.46719 755.78473 4850.47656 73.25689
194.08960 2.52523 753.89825 4855.99414 73.35616
188.92575 2.58261 751.69934 4861.47559 73.45542
183.83531 2.64589 749.18524 4866.97852 73.55469
178.83302 2.70991 746.36743 4872.51270 73.65395
173.92480 2.76228 743.26440 4878.08691 73.75321
169.12575 2.80152 739.88483 4883.77979 73.85248
164.44431 2.83139 736.24445 4889.67139 73.95174
159.87308 2.84409 732.36877 4895.64746 74.05100
155.39487 2.85595 728.28967 4901.69873 74.15027
150.98582 2.84295 724.06177 4907.80518 74.24953
146.60121 2.79168 719.72565 4913.97021 74.34880
142.20271 2.75210 715.30328 4920.20508 74.44806
137.77139 2.70272 710.81897 4926.50684 74.54733
133.29756 2.67262 706.28046 4932.87598 74.64659
128.69951 2.67732 701.77991 4939.30908 74.74586
124.05550 2.68206 697.23438 4945.80469 74.84512
119.36842 2.68685 692.64673 4952.36182 74.94438
114.63982 2.69169 688.01843 4958.97705 75.04365
109.87061 2.69656 683.35034 4965.64893 75.14291
105.06152 2.70147 678.64331 4972.37744 75.24217
100.21415 2.70643 673.89874 4979.15967 75.34144
95.33041 2.71142 669.11859 4985.99512 75.44070
90.41107 2.71645 664.30359 4992.87891 75.53997
85.45741 2.72151 659.45496 4999.81201 75.63923
80.47046 2.72661 654.57379 5006.79102 75.73849
75.45092 2.73174 649.66077 5013.81494 75.83776
70.40012 2.73690 644.71710 5020.88232 75.93703
65.32665 2.74208 639.75122 5027.98340 76.03629
60.23420 2.74729 634.76678 5035.10840 76.13555
55.11208 2.75252 629.75330 5042.27686 76.23482
49.96311 2.75779 624.71356 5049.48291 76.33408
44.78653 2.76308 619.64679 5056.72607 76.43334
39.58385 2.76839 614.55444 5064.00684 76.53261
34.35531 2.77374 609.43677 5071.32471 76.63187
29.10207 2.77911 604.29498 5078.67676 76.73113
23.82410 2.78450 599.12897 5086.06152 76.83040
18.52289 2.78992 593.94019 5093.48096 76.92966
13.19928 2.79536 588.72949 5100.93164 77.02893
7.85256 2.80082 583.49615 5108.41406 77.12819
2.48421 2.80631 578.24170 5115.92725 77.22746
-2.90500 2.81182 572.96680 5123.46875 77.32672
-8.31378 2.81735 567.67273 5131.03809 77.42599
-13.74256 2.82289 562.35907 5138.63525 77.52525
-19.19069 2.82846 557.02655 5146.26025 77.62451
-24.65619 2.83405 551.67694 5153.90967 77.72378
-30.14021 2.83965 546.30927 5161.58447 77.82304
-35.64131 2.84527 540.92487 5169.28320 77.92230
-41.16037 2.85092 535.52283 5177.00684 78.02157
-46.69550 2.85657 530.10510 5184.75488 78.12083
-52.24726 2.86225 524.67108 5192.52539 78.22010
-57.81494 2.86794 519.22150 5200.31982 78.31936
-63.39740 2.87364 513.75745 5208.13428 78.41862
-68.99566 2.87936 508.27795 5215.96924 78.51789
-74.60812 2.88510 502.78455 5223.82568 78.61716
-80.23356 2.89085 497.27841 5231.69434 78.71642
-85.87174 2.89661 491.75980 5239.58008 78.81568
-91.52081 2.90238 486.23056 5247.48047 78.91495
-97.18404 2.90817 480.68744 5255.40137 79.01421
-102.85774 2.91397 475.13409 5263.33740 79.11347
-108.54430 2.91978 469.56815 5271.29004 79.21274
-112.34841 2.92367 465.84473 5276.61328 79.27790
