VERSION 0.7
FIELDS x y z time
SIZE 4 4 4 4
TYPE F F F F
COUNT 1 1 1 1
WIDTH 400
HEIGHT 1
VIEWPOINT -0.267 0.655 0.655 0.267 -6.305 3.080 70.755
POINTS 400
DATA ascii
-112.34841 2.92367 465.84473 0.00000
-124.15941 2.82443 454.48942 0.19912
-135.99305 2.76429 443.11419 0.39825
-147.85163 2.66678 431.72556 0.59737
-159.74115 2.60003 420.32934 0.79649
-171.66059 2.51782 408.92637 0.99561
-183.61090 2.43155 397.51985 1.19474
-195.59259 2.33072 386.11406 1.39386
-207.61063 2.26201 374.71063 1.59298
-219.66529 2.16741 363.31480 1.79210
-231.77640 2.08721 351.94918 1.99123
-243.91572 1.99551 340.58547 2.19035
-256.07714 1.89283 329.21946 2.38947
-268.25061 1.80904 317.83820 2.58859
-280.43391 1.76023 306.44382 2.78772
-292.62159 1.74827 295.03049 2.98684
-304.80354 1.77765 283.59148 3.18596
-316.97189 1.82541 272.12230 3.38509
-329.12390 1.87479 260.62382 3.58421
-340.59456 1.97913 249.65324 3.78333
-350.52458 2.13723 239.63261 3.98245
-358.74073 2.25274 230.12161 4.18158
-365.27795 2.26542 220.91604 4.38070
-370.33172 2.19847 211.79603 4.57982
-374.01339 2.12330 202.56130 4.77894
-376.41369 2.06583 193.08612 4.97807
-377.48864 2.20651 183.40015 5.17719
-377.36273 2.38572 173.51881 5.37631
-376.21862 2.46041 163.51121 5.57543
-374.25380 2.42932 153.34522 5.77456
-371.91078 2.35283 142.84069 5.97368
-369.70696 2.31472 131.93717 6.17280
-368.33265 2.36207 120.58018 6.37193
-367.96052 2.40582 108.86005 6.57105
-368.67673 2.44997 96.89704 6.77017
-370.56478 2.50915 84.83266 6.96929
-373.66780 2.58052 72.84246 7.16842
-377.99050 2.64783 61.04434 7.36754
-383.50646 2.72158 49.54035 7.56666
-390.17193 2.80853 38.44687 7.76578
-397.92095 2.88708 27.85907 7.96491
-406.65125 2.98347 17.82383 8.16403
-416.20673 3.05313 8.30906 8.36315
-426.38143 3.08615 -0.82253 8.56227
-436.88754 3.04475 -9.86266 8.76140
-447.57097 2.99409 -18.98530 8.96052
-458.35918 2.95168 -28.23653 9.15964
-469.13651 3.00657 -37.69508 9.35877
-479.82343 3.05530 -47.48251 9.55789
-490.42035 3.09853 -57.58111 9.75701
-500.95430 3.14320 -67.94172 9.95613
-511.45562 3.18353 -78.52329 10.15526
-521.93371 3.20119 -89.30066 10.35438
-532.39640 3.19194 -100.25761 10.55350
-542.84738 3.16022 -111.38220 10.75262
-553.28788 3.11594 -122.66031 10.95175
-563.66928 3.07099 -134.12669 11.15087
-573.99272 3.02771 -145.77149 11.34999
-584.25642 2.98395 -157.58229 11.54912
-594.45586 2.95388 -169.55840 11.74824
-604.57886 2.91297 -181.69802 11.94736
-614.62310 2.87353 -193.99278 12.14648
-624.60273 2.83374 -206.42378 12.34561
-634.49247 2.79578 -219.00436 12.54473
-644.27278 2.74600 -231.72269 12.74385
-653.93308 2.68964 -244.56806 12.94297
-663.45979 2.62251 -257.54183 13.14210
-672.81462 2.56108 -270.69180 13.34122
-681.97971 2.53255 -284.01969 13.54034
-690.92752 2.53761 -297.53688 13.73946
-699.55264 2.56351 -311.10171 13.93859
-707.18187 2.64717 -323.62565 14.13771
-713.72193 2.76212 -334.80946 14.33683
-719.23837 2.86612 -344.64822 14.53596
-723.73086 2.93582 -353.32366 14.73508
-727.11399 2.95376 -361.20172 14.93420
-729.37872 2.93309 -368.47523 15.13332
-730.60094 2.89024 -375.13742 15.33245
-730.86837 2.82506 -381.40339 15.53157
-730.22091 2.75937 -387.22443 15.73069
-728.63107 2.72429 -392.79888 15.92981
-726.09263 2.73336 -398.21434 16.12894
-722.62220 2.78901 -403.27362 16.32806
-718.37741 2.87258 -407.76227 16.52718
-713.43071 2.94465 -411.74693 16.72630
-707.81989 2.99120 -415.14030 16.92543
-701.63909 3.00870 -417.79076 17.12455
-694.98336 2.99794 -419.62193 17.32367
-687.97040 2.94654 -420.61480 17.52280
-680.59808 2.87112 -420.97404 17.72192
-672.71599 2.82529 -420.97855 17.92104
-664.27536 2.81627 -420.91787 18.12016
-655.34212 2.83645 -421.40242 18.31929
-646.24570 2.83954 -422.77912 18.51841
-637.50346 2.80117 -425.07878 18.71753
-629.31184 2.73751 -428.33963 18.91665
-621.75333 2.65053 -432.58011 19.11578
-614.85665 2.59915 -437.82051 19.31490
-608.66844 2.58545 -443.98524 19.51402
-603.38458 2.63585 -450.96113 19.71314
-599.05286 2.72582 -458.68233 19.91227
-595.79524 2.84443 -466.99165 20.11139
-593.56890 2.97030 -475.83242 20.31051
-592.33401 3.07274 -485.13534 20.50964
-591.98888 3.16338 -494.88169 20.70876
-592.31093 3.20504 -505.03496 20.90788
-593.24442 3.18913 -515.52342 21.10700
-594.76188 3.15165 -526.27141 21.30613
-596.78644 3.14736 -537.31415 21.50525
-599.06756 3.21311 -548.66779 21.70437
-601.41773 3.32097 -560.33956 21.90349
-603.65050 3.42652 -572.33559 22.10262
-605.45890 3.53392 -584.64160 22.30174
-606.65357 3.59764 -597.25730 22.50086
-606.97350 3.64592 -610.14638 22.69998
-606.16938 3.65080 -623.19972 22.89911
-604.06563 3.60137 -636.25709 23.09823
-600.52965 3.55495 -649.11567 23.29735
-595.53316 3.58322 -661.57436 23.49648
-589.14015 3.68531 -673.45747 23.69560
-581.40625 3.81451 -684.60421 23.89472
-572.46523 3.94414 -694.92761 24.09384
-562.44959 4.01281 -704.35048 24.29297
-551.57636 4.02827 -712.99116 24.49209
-540.18622 3.97330 -721.23262 24.69121
-528.43099 3.83405 -729.22276 24.89033
-516.32841 3.73570 -736.91109 25.08946
-503.87188 3.69276 -744.31245 25.28858
-491.07470 3.65105 -751.40778 25.48770
-477.96591 3.57440 -758.21047 25.68682
-464.62747 3.48747 -764.85839 25.88595
-451.15275 3.42561 -771.51631 26.08507
-437.50239 3.36352 -778.07886 26.28419
-423.62009 3.32042 -784.39793 26.48332
-409.59262 3.27918 -790.65691 26.68244
-395.48781 3.26637 -796.98321 26.88156
-381.38840 3.23370 -803.54319 27.08068
-367.32109 3.22959 -810.36704 27.27981
-353.32847 3.17584 -817.48868 27.47893
-339.39555 3.08743 -824.88524 27.67805
-325.47670 3.02454 -832.46469 27.87717
-311.52475 2.97691 -840.12573 28.07630
-298.09695 2.99402 -847.45511 28.27542
-285.95168 3.03069 -853.65168 28.47454
-274.54550 2.99752 -858.33705 28.67366
-263.25337 2.84927 -861.55278 28.87279
-251.85929 2.65912 -863.34235 29.07191
-240.46777 2.53107 -863.69274 29.27103
-229.24901 2.69149 -862.50933 29.47016
-218.28770 2.89853 -859.92262 29.66928
-207.56506 3.04735 -856.03767 29.86840
-197.01623 3.06138 -851.17162 30.06752
-186.52847 2.98922 -845.67394 30.26665
-175.90412 2.92242 -839.82826 30.46577
-164.87453 2.90694 -834.16587 30.66489
-153.30539 2.96873 -829.05207 30.86401
-141.21256 3.06792 -824.61632 31.06314
-128.65181 3.18061 -820.90918 31.26226
-115.68489 3.23399 -817.94209 31.46138
-102.38039 3.21096 -815.59930 31.66051
-88.83187 3.18377 -813.44213 31.85963
-75.15421 3.21657 -810.91567 32.05875
-61.46969 3.25296 -807.64470 32.25787
-47.89548 3.30031 -803.47058 32.45700
-34.55549 3.33468 -798.32997 32.65612
-21.53670 3.35126 -792.15761 32.85524
-8.92328 3.33394 -784.97583 33.05436
3.21150 3.29574 -776.82848 33.25349
14.77422 3.25281 -767.73610 33.45261
25.69476 3.21364 -757.74829 33.65173
35.92097 3.17858 -746.92903 33.85085
45.40348 3.13912 -735.34103 34.04998
54.08976 3.10215 -723.04742 34.24910
61.94244 3.08627 -710.11499 34.44822
68.96561 3.10653 -696.62724 34.64735
75.18803 3.17217 -682.66772 34.84647
80.79030 3.25172 -668.35906 35.04559
85.81732 3.36969 -653.75876 35.24471
90.02876 3.45577 -638.83703 35.44384
93.70353 3.51032 -623.69314 35.64296
96.92057 3.56195 -608.36745 35.84208
99.66623 3.58812 -592.87659 36.04120
101.86050 3.60831 -577.23236 36.24033
103.47383 3.61618 -561.45763 36.43945
104.46681 3.59971 -545.57972 36.63857
104.84246 3.53213 -529.62419 36.83769
104.62070 3.44813 -513.61775 37.03682
103.77346 3.37002 -497.58554 37.23594
102.31393 3.30334 -481.57968 37.43506
100.23977 3.29207 -465.62046 37.63419
97.52334 3.31712 -449.73172 37.83331
94.19201 3.34887 -433.93064 38.03243
90.23191 3.38712 -418.25066 38.23155
85.71515 3.40642 -402.69371 38.43068
80.69120 3.37122 -387.26185 38.62980
75.28397 3.32250 -371.92888 38.82892
69.62610 3.26526 -356.65301 39.02804
63.86368 3.20482 -341.38187 39.22717
58.11400 3.14997 -326.06913 39.42629
52.36339 3.13036 -310.72569 39.62541
46.62503 3.09799 -295.35250 39.82453
41.10514 3.04789 -279.87150 40.02366
36.02345 3.00783 -264.22136 40.22278
31.57130 3.05534 -248.36947 40.42190
27.74353 3.11504 -232.34557 40.62103
24.53232 3.17974 -216.17604 40.82015
22.04432 3.24076 -199.87307 41.01927
20.22277 3.28498 -183.47887 41.21839
19.10328 3.29090 -167.01398 41.41752
18.67429 3.27508 -150.50942 41.61664
18.87730 3.22252 -133.98992 41.81576
19.80275 3.16110 -117.49167 42.01488
21.40170 3.11108 -101.03814 42.21401
23.67064 3.06125 -84.65759 42.41313
26.62412 3.03783 -68.37847 42.61225
30.26256 3.07207 -52.23691 42.81137
34.57948 3.12368 -36.25772 43.01050
39.55976 3.16986 -20.47063 43.20962
45.19668 3.23300 -4.91073 43.40874
51.50970 3.29154 10.38482 43.60787
58.47273 3.33260 25.39712 43.80699
66.06202 3.34455 40.10373 44.00611
74.30237 3.30309 54.45918 44.20523
83.12506 3.27481 68.47095 44.40436
92.52101 3.24590 82.10946 44.60348
102.46585 3.21243 95.36132 44.80260
112.93480 3.18343 108.21076 45.00172
123.89159 3.18406 120.65219 45.20085
135.27050 3.22391 132.71751 45.39997
147.07843 3.30676 144.37474 45.59909
159.20198 3.38278 155.71435 45.79821
171.58222 3.44991 166.79613 45.99734
184.17429 3.50542 177.65650 46.19646
196.85546 3.55126 188.43808 46.39558
209.60453 3.56605 199.15047 46.59471
222.20373 3.53237 209.26209 46.79383
234.34301 3.45655 217.67687 46.99295
246.27465 3.33616 224.23431 47.19207
258.34267 3.21256 229.14920 47.39120
270.74794 3.12343 232.56499 47.59032
283.43468 3.08231 234.54679 47.78944
296.29473 3.10122 235.04453 47.98856
309.20217 3.11524 234.10043 48.18769
322.09056 3.12166 231.91570 48.38681
335.08988 3.17300 229.27670 48.58593
348.38884 3.27702 227.29217 48.78505
361.92420 3.33448 226.60572 48.98418
375.50160 3.29348 227.38420 49.18330
388.87611 3.25425 229.72065 49.38242
401.78281 3.39080 233.60488 49.58155
414.15273 3.55766 238.94289 49.78067
425.91664 3.65879 245.64705 49.97979
437.10801 3.67494 253.47956 50.17891
447.85111 3.65290 262.11208 50.37804
458.38002 3.62022 271.21136 50.57716
468.89012 3.57410 280.49472 50.77628
479.49043 3.50558 289.91237 50.97540
490.18854 3.44525 299.41138 51.17453
501.01528 3.38674 309.00233 51.37365
511.96727 3.33313 318.68165 51.57277
523.04224 3.30742 328.43586 51.77190
534.20325 3.27561 338.29935 51.97102
545.37529 3.28242 348.34396 52.17014
556.40904 3.32730 358.70980 52.36926
567.24833 3.37078 369.43201 52.56839
577.80379 3.39005 380.56866 52.76751
588.02786 3.43469 392.13037 52.96663
597.91762 3.49266 404.09295 53.16575
607.39243 3.54690 416.48263 53.36488
616.37406 3.61435 429.31580 53.56400
624.81574 3.70703 442.58627 53.76312
632.72267 3.80736 456.25103 53.96224
640.12306 3.91683 470.26067 54.16137
647.01785 4.02543 484.58599 54.36049
653.41650 4.08740 499.19645 54.55961
659.36580 4.10797 514.05007 54.75874
664.95127 4.07937 529.09781 54.95786
670.26395 4.02238 544.26108 55.15698
675.44140 3.96002 559.51297 55.35610
680.54044 3.89595 574.83439 55.55523
685.59675 3.82702 590.21348 55.75435
690.64103 3.77069 605.63848 55.95347
695.66525 3.70203 621.10692 56.15259
700.64892 3.62144 636.62433 56.35172
705.66760 3.54959 652.16719 56.55084
710.70351 3.49189 667.74022 56.74996
715.74933 3.47006 683.34007 56.94908
720.76745 3.47935 698.97667 57.14821
725.75546 3.52439 714.63623 57.34733
730.28593 3.59706 729.41693 57.54645
733.95069 3.68499 742.63118 57.74558
736.67022 3.77671 754.31010 57.94470
738.49209 3.84709 764.60946 58.14382
739.38964 3.89791 773.79592 58.34294
739.39061 3.92504 781.99515 58.54207
738.55748 3.93112 789.26218 58.74119
736.94867 3.91616 795.71354 58.94031
734.54620 3.87184 801.58448 59.13943
731.32593 3.83153 806.94387 59.33856
727.22894 3.88094 811.83443 59.53768
722.35117 3.92466 816.36380 59.73680
716.74872 3.95256 820.34147 59.93592
710.49452 3.96541 823.79869 60.13505
703.61554 3.96681 826.90193 60.33417
696.10524 3.95564 829.71876 60.53329
687.97190 3.93897 832.22708 60.73242
679.26051 3.90992 834.46195 60.93154
670.02978 3.86644 836.45159 61.13066
660.28187 3.81927 838.30356 61.32978
650.10647 3.77247 840.27653 61.52891
639.61806 3.72850 842.56043 61.72803
628.84388 3.68529 845.18657 61.92715
617.77020 3.63757 848.11290 62.12627
606.41744 3.56209 851.30952 62.32540
594.79749 3.48706 854.71201 62.52452
582.94075 3.40942 858.26964 62.72364
570.86764 3.32777 861.93857 62.92276
558.53109 3.23906 865.63836 63.12189
546.01608 3.13273 868.88035 63.32101
533.54108 2.99715 871.01598 63.52013
521.21287 2.84526 871.76059 63.71926
509.20052 2.73458 871.05778 63.91838
497.63915 2.64092 868.96829 64.11750
486.50944 2.58001 865.54630 64.31662
475.89036 2.52524 860.82853 64.51575
465.88540 2.50453 854.80317 64.71487
456.54822 2.51012 847.52521 64.91399
447.93576 2.54001 839.11462 65.11311
440.02659 2.55424 829.75005 65.31224
432.82499 2.56284 819.55148 65.51136
426.27991 2.56822 808.65862 65.71048
420.39629 2.50224 797.15761 65.90960
415.24100 2.45551 785.07837 66.10873
410.24161 2.49185 772.68517 66.30785
405.13943 2.58930 760.10092 66.50697
399.72676 2.68230 747.42533 66.70610
393.84292 2.76450 734.78826 66.90522
387.87410 2.83716 723.19581 67.10434
382.09942 2.88732 713.33275 67.30346
376.57523 2.91548 705.09499 67.50259
371.18468 2.92222 698.24922 67.70171
365.80731 2.90589 692.68874 67.90083
360.51584 2.86389 688.35490 68.09995
355.30869 2.80022 685.12121 68.29908
350.04798 2.72259 682.85599 68.49820
344.70980 2.66931 681.56401 68.69732
339.35599 2.66586 681.25581 68.89644
333.93027 2.70928 681.88109 69.09557
328.49679 2.78516 683.39993 69.29469
323.31353 2.84636 685.75732 69.49381
318.63261 2.87762 688.85575 69.69294
314.30905 2.87532 692.65730 69.89206
310.33579 2.83792 697.16931 70.09118
306.82724 2.78647 702.34126 70.29030
303.72219 2.74066 708.14312 70.48943
300.61094 2.71163 714.45404 70.68855
297.12254 2.72531 721.10475 70.88767
292.92198 2.74815 727.91418 71.08679
287.83424 2.72559 734.53170 71.28592
281.80656 2.68444 740.71287 71.48504
274.89187 2.60483 746.31920 71.68416
267.15405 2.51958 751.14862 71.88329
258.61443 2.44219 755.16395 72.08241
249.40742 2.37454 758.18050 72.28153
239.70945 2.32330 760.04943 72.48065
229.64599 2.29781 760.71313 72.67978
219.28673 2.31874 760.15356 72.87890
208.76880 2.37984 758.39625 73.07802
198.23893 2.47907 755.42516 73.27714
187.85010 2.59543 751.19715 73.47627
177.76476 2.72288 745.72055 73.67539
168.07648 2.80955 739.09838 73.87451
158.84409 2.84494 731.45687 74.07363
150.11133 2.84748 722.90380 74.27276
141.19922 2.85007 714.17508 74.47188
132.09342 2.85271 705.25665 74.67100
122.80394 2.85541 696.15832 74.87013
113.34193 2.85815 686.89101 75.06925
103.71725 2.86095 677.46438 75.26837
93.94070 2.86379 667.88901 75.46749
84.02225 2.86667 658.17464 75.66662
73.97133 2.86958 648.33054 75.86574
63.80819 2.87253 638.37653 76.06486
53.54908 2.87551 628.32852 76.26398
43.18034 2.87852 618.17315 76.46311
32.70482 2.88156 607.91318 76.66223
22.13079 2.88463 597.55673 76.86135
11.46305 2.88773 587.10851 77.06047
0.70582 2.89085 576.57263 77.25960
-10.13439 2.89400 565.95548 77.45872
-21.05304 2.89717 555.26151 77.65784
-32.04363 2.90036 544.49706 77.85697
-43.10492 2.90357 533.66339 78.05609
-54.23332 2.90680 522.76398 78.25521
-65.42419 2.91005 511.80338 78.45433
-76.67468 2.91331 500.78440 78.65346
-87.97749 2.91660 489.71416 78.85258
-99.32910 2.91989 478.59614 79.05170
-110.72960 2.92320 467.43023 79.25082
-112.34841 2.92367 465.84473 79.27899
