VERSION 0.7
FIELDS x y z lapdistance
SIZE 4 4 4 4
TYPE F F F F
COUNT 1 1 1 1
WIDTH 1175
HEIGHT 1
VIEWPOINT -0.415 0.570 0.582 0.406 167.637 1.022 805.483
POINTS 1175
DATA ascii
-73.76956 -0.46661 -1317.36520 2373.94891
-74.04719 -0.45680 -1319.34432 2375.94751
-74.38589 -0.44559 -1321.31719 2377.94935
-74.78534 -0.43296 -1323.28171 2379.95418
-75.24281 -0.41887 -1325.23442 2381.95989
-75.75621 -0.40329 -1327.17230 2383.96475
-76.32499 -0.38625 -1329.09436 2385.96935
-76.94948 -0.36773 -1331.00147 2387.97625
-77.63016 -0.34770 -1332.89360 2389.98726
-78.36794 -0.32617 -1334.76931 2392.00304
-79.16536 -0.30327 -1336.62708 2394.02494
-80.02657 -0.27927 -1338.46526 2396.05509
-80.95431 -0.25476 -1340.27680 2398.09065
-81.94940 -0.23060 -1342.04736 2400.12196
-83.01595 -0.20775 -1343.76660 2402.14545
-84.16085 -0.18679 -1345.43440 2404.16870
-85.38739 -0.16768 -1347.05726 2406.20319
-86.68229 -0.14996 -1348.63058 2408.24106
-88.01914 -0.13310 -1350.13771 2410.25583
-89.38778 -0.11643 -1351.58012 2412.24438
-90.79899 -0.09907 -1352.98240 2414.23397
-92.25357 -0.08021 -1354.35803 2416.23614
-93.74800 -0.05965 -1355.70672 2418.24932
-95.28234 -0.03785 -1357.02042 2420.26941
-96.85847 -0.01542 -1358.29076 2422.29395
-98.47797 0.00737 -1359.51471 2424.32415
-100.14150 0.03062 -1360.69295 2426.36289
-101.84489 0.05424 -1361.82137 2428.40636
-103.57852 0.07769 -1362.88796 2430.44205
-105.33432 0.10025 -1363.87950 2432.45875
-107.11021 0.12116 -1364.78581 2434.45280
-108.91240 0.13997 -1365.60352 2436.43210
-110.75512 0.15668 -1366.33713 2438.41574
-112.65027 0.17163 -1366.99401 2440.42171
-114.59600 0.18556 -1367.58205 2442.45452
-116.57551 0.19957 -1368.10981 2444.50330
-118.56540 0.21452 -1368.58284 2446.54874
-120.55235 0.23082 -1369.00376 2448.57991
-122.53813 0.24859 -1369.37457 2450.60013
-124.52676 0.26778 -1369.69556 2452.61465
-126.52023 0.28829 -1369.96551 2454.62648
-128.51968 0.30992 -1370.18222 2456.63781
-130.52601 0.33229 -1370.34097 2458.65062
-132.53802 0.35472 -1370.43333 2460.66498
-134.55235 0.37641 -1370.44955 2462.67963
-136.56536 0.39670 -1370.38147 2464.69405
-138.57406 0.41512 -1370.22329 2466.70923
-140.57430 0.43148 -1369.97258 2468.72536
-142.56042 0.44593 -1369.63237 2470.74062
-144.52788 0.45918 -1369.21222 2472.75261
-146.47602 0.47230 -1368.72580 2474.76068
-148.40707 0.48617 -1368.18394 2476.76642
-150.32223 0.50130 -1367.59272 2478.77087
-152.22072 0.51795 -1366.95617 2480.77335
-154.10136 0.53623 -1366.27667 2482.77311
-155.96440 0.55611 -1365.55441 2484.77140
-157.81141 0.57755 -1364.78831 2486.77114
-159.64237 0.60045 -1363.97712 2488.77393
-161.45430 0.62459 -1363.11905 2490.77898
-163.24239 0.64960 -1362.21046 2492.78490
-165.00161 0.67494 -1361.24514 2494.79181
-166.72684 0.69989 -1360.21551 2496.80121
-168.41052 0.72365 -1359.11476 2498.81308
-170.04274 0.74546 -1357.93840 2500.82534
-171.61579 0.76496 -1356.68640 2502.83610
-173.12796 0.78234 -1355.36333 2504.84562
-174.58215 0.79814 -1353.97642 2506.85534
-175.98044 0.81286 -1352.53328 2508.86497
-177.32205 0.82683 -1351.04051 2510.87218
-178.60574 0.84035 -1349.50358 2512.87484
-179.83341 0.85379 -1347.92699 2514.87317
-181.01198 0.86787 -1346.31552 2516.86975
-182.14962 0.88333 -1344.67487 2518.86634
-183.24984 0.90056 -1343.00938 2520.86253
-184.31080 0.91944 -1341.32031 2522.85731
-185.32913 0.93967 -1339.60647 2524.85102
-186.30283 0.96105 -1337.86598 2526.84554
-187.23057 0.98352 -1336.09850 2528.84188
-188.11063 1.00697 -1334.30568 2530.83926
-188.94131 1.03119 -1332.48959 2532.83653
-189.72159 1.05574 -1330.65128 2534.83379
-190.45148 1.08000 -1328.79083 2536.83250
-191.13171 1.10339 -1326.90931 2538.83341
-191.76464 1.12562 -1325.00969 2540.83586
-192.35599 1.14692 -1323.09617 2542.83883
-192.91431 1.16795 -1321.17269 2544.84182
-193.44713 1.18929 -1319.24165 2546.84515
-193.95654 1.21114 -1317.30370 2548.84907
-194.43951 1.23329 -1315.35859 2550.85338
-194.89113 1.25538 -1313.40588 2552.85778
-195.30666 1.27707 -1311.44500 2554.86235
-195.68258 1.29810 -1309.47554 2556.86752
-196.01692 1.31826 -1307.49798 2558.87328
-196.30955 1.33743 -1305.51366 2560.87919
-196.56183 1.35560 -1303.52414 2562.88476
-196.77544 1.37278 -1301.53049 2564.88992
-196.95138 1.38899 -1299.53321 2566.89503
-197.09018 1.40426 -1297.53295 2568.90018
-197.19268 1.41864 -1295.53088 2570.90495
-197.26129 1.43228 -1293.52828 2572.90880
-197.30000 1.44546 -1291.52593 2574.91159
-197.31187 1.45836 -1289.52384 2576.91376
-197.29663 1.47097 -1287.52201 2578.91570
-197.25116 1.48309 -1285.52095 2580.91734
-197.17143 1.49448 -1283.52135 2582.91859
-197.05472 1.50499 -1281.52354 2584.91987
-196.90129 1.51465 -1279.52763 2586.92171
-196.71523 1.52366 -1277.53397 2588.92408
-196.50293 1.53236 -1275.54300 2590.92636
-196.26898 1.54096 -1273.55514 2592.92796
-196.01297 1.54939 -1271.57074 2594.92885
-195.72980 1.55739 -1269.59027 2596.92949
-195.41219 1.56462 -1267.61502 2598.93016
-195.05370 1.57078 -1265.64699 2600.93062
-194.65096 1.57573 -1263.68812 2602.93052
-194.20507 1.57952 -1261.73916 2604.92988
-193.72175 1.58243 -1259.79930 2606.92906
-193.21018 1.58484 -1257.86680 2608.92814
-192.67963 1.58715 -1255.93991 2610.92675
-192.13507 1.58954 -1254.01766 2612.92464
-191.57572 1.59192 -1252.10004 2614.92219
-190.99699 1.59407 -1250.18763 2616.92026
-190.39351 1.59575 -1248.28177 2618.91939
-189.76094 1.59677 -1246.38446 2620.91940
-189.09673 1.59702 -1244.49771 2622.91968
-188.40001 1.59645 -1242.62283 2624.91985
-187.67076 1.59507 -1240.76022 2626.92015
-186.90895 1.59288 -1238.90992 2628.92117
-186.11421 1.58987 -1237.07267 2630.92297
-185.28550 1.58602 -1235.25033 2632.92493
-184.42117 1.58126 -1233.44539 2634.92619
-183.51980 1.57558 -1231.65982 2636.92642
-182.58132 1.56901 -1229.89385 2638.92631
-181.60846 1.56165 -1228.14572 2640.92695
-180.60755 1.55365 -1226.41225 2642.92867
-179.58625 1.54514 -1224.69004 2644.93096
-178.54914 1.53609 -1222.97751 2646.93308
-177.49719 1.52639 -1221.27491 2648.93446
-176.43083 1.51592 -1219.58224 2650.93506
-175.35210 1.50468 -1217.89775 2652.93539
-174.26476 1.49274 -1216.21853 2654.93595
-173.17247 1.48017 -1214.54235 2656.93666
-172.07735 1.46705 -1212.86807 2658.93732
-170.98011 1.45352 -1211.19523 2660.93795
-169.88088 1.43971 -1209.52365 2662.93862
-168.78009 1.42577 -1207.85307 2664.93931
-167.67906 1.41182 -1206.18279 2666.93989
-166.57964 1.39793 -1204.51180 2668.94017
-165.48313 1.38416 -1202.83932 2670.94010
-164.38975 1.37051 -1201.16508 2672.93978
-163.29963 1.35694 -1199.48888 2674.93934
-162.21417 1.34340 -1197.80973 2676.93882
-161.13600 1.32986 -1196.12594 2678.93827
-160.06790 1.31624 -1194.43567 2680.93778
-159.01044 1.30250 -1192.73847 2682.93751
-157.96076 1.28865 -1191.03603 2684.93759
-156.91529 1.27469 -1189.33063 2686.93799
-155.87255 1.26058 -1187.62340 2688.93853
-154.83301 1.24625 -1185.91424 2690.93905
-153.79809 1.23172 -1184.20239 2692.93947
-152.76978 1.21703 -1182.48669 2694.93978
-151.75010 1.20232 -1180.76607 2696.93992
-150.74045 1.18785 -1179.04000 2698.93965
-149.74150 1.17387 -1177.30864 2700.93858
-148.75284 1.16067 -1175.57278 2702.93628
-147.77268 1.14845 -1173.83321 2704.93303
-146.79919 1.13727 -1172.09004 2706.92963
-145.83222 1.12708 -1170.34275 2708.92668
-144.87357 1.11776 -1168.59022 2710.92430
-143.92645 1.10929 -1166.83098 2712.92230
-142.99384 1.10157 -1165.06396 2714.92036
-142.07710 1.09446 -1163.28905 2716.91805
-141.17616 1.08767 -1161.50693 2718.91498
-140.29056 1.08109 -1159.71818 2720.91097
-139.42050 1.07458 -1157.92241 2722.90643
-138.56724 1.06812 -1156.11833 2724.90213
-137.73253 1.06158 -1154.30490 2726.89847
-136.91779 1.05491 -1152.48174 2728.89541
-136.12359 1.04811 -1150.64920 2730.89267
-135.34893 1.04125 -1148.80843 2732.88983
-134.59146 1.03436 -1146.96106 2734.88648
-133.84769 1.02747 -1145.10887 2736.88243
-133.11304 1.02065 -1143.25363 2738.87785
-132.38381 1.01406 -1141.39620 2740.87331
-131.65947 1.00781 -1139.53619 2742.86939
-130.94243 1.00184 -1137.67243 2744.86634
-130.23723 0.99600 -1135.80339 2746.86401
-129.54919 0.99009 -1133.92759 2748.86203
-128.88300 0.98399 -1132.04402 2750.85996
-128.24244 0.97767 -1130.15212 2752.85739
-127.62979 0.97118 -1128.25172 2754.85413
-127.04513 0.96458 -1126.34313 2756.85029
-126.48623 0.95789 -1124.42697 2758.84632
-125.94944 0.95104 -1122.50420 2760.84264
-125.43131 0.94402 -1120.57596 2762.83930
-124.92916 0.93684 -1118.64334 2764.83610
-124.44052 0.92964 -1116.70744 2766.83274
-123.96341 0.92259 -1114.76918 2768.82887
-123.49783 0.91576 -1112.82881 2770.82433
-123.04636 0.90904 -1110.88571 2772.81920
-122.61219 0.90231 -1108.93889 2774.81387
-122.19683 0.89547 -1106.98765 2776.80884
-121.79968 0.88851 -1105.03208 2778.80435
-121.41858 0.88146 -1103.07285 2780.80032
-121.05151 0.87440 -1101.11077 2782.79646
-120.69765 0.86741 -1099.14643 2784.79244
-120.35672 0.86052 -1097.18029 2786.78793
-120.02821 0.85376 -1095.21275 2788.78272
-119.71111 0.84713 -1093.24413 2790.77673
-119.40456 0.84066 -1091.27443 2792.77016
-119.10808 0.83433 -1089.30328 2794.76348
-118.82168 0.82811 -1087.33026 2796.75720
-118.54600 0.82197 -1085.35515 2798.75147
-118.28246 0.81586 -1083.37794 2800.74618
-118.03304 0.80973 -1081.39871 2802.74107
-117.79947 0.80355 -1079.41768 2804.73584
-117.58292 0.79730 -1077.43502 2806.73030
-117.38396 0.79099 -1075.45077 2808.72452
-117.20271 0.78464 -1073.46471 2810.71886
-117.03917 0.77828 -1071.47654 2812.71376
-116.89341 0.77191 -1069.48621 2814.70944
-116.76564 0.76553 -1067.49398 2816.70577
-116.65605 0.75913 -1065.50027 2818.70251
-116.56471 0.75269 -1063.50556 2820.69933
-116.49164 0.74620 -1061.51034 2822.69590
-116.43682 0.73965 -1059.51509 2824.69192
-116.40023 0.73306 -1057.52015 2826.68721
-116.38171 0.72643 -1055.52556 2828.68191
-116.38064 0.71977 -1053.53101 2830.67648
-116.39567 0.71311 -1051.53617 2832.67139
-116.42497 0.70649 -1049.54103 2834.66676
-116.46709 0.69992 -1047.54583 2836.66242
-116.52136 0.69342 -1045.55089 2838.65811
-116.58783 0.68699 -1043.55657 2840.65355
-116.66710 0.68062 -1041.56317 2842.64854
-116.76016 0.67428 -1039.57087 2844.64303
-116.86781 0.66797 -1037.57954 2846.63728
-116.98998 0.66171 -1035.58881 2848.63177
-117.12573 0.65550 -1033.59834 2850.62687
-117.27433 0.64936 -1031.60811 2852.62266
-117.43597 0.64330 -1029.61837 2854.61897
-117.61138 0.63730 -1027.62956 2856.61551
-117.80129 0.63132 -1025.64216 2858.61198
-118.00611 0.62535 -1023.65656 2860.60813
-118.22595 0.61938 -1021.67302 2862.60383
-118.46101 0.61341 -1019.69150 2864.59926
-118.71204 0.60743 -1017.71179 2866.59483
-118.98070 0.60144 -1015.73387 2868.59093
-119.26925 0.59537 -1013.75817 2870.58761
-119.57969 0.58918 -1011.78541 2872.58467
-119.91310 0.58284 -1009.81634 2874.58178
-120.26969 0.57636 -1007.85162 2876.57862
-120.64934 0.56971 -1005.89173 2878.57497
-121.05174 0.56292 -1003.93680 2880.57090
-121.47629 0.55599 -1001.98660 2882.56680
-121.92213 0.54893 -1000.04075 2884.56311
-122.38808 0.54177 -998.09909 2886.55991
-122.87216 0.53457 -996.16157 2888.55701
-123.37109 0.52738 -994.22784 2890.55408
-123.88066 0.52030 -992.29729 2892.55076
-124.39641 0.51341 -990.36906 2894.54678
-124.91548 0.50676 -988.44254 2896.54202
-125.43826 0.50035 -986.51762 2898.53668
-125.96685 0.49410 -984.59429 2900.53133
-126.50294 0.48798 -982.67237 2902.52663
-127.04747 0.48197 -980.75186 2904.52285
-127.60258 0.47613 -978.83354 2906.51989
-128.17255 0.47037 -976.91912 2908.51738
-128.76051 0.46457 -975.01004 2910.51495
-129.36656 0.45873 -973.10684 2912.51233
-129.98919 0.45283 -971.20939 2914.50934
-130.62763 0.44689 -969.31752 2916.50605
-131.28170 0.44091 -967.43090 2918.50285
-131.95248 0.43489 -965.54960 2920.50018
-132.64301 0.42876 -963.67483 2922.49809
-133.35676 0.42246 -961.80837 2924.49640
-134.09564 0.41594 -959.95159 2926.49481
-134.85864 0.40921 -958.10481 2928.49303
-135.64238 0.40232 -956.26729 2930.49073
-136.44396 0.39536 -954.43825 2932.48773
-137.26252 0.38841 -952.61737 2934.48415
-138.09763 0.38159 -950.80406 2936.48054
-138.94743 0.37509 -948.99714 2938.47733
-139.81001 0.36914 -947.19589 2940.47448
-140.68463 0.36386 -945.40037 2942.47170
-141.57020 0.35927 -943.61049 2944.46868
-142.46406 0.35538 -941.82526 2946.46520
-143.36227 0.35215 -940.04280 2948.46118
-144.26149 0.34976 -938.26121 2950.45684
-145.16159 0.34838 -936.47992 2952.45263
-146.06640 0.34793 -934.70035 2954.44901
-146.98185 0.34806 -932.92525 2956.44628
-147.91361 0.34856 -931.15776 2958.44434
-148.86420 0.34934 -929.39969 2960.44295
-149.83193 0.35054 -927.65060 2962.44191
-150.81245 0.35214 -925.90838 2964.44110
-151.80119 0.35413 -924.17059 2966.44048
-152.79425 0.35645 -922.43497 2968.44012
-153.78815 0.35917 -920.69957 2970.43998
-154.77971 0.36242 -918.96262 2972.44003
-155.76494 0.36634 -917.22148 2974.44060
-156.73806 0.37092 -915.47242 2976.44216
-157.69213 0.37609 -913.71183 2978.44466
-158.62127 0.38175 -911.93733 2980.44772
-159.52260 0.38778 -910.14846 2982.45087
-160.39717 0.39409 -908.34678 2984.45362
-161.24819 0.40065 -906.53472 2986.45559
-162.07907 0.40753 -904.71432 2988.45666
-162.89363 0.41484 -902.88720 2990.45716
-163.69605 0.42277 -901.05462 2992.45773
-164.48903 0.43139 -899.21727 2994.45891
-165.27249 0.44076 -897.37505 2996.46083
-166.04367 0.45081 -895.52709 2998.46328
-166.79772 0.46146 -893.67200 3000.46580
-167.52909 0.47256 -891.80831 3002.46791
-168.23376 0.48401 -889.93517 3004.46927
-168.91081 0.49581 -888.05271 3006.46983
-169.56281 0.50800 -886.16188 3008.46997
-170.19504 0.52065 -884.26416 3010.47027
-170.81326 0.53383 -882.36124 3012.47114
-171.42043 0.54747 -880.45415 3014.47261
-172.01575 0.56142 -878.54296 3016.47442
-172.59578 0.57552 -876.62712 3018.47620
-173.15625 0.58961 -874.70592 3020.47754
-173.69396 0.60360 -872.77902 3022.47813
-174.20746 0.61746 -870.84633 3024.47792
-174.69674 0.63120 -868.90785 3026.47726
-175.16275 0.64484 -866.96348 3028.47675
-175.60694 0.65842 -865.01344 3030.47679
-176.03066 0.67197 -863.05829 3032.47739
-176.43513 0.68551 -861.09880 3034.47824
-176.82193 0.69907 -859.13595 3036.47889
-177.19255 0.71271 -857.17065 3038.47889
-177.54754 0.72644 -855.20346 3040.47790
-177.88667 0.74029 -853.23453 3042.47588
-178.20982 0.75424 -851.26359 3044.47319
-178.51789 0.76829 -849.29014 3046.47059
-178.81271 0.78242 -847.31396 3048.46870
-179.09717 0.79669 -845.33536 3050.46770
-179.37383 0.81114 -843.35484 3052.46749
-179.64280 0.82577 -841.37277 3054.46778
-179.90133 0.84051 -839.38920 3056.46819
-180.14468 0.85528 -837.40398 3058.46833
-180.36727 0.86996 -835.41678 3060.46802
-180.56582 0.88455 -833.42715 3062.46760
-180.74072 0.89911 -831.43472 3064.46776
-180.89332 0.91368 -829.43943 3066.46894
-181.02283 0.92815 -827.44158 3068.47104
-181.12422 0.94249 -825.44161 3070.47366
-181.19098 0.95661 -823.44016 3072.47630
-181.22204 0.97038 -821.43834 3074.47843
-181.22600 0.98386 -819.43757 3076.47926
-181.21582 0.99714 -817.43911 3078.47779
-181.20150 1.01021 -815.44343 3080.47357
-181.18803 1.02284 -813.44918 3082.46790
-181.17812 1.03469 -811.45391 3084.46323
-181.17727 1.04557 -809.45657 3086.46060
-181.19652 1.05546 -807.45803 3088.45928
-181.24913 1.06454 -805.46043 3090.45763
-181.34608 1.07308 -803.46624 3092.45424
-181.49926 1.08128 -801.47806 3094.44841
-181.72623 1.08919 -799.49857 3096.44104
-182.04493 1.09669 -797.53007 3098.43538
-182.46275 1.10357 -795.57583 3100.43401
-182.97381 1.10975 -793.63982 3102.43652
-183.56983 1.11522 -791.72589 3104.44127
-184.24835 1.11993 -789.83886 3106.44674
-185.00678 1.12390 -787.98398 3108.45084
-185.83690 1.12731 -786.16305 3110.45217
-186.72991 1.13037 -784.37347 3112.45229
-187.68703 1.13296 -782.61473 3114.45472
-188.71850 1.13457 -780.89452 3116.46065
-189.83256 1.13481 -779.22469 3118.46821
-191.02931 1.13365 -777.61377 3120.47523
-192.29898 1.13148 -776.06197 3122.48041
-193.62481 1.12889 -774.56253 3124.48205
-194.99428 1.12626 -773.10947 3126.47884
-196.40754 1.12343 -771.70304 3128.47275
-197.87088 1.12007 -770.34619 3130.46847
-199.38628 1.11598 -769.04084 3132.46868
-200.94993 1.11127 -767.78704 3134.47303
-202.55883 1.10596 -766.58689 3136.48036
-204.21490 1.09988 -765.44967 3138.48946
-205.92065 1.09285 -764.38994 3140.49781
-207.67518 1.08485 -763.41962 3142.50301
-209.47510 1.07599 -762.54228 3144.50560
-211.31529 1.06642 -761.75115 3146.50883
-213.18748 1.05628 -761.03274 3148.51426
-215.08262 1.04564 -760.37519 3150.52033
-216.99424 1.03447 -759.77077 3152.52532
-218.91847 1.02267 -759.21016 3154.52962
-220.85141 1.01009 -758.67849 3156.53439
-222.78821 0.99664 -758.16054 3158.53930
-224.72516 0.98251 -757.64731 3160.54314
-226.65910 0.96816 -757.13525 3162.54377
-228.58709 0.95407 -756.62339 3164.53861
-230.50806 0.94019 -756.11001 3166.52705
-232.42283 0.92632 -755.58926 3168.51141
-234.33060 0.91212 -755.05090 3170.49376
-236.22886 0.89765 -754.48315 3172.47518
-238.11538 0.88382 -753.87607 3174.45707
-239.98924 0.87143 -753.22365 3176.44134
-241.85027 0.86078 -752.52555 3178.42907
-243.69863 0.85201 -751.78581 3180.42002
-245.53429 0.84532 -751.00765 3182.41385
-247.35668 0.84061 -750.18888 3184.41177
-249.16464 0.83723 -749.32308 3186.41640
-250.95347 0.83450 -748.40177 3188.42863
-252.71139 0.83163 -747.41859 3190.44294
-254.42553 0.82828 -746.37240 3192.45124
-256.10050 0.82477 -745.26266 3194.46059
-257.74312 0.82149 -744.09629 3196.47526
-259.34767 0.81867 -742.88786 3198.48402
-260.90541 0.81641 -741.65094 3200.47318
-262.41269 0.81488 -740.39401 3202.43582
-263.87527 0.81415 -739.11569 3204.37835
-265.31084 0.81405 -737.80034 3206.32545
-266.73864 0.81428 -736.42748 3208.30624
-268.16381 0.81461 -734.98755 3210.33225
-269.57271 0.81481 -733.48797 3212.38992
-270.93878 0.81442 -731.94963 3214.44733
-272.24135 0.81288 -730.38856 3216.48055
-273.47705 0.80992 -728.80418 3218.48993
-274.65145 0.80619 -727.18987 3220.48632
-275.77237 0.80235 -725.54086 3222.48032
-276.84566 0.79913 -723.85719 3224.47706
-277.87380 0.79679 -722.14216 3226.47672
-278.85678 0.79495 -720.40000 3228.47712
-279.79358 0.79326 -718.63454 3230.47579
-280.68446 0.79164 -716.84863 3232.47162
-281.53278 0.79013 -715.04402 3234.46571
-282.34339 0.78887 -713.22181 3236.46013
-283.11881 0.78796 -711.38334 3238.45546
-283.85888 0.78745 -709.53054 3240.45063
-284.56202 0.78731 -707.66517 3242.44416
-285.22593 0.78747 -705.78759 3244.43569
-285.84800 0.78784 -703.89613 3246.42687
-286.42620 0.78831 -701.98873 3248.42003
-286.96085 0.78876 -700.06570 3250.41604
-287.45653 0.78915 -698.12979 3252.41442
-287.92323 0.78963 -696.18541 3254.41405
-288.37310 0.79042 -694.23699 3256.41373
-288.81357 0.79173 -692.28705 3258.41279
-289.24499 0.79370 -690.33566 3260.41131
-289.66329 0.79634 -688.38129 3262.40995
-290.06416 0.79965 -686.42240 3264.40944
-290.44574 0.80358 -684.45870 3266.40990
-290.80867 0.80804 -682.49074 3268.41105
-291.15489 0.81294 -680.51937 3270.41261
-291.48665 0.81813 -678.54530 3272.41437
-291.80604 0.82349 -676.56917 3274.41615
-292.11462 0.82893 -674.59143 3276.41783
-292.41301 0.83439 -672.61234 3278.41930
-292.70139 0.83986 -670.63196 3280.42057
-292.97927 0.84530 -668.65011 3282.42182
-293.24447 0.85069 -666.66626 3284.42333
-293.49360 0.85608 -664.67989 3286.42528
-293.72323 0.86148 -662.69074 3288.42765
-293.93062 0.86675 -660.69884 3290.43034
-294.11545 0.87181 -658.70457 3292.43317
-294.28076 0.87671 -656.70863 3294.43595
-294.43094 0.88152 -654.71180 3296.43844
-294.56902 0.88629 -652.71455 3298.44046
-294.69620 0.89105 -650.71706 3300.44200
-294.81246 0.89579 -648.71921 3302.44324
-294.91701 0.90056 -646.72067 3304.44452
-295.00856 0.90536 -644.72121 3306.44609
-295.08609 0.91015 -642.72081 3308.44800
-295.14941 0.91492 -640.71969 3310.45014
-295.19907 0.91968 -638.71812 3312.45232
-295.23588 0.92444 -636.71644 3314.45435
-295.26069 0.92921 -634.71494 3316.45601
-295.27423 0.93401 -632.71383 3318.45718
-295.27654 0.93884 -630.71318 3320.45784
-295.26698 0.94369 -628.71287 3322.45818
-295.24481 0.94852 -626.71265 3324.45853
-295.20957 0.95334 -624.71235 3326.45915
-295.16111 0.95814 -622.71202 3328.46008
-295.09955 0.96293 -620.71183 3330.46122
-295.02527 0.96771 -618.71205 3332.46240
-294.93869 0.97249 -616.71293 3334.46339
-294.83975 0.97727 -614.71476 3336.46403
-294.72745 0.98203 -612.71777 3338.46418
-294.60013 0.98673 -610.72220 3340.46382
-294.45639 0.99134 -608.72804 3342.46316
-294.29637 0.99588 -606.73509 3344.46254
-294.12273 1.00040 -604.74302 3346.46217
-293.93972 1.00498 -602.75155 3348.46203
-293.75005 1.00969 -600.76061 3350.46200
-293.55367 1.01451 -598.77037 3352.46191
-293.34886 1.01942 -596.78117 3354.46163
-293.13347 1.02437 -594.79341 3356.46103
-292.90585 1.02928 -592.80744 3358.46001
-292.66550 1.03406 -590.82343 3360.45855
-292.41278 1.03856 -588.84122 3362.45680
-292.14822 1.04265 -586.86051 3364.45511
-291.87219 1.04619 -584.88106 3366.45372
-291.58481 1.04910 -582.90288 3368.45267
-291.28612 1.05134 -580.92612 3370.45187
-290.97617 1.05291 -578.95099 3372.45118
-290.65520 1.05381 -576.97772 3374.45039
-290.32360 1.05405 -575.00648 3376.44932
-289.98197 1.05366 -573.03737 3378.44785
-289.63089 1.05268 -571.07033 3380.44598
-289.27077 1.05114 -569.10512 3382.44392
-288.90172 1.04918 -567.14138 3384.44203
-288.52370 1.04696 -565.17890 3386.44060
-288.13663 1.04463 -563.21764 3388.43969
-287.74014 1.04229 -561.25783 3390.43920
-287.33360 1.04000 -559.29982 3392.43898
-286.91653 1.03777 -557.34395 3394.43882
-286.48875 1.03558 -555.39049 3396.43858
-286.05018 1.03342 -553.43965 3398.43811
-285.60086 1.03128 -551.49151 3400.43740
-285.14070 1.02916 -549.54597 3402.43663
-284.66912 1.02707 -547.60288 3404.43613
-284.18515 1.02497 -545.66231 3406.43614
-283.68791 1.02284 -543.72453 3408.43670
-283.17667 1.02067 -541.78997 3410.43768
-282.65094 1.01846 -539.85905 3412.43890
-282.11052 1.01618 -537.93216 3414.44015
-281.55517 1.01384 -536.00970 3416.44122
-280.98429 1.01141 -534.09214 3418.44196
-280.39689 1.00891 -532.17995 3420.44234
-279.79204 1.00631 -530.27340 3422.44254
-279.16932 1.00356 -528.37249 3424.44287
-278.52888 1.00067 -526.47710 3426.44355
-277.87150 0.99766 -524.58712 3428.44460
-277.19852 0.99460 -522.70239 3430.44588
-276.51132 0.99150 -520.82279 3432.44717
-275.81077 0.98834 -518.94835 3434.44825
-275.09717 0.98514 -517.07923 3436.44897
-274.37053 0.98192 -515.21569 3438.44917
-273.63096 0.97869 -513.35782 3440.44884
-272.87875 0.97545 -511.50548 3442.44809
-272.11438 0.97220 -509.65825 3444.44723
-271.33874 0.96893 -507.81560 3446.44648
-270.55305 0.96569 -505.97704 3448.44588
-269.75868 0.96250 -504.14216 3450.44534
-268.95721 0.95941 -502.31047 3452.44470
-268.15039 0.95645 -500.48142 3454.44380
-267.33949 0.95369 -498.65456 3456.44254
-266.52477 0.95117 -496.82971 3458.44100
-265.70590 0.94892 -495.00676 3460.43943
-264.88271 0.94682 -493.18535 3462.43824
-264.05573 0.94480 -491.36499 3464.43763
-263.22620 0.94275 -489.54531 3466.43747
-262.39527 0.94062 -487.72606 3468.43750
-261.56357 0.93846 -485.90710 3470.43759
-260.73129 0.93627 -484.08841 3472.43767
-259.89842 0.93405 -482.27002 3474.43773
-259.06490 0.93180 -480.45194 3476.43777
-258.23079 0.92951 -478.63415 3478.43779
-257.39628 0.92720 -476.81656 3480.43781
-256.56166 0.92486 -474.99901 3482.43783
-255.72719 0.92250 -473.18136 3484.43788
-254.89302 0.92012 -471.36358 3486.43792
-254.05920 0.91771 -469.54564 3488.43796
-253.22573 0.91528 -467.72757 3490.43798
-252.39259 0.91285 -465.90933 3492.43801
-251.55979 0.91042 -464.09093 3494.43804
-250.72738 0.90799 -462.27236 3496.43807
-249.89539 0.90548 -460.45360 3498.43810
-249.06384 0.90281 -458.63463 3500.43813
-248.23270 0.90004 -456.81540 3502.43823
-247.40190 0.89726 -454.99594 3504.43840
-246.57134 0.89458 -453.17631 3506.43862
-245.74097 0.89205 -451.35655 3508.43888
-244.91076 0.88963 -449.53669 3510.43917
-244.08078 0.88729 -447.71666 3512.43951
-243.25132 0.88500 -445.89634 3514.43990
-242.42298 0.88272 -444.07549 3516.44032
-241.59657 0.88046 -442.25378 3518.44071
-240.77309 0.87819 -440.43083 3520.44103
-239.95363 0.87590 -438.60621 3522.44122
-239.13949 0.87357 -436.77933 3524.44130
-238.33224 0.87115 -434.94943 3526.44136
-237.53376 0.86862 -433.11563 3528.44145
-236.74610 0.86591 -431.27708 3530.44163
-235.97057 0.86298 -429.43325 3532.44192
-235.20674 0.85986 -427.58439 3534.44236
-234.45246 0.85660 -425.73153 3536.44287
-233.70506 0.85327 -423.87597 3538.44330
-232.96230 0.84992 -422.01886 3540.44344
-232.22278 0.84656 -420.16093 3542.44314
-231.48580 0.84323 -418.30236 3544.44250
-230.75125 0.83994 -416.44288 3546.44181
-230.01945 0.83674 -414.58215 3548.44127
-229.29100 0.83367 -412.71983 3550.44100
-228.56667 0.83076 -410.85562 3552.44098
-227.84770 0.82800 -408.98914 3554.44115
-227.13609 0.82536 -407.11980 3556.44136
-226.43423 0.82277 -405.24697 3558.44139
-225.74475 0.82020 -403.37000 3560.44100
-225.07046 0.81758 -401.48811 3562.44005
-224.41377 0.81488 -399.60037 3564.43876
-223.77596 0.81205 -397.70608 3566.43756
-223.15714 0.80909 -395.80518 3568.43665
-222.55648 0.80601 -393.89821 3570.43599
-221.97249 0.80283 -391.98602 3572.43538
-221.40327 0.79957 -390.06962 3574.43454
-220.84622 0.79630 -388.15014 3576.43322
-220.29861 0.79309 -386.22864 3578.43123
-219.75926 0.78999 -384.30553 3580.42855
-219.22921 0.78701 -382.38027 3582.42544
-218.71001 0.78411 -380.45204 3584.42236
-218.20183 0.78125 -378.52054 3586.41959
-217.70323 0.77840 -376.58616 3588.41720
-217.21198 0.77562 -374.64961 3590.41509
-216.72646 0.77296 -372.71151 3592.41309
-216.24684 0.77052 -370.77199 3594.41103
-215.77513 0.76839 -368.83075 3596.40876
-215.31403 0.76663 -366.88731 3598.40615
-214.86565 0.76533 -364.94126 3600.40320
-214.43124 0.76453 -362.99215 3602.40014
-214.01145 0.76427 -361.03958 3604.39733
-213.60655 0.76451 -359.08334 3606.39503
-213.21695 0.76526 -357.12346 3608.39327
-212.84356 0.76651 -355.16005 3610.39188
-212.48740 0.76825 -353.19328 3612.39064
-212.14890 0.77050 -351.22348 3614.38932
-211.82745 0.77325 -349.25114 3616.38770
-211.52156 0.77654 -347.27678 3618.38562
-211.23031 0.78039 -345.30065 3620.38310
-210.95438 0.78484 -343.32254 3622.38037
-210.69571 0.78985 -341.34195 3624.37780
-210.45586 0.79534 -339.35862 3626.37559
-210.23512 0.80124 -337.37273 3628.37373
-210.03209 0.80753 -335.38480 3630.37202
-209.84378 0.81424 -333.39554 3632.37019
-209.66714 0.82147 -331.40561 3634.36795
-209.50052 0.82929 -329.41545 3636.36509
-209.34356 0.83775 -327.42523 3638.36151
-209.19612 0.84690 -325.43491 3640.35731
-209.05751 0.85678 -323.44422 3642.35284
-208.92615 0.86741 -321.45287 3644.34855
-208.80073 0.87878 -319.46078 3646.34462
-208.68193 0.89088 -317.46794 3648.34103
-208.57289 0.90361 -315.47441 3650.33759
-208.47740 0.91683 -313.48026 3652.33407
-208.39812 0.93041 -311.48571 3654.33025
-208.33561 0.94419 -309.49102 3656.32597
-208.28786 0.95808 -307.49642 3658.32120
-208.25154 0.97205 -305.50183 3660.31616
-208.22406 0.98611 -303.50687 3662.31137
-208.20415 1.00027 -301.51114 3664.30725
-208.19130 1.01455 -299.51461 3666.30387
-208.18541 1.02896 -297.51748 3668.30106
-208.18669 1.04354 -295.51998 3670.29862
-208.19621 1.05833 -293.52237 3672.29630
-208.21678 1.07329 -291.52498 3674.29386
-208.25330 1.08829 -289.52815 3676.29109
-208.31148 1.10315 -287.53219 3678.28797
-208.39446 1.11779 -285.53705 3680.28490
-208.49937 1.13222 -283.54216 3682.28260
-208.61806 1.14663 -281.54697 3684.28137
-208.74571 1.16138 -279.55159 3686.28089
-208.88011 1.17642 -277.55632 3688.28074
-209.01736 1.19145 -275.56120 3690.28063
-209.15375 1.20635 -273.56612 3692.28042
-209.28597 1.22106 -271.57088 3694.28009
-209.41094 1.23551 -269.57525 3696.27968
-209.52614 1.24958 -267.57902 3698.27928
-209.62977 1.26317 -265.58197 3700.27907
-209.72170 1.27617 -263.58399 3702.27921
-209.80488 1.28855 -261.58519 3704.27978
-209.88344 1.30026 -259.58587 3706.28068
-209.95956 1.31130 -257.58623 3708.28180
-210.03307 1.32168 -255.58631 3710.28309
-210.10200 1.33138 -253.58611 3712.28451
-210.16335 1.34045 -251.58558 3714.28600
-210.21390 1.34895 -249.58480 3716.28744
-210.25111 1.35693 -247.58397 3718.28864
-210.27375 1.36439 -245.58341 3720.28934
-210.28227 1.37136 -243.58340 3722.28939
-210.27808 1.37784 -241.58386 3724.28894
-210.26276 1.38385 -239.58448 3726.28839
-210.23796 1.38942 -237.58503 3728.28801
-210.20478 1.39456 -235.58546 3730.28786
-210.16356 1.39931 -233.58589 3732.28786
-210.11407 1.40365 -231.58649 3734.28788
-210.05548 1.40757 -229.58753 3736.28771
-209.98583 1.41104 -227.58927 3738.28718
-209.90195 1.41399 -225.59196 3740.28626
-209.80072 1.41634 -223.59567 3742.28513
-209.68117 1.41807 -221.60023 3744.28415
-209.54585 1.41923 -219.60535 3746.28362
-209.39941 1.41997 -217.61077 3748.28357
-209.24557 1.42042 -215.61637 3750.28389
-209.08596 1.42074 -213.62219 3752.28445
-208.92054 1.42103 -211.62838 3754.28511
-208.74817 1.42138 -209.63523 3756.28570
-208.56741 1.42180 -207.64307 3758.28605
-208.37707 1.42228 -205.65216 3760.28604
-208.17632 1.42281 -203.66257 3762.28573
-207.96406 1.42338 -201.67418 3764.28543
-207.73836 1.42394 -199.68691 3766.28548
-207.49656 1.42443 -197.70103 3768.28603
-207.23607 1.42479 -195.71711 3770.28699
-206.95501 1.42501 -193.73579 3772.28815
-206.65221 1.42510 -191.75769 3774.28930
-206.32640 1.42501 -189.78354 3776.29018
-205.97618 1.42471 -187.81401 3778.29061
-205.60074 1.42415 -185.84954 3780.29065
-205.20108 1.42331 -183.88999 3782.29055
-204.78095 1.42227 -181.93457 3784.29060
-204.34559 1.42119 -179.98224 3786.29089
-203.89875 1.42018 -178.03239 3788.29128
-203.44140 1.41928 -176.08505 3790.29161
-202.97250 1.41843 -174.14072 3792.29168
-202.49025 1.41760 -172.20010 3794.29134
-201.99338 1.41676 -170.26374 3796.29043
-201.48175 1.41593 -168.33197 3798.28882
-200.95634 1.41513 -166.40466 3800.28646
-200.41937 1.41441 -164.48116 3802.28351
-199.87375 1.41380 -162.56039 3804.28028
-199.32227 1.41330 -160.64134 3806.27699
-198.76688 1.41294 -158.72340 3808.27373
-198.20835 1.41269 -156.80639 3810.27044
-197.64633 1.41253 -154.89052 3812.26705
-197.07932 1.41247 -152.97634 3814.26344
-196.50509 1.41248 -151.06467 3816.25950
-195.92147 1.41257 -149.15628 3818.25513
-195.32707 1.41272 -147.25159 3820.25042
-194.72143 1.41288 -145.35055 3822.24561
-194.10439 1.41297 -143.45289 3824.24106
-193.47550 1.41286 -141.55860 3826.23702
-192.83383 1.41244 -139.66808 3828.23348
-192.17829 1.41156 -137.78192 3830.23031
-191.50810 1.41016 -135.90074 3832.22732
-190.82295 1.40820 -134.02503 3834.22425
-190.12309 1.40566 -132.15505 3836.22090
-189.40912 1.40253 -130.29093 3838.21709
-188.68131 1.39881 -128.43276 3840.21272
-187.93967 1.39451 -126.58054 3842.20790
-187.18459 1.38964 -124.73387 3844.20299
-186.41722 1.38425 -122.89207 3846.19827
-185.63878 1.37836 -121.05462 3848.19383
-184.85038 1.37201 -119.22122 3850.18957
-184.05316 1.36523 -117.39164 3852.18531
-183.24803 1.35803 -115.56574 3854.18085
-182.43544 1.35040 -113.74354 3856.17604
-181.61545 1.34236 -111.92502 3858.17090
-180.78791 1.33388 -110.10992 3860.16577
-179.95246 1.32498 -108.29776 3862.16126
-179.10874 1.31565 -106.48831 3864.15777
-178.25649 1.30589 -104.68190 3866.15516
-177.39557 1.29568 -102.87905 3868.15304
-176.52566 1.28501 -101.08030 3870.15114
-175.64624 1.27386 -99.28622 3872.14920
-174.75681 1.26225 -97.49736 3874.14701
-173.85721 1.25016 -95.71404 3876.14442
-172.94732 1.23759 -93.93642 3878.14142
-172.02672 1.22457 -92.16451 3880.13826
-171.09468 1.21107 -90.39822 3882.13542
-170.15007 1.19709 -88.63774 3884.13337
-169.19149 1.18259 -86.88388 3886.13215
-168.21738 1.16753 -85.13791 3888.13154
-167.22616 1.15186 -83.40126 3890.13123
-166.21666 1.13560 -81.67516 3892.13094
-165.18869 1.11875 -79.96024 3894.13043
-164.14360 1.10134 -78.25614 3896.12955
-163.08386 1.08338 -76.56165 3898.12823
-162.01178 1.06490 -74.87538 3900.12653
-160.92833 1.04595 -73.19645 3902.12479
-159.83336 1.02655 -71.52469 3904.12333
-158.72677 1.00677 -69.86012 3906.12226
-157.60956 0.98669 -68.20221 3908.12157
-156.48388 0.96642 -66.54967 3910.12118
-155.35264 0.94610 -64.90070 3912.12099
-154.21857 0.92574 -63.25355 3914.12090
-153.08350 0.90530 -61.60707 3916.12082
-151.94846 0.88473 -59.96076 3918.12060
-150.81389 0.86401 -58.31445 3920.12010
-149.67991 0.84320 -56.66808 3922.11932
-148.54640 0.82240 -55.02146 3924.11848
-147.41326 0.80173 -53.37432 3926.11785
-146.28062 0.78124 -51.72643 3928.11756
-145.14887 0.76098 -50.07736 3930.11774
-144.01872 0.74098 -48.42649 3932.11848
-142.89117 0.72125 -46.77314 3934.11982
-141.76757 0.70171 -45.11647 3936.12167
-140.64996 0.68225 -43.45535 3938.12386
-139.54082 0.66277 -41.78846 3940.12613
-138.44240 0.64322 -40.11470 3942.12823
-137.35642 0.62359 -38.43323 3944.13001
-136.28381 0.60389 -36.74332 3946.13168
-135.22485 0.58408 -35.04447 3948.13366
-134.17958 0.56418 -33.33651 3950.13619
-133.14813 0.54418 -31.61954 3952.13926
-132.13087 0.52407 -29.89365 3954.14275
-131.12843 0.50385 -28.15885 3956.14645
-130.14161 0.48351 -26.41509 3958.15019
-129.17132 0.46305 -24.66226 3960.15376
-128.21848 0.44244 -22.90021 3962.15706
-127.28363 0.42168 -21.12884 3964.16010
-126.36633 0.40074 -19.34837 3966.16309
-125.46482 0.37963 -17.55967 3968.16625
-124.57589 0.35846 -15.76444 3970.16962
-123.69576 0.33732 -13.96479 3972.17308
-122.82158 0.31629 -12.16231 3974.17646
-121.95205 0.29537 -10.35782 3976.17964
-121.08717 0.27458 -8.55143 3978.18251
-120.22793 0.25390 -6.74280 3980.18497
-119.37564 0.23332 -4.93135 3982.18702
-118.53159 0.21281 -3.11633 3984.18880
-117.69713 0.19232 -1.29687 3986.19060
-116.87370 0.17182 0.52788 3988.19265
-116.06258 0.15128 2.35852 3990.19504
-115.26487 0.13067 4.19530 3992.19768
-114.48156 0.10998 6.03837 3994.20041
-113.71356 0.08919 7.88777 3996.20305
-112.96125 0.06829 9.74334 3998.20544
-112.22423 0.04730 11.60465 4000.20747
-111.50164 0.02622 13.47119 4002.20911
-110.79272 0.00506 15.34269 4004.21049
-110.09690 -0.01616 17.21910 4006.21188
-109.41365 -0.03742 19.10032 4008.21345
-108.74211 -0.05867 20.98595 4010.21521
-108.08111 -0.07990 22.87536 4012.21702
-107.42956 -0.10110 24.76794 4014.21873
-106.78645 -0.12228 26.66312 4016.22017
-106.15100 -0.14340 28.56044 4018.22118
-105.52297 -0.16443 30.45969 4020.22169
-104.90235 -0.18535 32.36087 4022.22172
-104.28896 -0.20617 34.26411 4024.22147
-103.68239 -0.22690 36.16957 4026.22125
-103.08235 -0.24754 38.07738 4028.22131
-102.48904 -0.26812 39.98764 4030.22169
-101.90286 -0.28864 41.90040 4032.22236
-101.32426 -0.30908 43.81562 4034.22318
-100.75358 -0.32944 45.73324 4036.22402
-100.19097 -0.34973 47.65313 4038.22475
-99.63654 -0.36998 49.57518 4040.22527
-99.09073 -0.39019 51.49949 4042.22559
-98.55471 -0.41036 53.42649 4044.22586
-98.03063 -0.43052 55.35698 4046.22633
-97.52113 -0.45073 57.29176 4048.22717
-97.02834 -0.47107 59.23125 4050.22840
-96.55344 -0.49157 61.17549 4052.22991
-96.09704 -0.51223 63.12426 4054.23153
-95.65937 -0.53303 65.07724 4056.23306
-95.24024 -0.55398 67.03402 4058.23435
-94.83868 -0.57504 68.99413 4060.23528
-94.45277 -0.59618 70.95702 4062.23586
-94.08037 -0.61737 72.92230 4064.23623
-93.71960 -0.63859 74.88978 4066.23663
-93.36871 -0.65978 76.85915 4068.23713
-93.02579 -0.68089 78.83000 4070.23770
-92.68935 -0.70184 80.80190 4072.23821
-92.35859 -0.72249 82.77456 4074.23852
-92.03339 -0.74267 84.74783 4076.23851
-91.71429 -0.76224 86.72170 4078.23810
-91.40241 -0.78111 88.69636 4080.23733
-91.09846 -0.79923 90.67211 4082.23640
-90.80202 -0.81660 92.64917 4084.23564
-90.51214 -0.83321 94.62762 4086.23529
-90.22831 -0.84908 96.60739 4088.23536
-89.95056 -0.86422 98.58834 4090.23574
-89.67911 -0.87866 100.57033 4092.23629
-89.41422 -0.89239 102.55326 4094.23688
-89.15607 -0.90543 104.53701 4096.23740
-88.90483 -0.91777 106.52152 4098.23779
-88.66075 -0.92942 108.50679 4100.23804
-88.42434 -0.94040 110.49296 4102.23827
-88.19639 -0.95071 112.48029 4104.23865
-87.97787 -0.96037 114.46898 4106.23933
-87.76970 -0.96942 116.45909 4108.24033
-87.57249 -0.97786 118.45057 4110.24158
-87.38654 -0.98571 120.44328 4112.24296
-87.21182 -0.99297 122.43704 4114.24437
-87.04799 -0.99962 124.43165 4116.24572
-86.89423 -1.00561 126.42693 4118.24692
-86.74901 -1.01090 128.42271 4120.24799
-86.61048 -1.01554 130.41888 4122.24896
-86.47723 -1.01966 132.41543 4124.24996
-86.34877 -1.02346 134.41248 4126.25114
-86.22544 -1.02708 136.41015 4128.25262
-86.10798 -1.03062 138.40849 4130.25441
-85.99715 -1.03412 140.40749 4132.25648
-85.89357 -1.03763 142.40708 4134.25876
-85.79763 -1.04116 144.40712 4136.26111
-85.70964 -1.04467 146.40751 4138.26344
-85.62987 -1.04815 148.40819 4140.26570
-85.55865 -1.05161 150.40913 4142.26792
-85.49658 -1.05508 152.41041 4144.27017
-85.44460 -1.05856 154.41211 4146.27254
-85.40374 -1.06208 156.41427 4148.27513
-85.37494 -1.06567 158.41686 4150.27793
-85.35904 -1.06936 160.41974 4152.28089
-85.35682 -1.07317 162.42277 4154.28392
-85.36895 -1.07714 164.42574 4156.28694
-85.39579 -1.08125 166.42847 4158.28985
-85.43734 -1.08547 168.43077 4160.29260
-85.49334 -1.08980 170.43254 4162.29515
-85.56338 -1.09425 172.43374 4164.29759
-85.64662 -1.09879 174.43443 4166.30002
-85.74159 -1.10339 176.43467 4168.30252
-85.84651 -1.10803 178.43446 4170.30507
-85.96019 -1.11268 180.43379 4172.30764
-86.08238 -1.11733 182.43257 4174.31015
-86.21358 -1.12199 184.43065 4176.31254
-86.35428 -1.12668 186.42784 4178.31469
-86.50438 -1.13141 188.42402 4180.31651
-86.66291 -1.13616 190.41918 4182.31797
-86.82840 -1.14090 192.41350 4184.31915
-86.99955 -1.14558 194.40722 4186.32021
-87.17549 -1.15009 196.40048 4188.32122
-87.35584 -1.15423 198.39332 4190.32221
-87.54065 -1.15777 200.38572 4192.32317
-87.73052 -1.16047 202.37758 4194.32406
-87.92664 -1.16219 204.36871 4196.32483
-88.13059 -1.16289 206.35887 4198.32541
-88.34369 -1.16258 208.34786 4200.32579
-88.56655 -1.16128 210.33557 4202.32595
-88.79891 -1.15901 212.32202 4204.32595
-89.03995 -1.15574 214.30738 4206.32589
-89.28875 -1.15146 216.29182 4208.32588
-89.54441 -1.14615 218.27548 4210.32595
-89.80631 -1.13980 220.25836 4212.32607
-90.07432 -1.13240 222.24044 4214.32619
-90.34880 -1.12398 224.22155 4216.32625
-90.63040 -1.11453 226.20149 4218.32613
-90.91971 -1.10407 228.18006 4220.32578
-91.21721 -1.09262 230.15719 4222.32520
-91.52330 -1.08018 232.13285 4224.32447
-91.83820 -1.06675 234.10712 4226.32374
-92.16168 -1.05232 236.08010 4228.32312
-92.49280 -1.03688 238.05192 4230.32260
-92.83018 -1.02040 240.02274 4232.32216
-93.17265 -1.00283 241.99270 4234.32175
-93.51953 -0.98419 243.96186 4236.32131
-93.87052 -0.96448 245.93018 4238.32078
-94.22565 -0.94380 247.89759 4240.32009
-94.58530 -0.92231 249.86400 4242.31924
-94.95032 -0.90027 251.82934 4244.31831
-95.32199 -0.87796 253.79354 4246.31749
-95.70152 -0.85559 255.75646 4248.31689
-96.08941 -0.83325 257.71799 4250.31653
-96.48515 -0.81093 259.67815 4252.31636
-96.88765 -0.78860 261.63706 4254.31633
-97.29597 -0.76628 263.59483 4256.31635
-97.70970 -0.74399 265.55145 4258.31636
-98.12913 -0.72172 267.50681 4260.31632
-98.55545 -0.69947 269.46059 4262.31620
-98.99081 -0.67726 271.41235 4264.31605
-99.43757 -0.65510 273.36165 4266.31602
-99.89762 -0.63298 275.30807 4268.31619
-100.37256 -0.61088 277.25110 4270.31655
-100.86391 -0.58877 279.19016 4272.31703
-101.37289 -0.56663 281.12471 4274.31754
-101.89942 -0.54444 283.05450 4276.31800
-102.44152 -0.52214 284.97988 4278.31837
-102.99582 -0.49968 286.90164 4280.31860
-103.55773 -0.47705 288.82115 4282.31879
-104.12289 -0.45427 290.73999 4284.31926
-104.68916 -0.43145 292.65932 4286.32051
-105.25599 -0.40880 294.58026 4288.32347
-105.82106 -0.38639 296.50368 4290.32830
-106.37621 -0.36415 298.43071 4292.33383
-106.90496 -0.34195 300.36361 4294.33790
-107.38455 -0.31974 302.30570 4296.33853
-107.79476 -0.29754 304.26031 4298.33597
-108.12865 -0.27532 306.22981 4300.33382
-108.39307 -0.25280 308.21466 4302.33642
-108.59213 -0.22990 310.21234 4304.34422
-108.71860 -0.20682 312.21778 4306.35391
-108.75800 -0.18397 314.22516 4308.36199
-108.69789 -0.16164 316.23034 4310.36841
-108.54063 -0.13977 318.23176 4312.37629
-108.30014 -0.11801 320.22775 4314.38696
-107.98960 -0.09606 322.21563 4316.39916
-107.61644 -0.07372 324.19459 4318.41319
-107.17926 -0.05095 326.16726 4320.43395
-106.67216 -0.02779 328.13609 4322.46726
-106.09465 -0.00439 330.08976 4324.50475
-105.45062 0.01905 332.00940 4326.52980
-104.73484 0.04247 333.89641 4328.54828
-103.93360 0.06585 335.76192 4330.57888
-103.04361 0.08897 337.59794 4332.61954
-102.08277 0.11163 339.37937 4334.64384
-101.07023 0.13401 341.10360 4336.64361
-100.01195 0.15656 342.79466 4338.63868
-98.90803 0.17951 344.47079 4340.64586
-97.76321 0.20251 346.12155 4342.65493
-96.57946 0.22506 347.72916 4344.65155
-95.35316 0.24691 349.28681 4346.63421
-94.07845 0.26815 350.80341 4348.61554
-92.75431 0.28904 352.29568 4350.61076
-91.38279 0.30970 353.77416 4352.62757
-89.96481 0.33005 355.23740 4354.66530
-88.50129 0.34989 356.67338 4356.71581
-86.99729 0.36903 358.06419 4358.76449
-85.46337 0.38744 359.39478 4360.79526
-83.90485 0.40519 360.66535 4362.80622
-82.31871 0.42242 361.89208 4364.81150
-80.70545 0.43930 363.09371 4366.82318
-79.07284 0.45586 364.28273 4368.84295
-77.43526 0.47195 365.46144 4370.86070
-75.80110 0.48737 366.62604 4372.86745
-74.16580 0.50197 367.77166 4374.86417
-72.52101 0.51564 368.89599 4376.85657
-70.86413 0.52850 370.00333 4378.84947
-69.20110 0.54066 371.10512 4380.84440
-67.54404 0.55230 372.21705 4382.84001
-65.90622 0.56352 373.35366 4384.83364
-64.29679 0.57431 374.52373 4386.82352
-62.71635 0.58456 375.72866 4388.81096
-61.16064 0.59424 376.96511 4390.79823
-59.62892 0.60335 378.23236 4392.78627
-58.12495 0.61186 379.53387 4394.77527
-56.65176 0.61976 380.87188 4396.76545
-55.21289 0.62705 382.24813 4398.75661
-53.81252 0.63364 383.66380 4400.74795
-52.45006 0.63949 385.11514 4402.73866
-51.11932 0.64482 386.59449 4404.72850
-49.81221 0.65009 388.09470 4406.71830
-48.52355 0.65579 389.61230 4408.70923
-47.25272 0.66212 391.14681 4410.70168
-46.00242 0.66862 392.69937 4412.69512
-44.77723 0.67454 394.27232 4414.68896
-43.58208 0.67918 395.86870 4416.68319
-42.42108 0.68200 397.49121 4418.67834
-41.29816 0.68289 399.14156 4420.67454
-40.21567 0.68185 400.81961 4422.67149
-39.17250 0.67929 402.52332 4424.66924
-38.16474 0.67604 404.24997 4426.66851
-37.18818 0.67276 405.99640 4428.66945
-36.24103 0.67000 407.75931 4430.67072
-35.32596 0.66743 409.53763 4432.67069
-34.44879 0.66450 411.33318 4434.66909
-33.61457 0.66079 413.14922 4436.66763
-32.82628 0.65613 414.98796 4438.66828
-32.08542 0.65043 416.84865 4440.67111
-31.39141 0.64372 418.72813 4442.67468
-30.74057 0.63615 420.62200 4444.67732
-30.12651 0.62794 422.52613 4446.67805
-29.54430 0.61923 424.43894 4448.67755
-28.99358 0.61002 426.36143 4450.67741
-28.47655 0.60022 428.29471 4452.67868
-27.99354 0.58989 430.23846 4454.68160
-27.54064 0.57924 432.19078 4456.68580
-27.11065 0.56864 434.14882 4458.69054
-26.69575 0.55851 436.10985 4460.69501
-26.28940 0.54916 438.07178 4462.69860
-25.88760 0.54071 440.03346 4464.70103
-25.48883 0.53306 441.99461 4466.70232
-25.09255 0.52592 443.95541 4468.70278
-24.69799 0.51892 445.91615 4470.70284
-24.30430 0.51188 447.87699 4472.70282
-23.91102 0.50478 449.83796 4474.70284
-23.51793 0.49767 451.79901 4476.70292
-23.12490 0.49055 453.76010 4478.70302
-22.73181 0.48340 455.72119 4480.70313
-22.33859 0.47627 457.68228 4482.70327
-21.94525 0.46923 459.64334 4484.70339
-21.55183 0.46241 461.60436 4486.70350
-21.15841 0.45584 463.56534 4488.70357
-20.76504 0.44963 465.52629 4490.70360
-20.37171 0.44396 467.48720 4492.70357
-19.97830 0.43899 469.44808 4494.70353
-19.58462 0.43480 471.40891 4496.70350
-19.19054 0.43138 473.36965 4498.70346
-18.79605 0.42874 475.33029 4500.70338
-18.40133 0.42699 477.29085 4502.70329
-18.00703 0.42627 479.25154 4504.70323
-17.61442 0.42658 481.21270 4506.70331
-17.22524 0.42785 483.17470 4508.70353
-16.84124 0.42999 485.13757 4510.70361
-16.46408 0.43302 487.10071 4512.70266
-16.09477 0.43702 489.06307 4514.69947
-15.73234 0.44206 491.02462 4516.69423
-15.37519 0.44814 492.98707 4518.68892
-15.02572 0.45503 494.95198 4520.68468
-14.69220 0.46236 496.92037 4522.68116
-14.38626 0.46973 498.89292 4524.67733
-14.11831 0.47690 500.86998 4526.67251
-13.89513 0.48370 502.85203 4528.66714
-13.72014 0.48999 504.83981 4530.66268
-13.59526 0.49563 506.83314 4532.65998
-13.52425 0.50042 508.83009 4534.65826
-13.51493 0.50422 510.82766 4536.65595
-13.57671 0.50692 512.82304 4538.65240
-13.71315 0.50854 514.81444 4540.64858
-13.91492 0.50927 516.80084 4542.64527
-14.16255 0.50946 518.78164 4544.64151
-14.44044 0.50936 520.75654 4546.63588
-14.74634 0.50902 522.72527 4548.62827
-15.08760 0.50833 524.68739 4550.61988
-15.47169 0.50721 526.64176 4552.61167
-15.89917 0.50566 528.58711 4554.60347
-16.36545 0.50378 530.52305 4556.59480
-16.86499 0.50168 532.45069 4558.58614
-17.39258 0.49946 534.37240 4560.57897
-17.94587 0.49720 536.28928 4562.57413
-18.52782 0.49487 538.19928 4564.57084
-19.14683 0.49232 540.09737 4566.56736
-19.81376 0.48936 541.97761 4568.56245
-20.53586 0.48585 543.83656 4570.55680
-21.31259 0.48177 545.67452 4572.55221
-22.13701 0.47724 547.49403 4574.54984
-22.99943 0.47241 549.29844 4576.54978
-23.89047 0.46744 551.09090 4578.55152
-24.80261 0.46248 552.87393 4580.55433
-25.72954 0.45763 554.64972 4582.55750
-26.66782 0.45293 556.41935 4584.56048
-27.61661 0.44836 558.18277 4586.56296
-28.57468 0.44393 559.94042 4588.56477
-29.53941 0.43968 561.69366 4590.56592
-30.50830 0.43565 563.44409 4592.56661
-31.47954 0.43189 565.19302 4594.56713
-32.45198 0.42841 566.94138 4596.56773
-33.42513 0.42521 568.68949 4598.56847
-34.39876 0.42223 570.43744 4600.56929
-35.37235 0.41940 572.18546 4602.57015
-36.34475 0.41660 573.93410 4604.57098
-37.31396 0.41379 575.68443 4606.57174
-38.27786 0.41106 577.43755 4608.57237
-39.23629 0.40858 579.19352 4610.57288
-40.19084 0.40643 580.95157 4612.57335
-41.14310 0.40470 582.71082 4614.57380
-42.09388 0.40343 584.47082 4616.57419
-43.04327 0.40267 586.23151 4618.57454
-43.99103 0.40255 587.99302 4620.57483
-44.93699 0.40319 589.75544 4622.57507
-45.88103 0.40452 591.51887 4624.57529
-46.82289 0.40626 593.28342 4626.57547
-47.76222 0.40815 595.04929 4628.57564
-48.69892 0.41000 596.81655 4630.57579
-49.63327 0.41185 598.58505 4632.57594
-50.56587 0.41379 600.35446 4634.57608
-51.49756 0.41584 602.12435 4636.57622
-52.42904 0.41802 603.89436 4638.57637
-53.36068 0.42034 605.66434 4640.57657
-54.29256 0.42282 607.43426 4642.57682
-55.22464 0.42544 609.20411 4644.57711
-56.15683 0.42817 610.97391 4646.57740
-57.08903 0.43099 612.74368 4648.57768
-58.02113 0.43401 614.51348 4650.57793
-58.95309 0.43738 616.28333 4652.57817
-59.88502 0.44123 618.05322 4654.57842
-60.81700 0.44557 619.82311 4656.57870
-61.74903 0.45031 621.59295 4658.57896
-62.68101 0.45534 623.36280 4660.57920
-63.61270 0.46056 625.13283 4662.57947
-64.54387 0.46591 626.90317 4664.57978
-65.47450 0.47137 628.67385 4666.58012
-66.40474 0.47688 630.44477 4668.58051
-67.33472 0.48241 632.21583 4670.58090
-68.26461 0.48796 633.98694 4672.58129
-69.19442 0.49353 635.75808 4674.58167
-70.12404 0.49911 637.52931 4676.58203
-71.05331 0.50469 639.30068 4678.58237
-71.98219 0.51023 641.07226 4680.58270
-72.91068 0.51575 642.84406 4682.58305
-73.83882 0.52125 644.61605 4684.58341
-74.76657 0.52670 646.38823 4686.58375
-75.69388 0.53203 648.16057 4688.58403
-76.62075 0.53708 649.93308 4690.58426
-77.54719 0.54179 651.70578 4692.58445
-78.47324 0.54609 653.47867 4694.58463
-79.39895 0.54997 655.25173 4696.58481
-80.32436 0.55346 657.02493 4698.58497
-81.24953 0.55660 658.79822 4700.58510
-82.17457 0.55949 660.57157 4702.58521
-83.09947 0.56223 662.34508 4704.58541
-84.02407 0.56489 664.11907 4706.58589
-84.94784 0.56749 665.89414 4708.58695
-85.86986 0.57005 667.67079 4710.58860
-86.78934 0.57259 669.44921 4712.59065
-87.70631 0.57512 671.22913 4714.59289
-88.62153 0.57771 673.01002 4716.59520
-89.53566 0.58046 674.79148 4718.59751
-90.44833 0.58343 676.57363 4720.59976
-91.35788 0.58659 678.35724 4722.60190
