VERSION 0.7
FIELDS x y z lapdistance
SIZE 4 4 4 4
TYPE F F F F
COUNT 1 1 1 1
WIDTH 1155
HEIGHT 1
VIEWPOINT -0.415 0.570 0.582 0.406 167.637 1.022 805.483
POINTS 1155
DATA ascii
-204.14978 0.91982 -495.94324 1492.00000
-205.05517 0.93242 -497.47929 1494.00000
-205.92527 0.94616 -499.04495 1496.00000
-206.73619 0.96126 -500.65308 1498.00000
-207.46308 0.97718 -502.31043 1500.00000
-208.08427 0.99273 -504.01432 1502.00000
-208.58925 1.00708 -505.75718 1504.00000
-208.98555 1.02008 -507.53117 1506.00000
-209.29798 1.03221 -509.32957 1508.00000
-209.55628 1.04417 -511.14968 1510.00000
-209.77802 1.05638 -512.99652 1512.00000
-209.96616 1.06874 -514.87117 1514.00000
-210.11593 1.08081 -516.76335 1516.00000
-210.22273 1.09205 -518.66291 1518.00000
-210.28665 1.10204 -520.56750 1520.00000
-210.31495 1.11073 -522.48512 1522.00000
-210.32171 1.11836 -524.43002 1524.00000
-210.31993 1.12521 -526.40592 1526.00000
-210.31527 1.13138 -528.40102 1528.00000
-210.30870 1.13686 -530.40316 1530.00000
-210.30040 1.14163 -532.40594 1532.00000
-210.29109 1.14572 -534.40744 1534.00000
-210.28150 1.14912 -536.40779 1536.00000
-210.27190 1.15182 -538.40760 1538.00000
-210.26231 1.15385 -540.40726 1540.00000
-210.25267 1.15523 -542.40694 1542.00000
-210.24295 1.15598 -544.40665 1544.00000
-210.23311 1.15609 -546.40635 1546.00000
-210.22312 1.15554 -548.40605 1548.00000
-210.21297 1.15432 -550.40575 1550.00000
-210.20262 1.15242 -552.40545 1552.00000
-210.19204 1.14984 -554.40514 1554.00000
-210.18121 1.14653 -556.40485 1556.00000
-210.17018 1.14251 -558.40454 1558.00000
-210.15905 1.13778 -560.40422 1560.00000
-210.14789 1.13236 -562.40391 1562.00000
-210.13675 1.12628 -564.40362 1564.00000
-210.12563 1.11954 -566.40342 1566.00000
-210.11453 1.11219 -568.40336 1568.00000
-210.10342 1.10422 -570.40344 1570.00000
-210.09228 1.09564 -572.40360 1572.00000
-210.08115 1.08641 -574.40376 1574.00000
-210.07008 1.07651 -576.40391 1576.00000
-210.05913 1.06593 -578.40409 1578.00000
-210.04817 1.05468 -580.40455 1580.00000
-210.03657 1.04274 -582.40567 1582.00000
-210.02291 1.03008 -584.40770 1584.00000
-210.00511 1.01664 -586.40986 1586.00000
-209.98068 1.00241 -588.40877 1588.00000
-209.94656 0.98739 -590.39712 1590.00000
-209.89984 0.97163 -592.36605 1592.00000
-209.83886 0.95505 -594.31475 1594.00000
-209.76300 0.93749 -596.25195 1596.00000
-209.67194 0.91896 -598.18446 1598.00000
-209.56451 0.89969 -600.11169 1600.00000
-209.43765 0.87998 -602.02532 1602.00000
-209.28597 0.86015 -603.91410 1604.00000
-209.10237 0.84028 -605.77588 1606.00000
-208.88151 0.82024 -607.61955 1608.00000
-208.62163 0.79992 -609.45327 1610.00000
-208.32281 0.77927 -611.28061 1612.00000
-207.98462 0.75821 -613.10239 1614.00000
-207.60444 0.73669 -614.91840 1616.00000
-207.17735 0.71457 -616.72675 1618.00000
-206.69786 0.69171 -618.52363 1620.00000
-206.16240 0.66803 -620.30516 1622.00000
-205.56996 0.64349 -622.06920 1624.00000
-204.92106 0.61810 -623.81511 1626.00000
-204.21704 0.59183 -625.54168 1628.00000
-203.45923 0.56473 -627.24627 1630.00000
-202.64805 0.53680 -628.92572 1632.00000
-201.78237 0.50803 -630.57738 1634.00000
-200.86032 0.47845 -632.19914 1636.00000
-199.88200 0.44818 -633.78869 1638.00000
-198.85124 0.41746 -635.34448 1640.00000
-197.77637 0.38663 -636.86834 1642.00000
-196.66896 0.35606 -638.36693 1644.00000
-195.53763 0.32601 -639.84754 1646.00000
-194.38125 0.29645 -641.30972 1648.00000
-193.19062 0.26709 -642.74421 1650.00000
-191.95608 0.23756 -644.13961 1652.00000
-190.67274 0.20766 -645.48898 1654.00000
-189.34165 0.17735 -646.79199 1656.00000
-187.96992 0.14686 -648.05391 1658.00000
-186.56912 0.11657 -649.28423 1660.00000
-185.14825 0.08674 -650.49095 1662.00000
-183.70715 0.05734 -651.67423 1664.00000
-182.23895 0.02815 -652.82700 1666.00000
-180.73748 -0.00087 -653.93994 1668.00000
-179.20137 -0.02933 -655.00647 1670.00000
-177.63242 -0.05657 -656.02304 1672.00000
-176.03287 -0.08203 -656.98820 1674.00000
-174.40400 -0.10558 -657.90167 1676.00000
-172.74626 -0.12757 -658.76306 1678.00000
-171.05861 -0.14867 -659.57184 1680.00000
-169.33673 -0.16953 -660.32868 1682.00000
-167.57442 -0.19054 -661.03691 1684.00000
-165.77329 -0.21168 -661.70252 1686.00000
-163.94648 -0.23266 -662.33676 1688.00000
-162.10715 -0.25317 -662.95698 1690.00000
-160.25943 -0.27310 -663.57727 1692.00000
-158.39959 -0.29249 -664.20412 1694.00000
-156.52645 -0.31130 -664.83782 1696.00000
-154.64468 -0.32945 -665.47544 1698.00000
-152.75634 -0.34688 -666.11551 1700.00000
-150.85656 -0.36369 -666.75942 1702.00000
-148.93627 -0.37994 -667.40999 1704.00000
-146.99340 -0.39550 -668.06780 1706.00000
-145.03550 -0.41001 -668.73155 1708.00000
-143.06870 -0.42306 -669.40388 1710.00000
-141.09288 -0.43452 -670.09462 1712.00000
-139.10461 -0.44478 -670.81996 1714.00000
-137.10770 -0.45478 -671.59667 1716.00000
-135.11590 -0.46560 -672.43558 1718.00000
-133.14341 -0.47796 -673.34247 1720.00000
-131.20145 -0.49196 -674.32376 1722.00000
-129.30005 -0.50721 -675.38992 1724.00000
-127.45036 -0.52319 -676.55119 1726.00000
-125.66205 -0.53949 -677.80884 1728.00000
-123.93834 -0.55569 -679.15128 1730.00000
-122.27262 -0.57129 -680.55596 1732.00000
-120.65104 -0.58579 -681.99872 1734.00000
-119.06202 -0.59893 -683.46806 1736.00000
-117.50171 -0.61072 -684.96469 1738.00000
-115.97329 -0.62128 -686.49394 1740.00000
-114.48276 -0.63076 -688.06192 1742.00000
-113.03528 -0.63930 -689.67455 1744.00000
-111.63646 -0.64709 -691.33730 1746.00000
-110.29682 -0.65432 -693.05467 1748.00000
-109.03038 -0.66125 -694.82940 1750.00000
-107.84489 -0.66797 -696.65923 1752.00000
-106.73439 -0.67425 -698.53641 1754.00000
-105.68489 -0.67978 -700.45303 1756.00000
-104.69242 -0.68446 -702.40573 1758.00000
-103.76679 -0.68846 -704.39209 1760.00000
-102.91714 -0.69190 -706.40679 1762.00000
-102.14312 -0.69472 -708.44241 1764.00000
-101.43293 -0.69666 -710.49203 1766.00000
-100.77025 -0.69741 -712.55004 1768.00000
-100.14745 -0.69692 -714.61226 1770.00000
-99.56826 -0.69541 -716.67626 1772.00000
-99.04069 -0.69325 -718.74198 1774.00000
-98.56915 -0.69070 -720.81401 1776.00000
-98.15388 -0.68792 -722.89891 1778.00000
-97.79347 -0.68500 -724.99938 1780.00000
-97.48497 -0.68198 -727.11195 1782.00000
-97.22239 -0.67900 -729.22443 1784.00000
-96.99699 -0.67616 -731.31459 1786.00000
-96.79869 -0.67352 -733.35708 1788.00000
-96.61579 -0.67078 -735.34732 1790.00000
-96.43816 -0.66718 -737.30672 1792.00000
-96.25982 -0.66187 -739.25577 1794.00000
-96.07761 -0.65516 -741.20463 1796.00000
-95.88869 -0.64849 -743.15583 1798.00000
-95.68853 -0.64292 -745.10836 1800.00000
-95.47174 -0.63930 -747.06025 1802.00000
-95.23460 -0.63714 -749.00968 1804.00000
-94.97567 -0.63606 -750.95517 1806.00000
-94.69505 -0.63597 -752.89564 1808.00000
-94.39360 -0.63675 -754.83112 1810.00000
-94.07288 -0.63817 -756.76268 1812.00000
-93.73531 -0.63963 -758.69135 1814.00000
-93.38360 -0.64043 -760.61773 1816.00000
-93.02080 -0.64034 -762.54219 1818.00000
-92.65066 -0.63925 -764.46515 1820.00000
-92.27675 -0.63743 -766.38705 1822.00000
-91.90102 -0.63543 -768.30810 1824.00000
-91.52314 -0.63361 -770.22811 1826.00000
-91.14021 -0.63206 -772.14642 1828.00000
-90.74748 -0.63074 -774.06211 1830.00000
-90.34138 -0.62950 -775.97468 1832.00000
-89.92277 -0.62805 -777.88482 1834.00000
-89.49661 -0.62585 -779.79406 1836.00000
-89.06732 -0.62204 -781.70359 1838.00000
-88.63620 -0.61609 -783.61371 1840.00000
-88.20170 -0.60898 -785.52392 1842.00000
-87.76032 -0.60296 -787.43316 1844.00000
-87.30834 -0.59997 -789.34022 1846.00000
-86.84315 -0.60046 -791.24408 1848.00000
-86.36259 -0.60245 -793.14386 1850.00000
-85.86485 -0.60383 -795.03894 1852.00000
-85.34933 -0.60290 -796.92942 1854.00000
-84.81659 -0.59939 -798.81615 1856.00000
-84.26710 -0.59432 -800.69959 1858.00000
-83.70045 -0.58849 -802.57919 1860.00000
-83.11574 -0.58222 -804.45398 1862.00000
-82.51235 -0.57555 -806.32313 1864.00000
-81.89007 -0.56843 -808.18598 1866.00000
-81.24898 -0.56082 -810.04188 1868.00000
-80.58943 -0.55270 -811.89013 1870.00000
-79.91224 -0.54409 -813.73036 1872.00000
-79.21897 -0.53502 -815.56344 1874.00000
-78.51163 -0.52555 -817.39296 1876.00000
-77.79161 -0.51580 -819.22614 1878.00000
-77.05938 -0.50589 -821.07177 1880.00000
-76.31679 -0.49597 -822.93218 1882.00000
-75.56757 -0.48617 -824.80139 1884.00000
-74.81467 -0.47654 -826.67328 1886.00000
-74.05972 -0.46708 -828.54467 1888.00000
-73.30344 -0.45770 -830.41462 1890.00000
-72.54613 -0.44828 -832.28319 1892.00000
-71.78790 -0.43863 -834.15056 1894.00000
-71.02913 -0.42862 -836.01704 1896.00000
-70.27138 -0.41820 -837.88383 1898.00000
-69.51876 -0.40747 -839.75429 1900.00000
-68.77839 -0.39661 -841.63489 1902.00000
-68.05881 -0.38581 -843.53354 1904.00000
-67.36729 -0.37522 -845.45403 1906.00000
-66.70487 -0.36483 -847.39282 1908.00000
-66.06300 -0.35448 -849.34275 1910.00000
-65.43043 -0.34396 -851.29754 1912.00000
-64.80282 -0.33316 -853.25463 1914.00000
-64.18567 -0.32221 -855.21521 1916.00000
-63.59183 -0.31147 -857.18258 1918.00000
-63.03435 -0.30126 -859.15965 1920.00000
-62.51855 -0.29176 -861.14687 1922.00000
-62.04039 -0.28295 -863.14206 1924.00000
-61.59093 -0.27467 -865.14220 1926.00000
-61.16001 -0.26673 -867.14478 1928.00000
-60.74093 -0.25905 -869.14913 1930.00000
-60.33414 -0.25165 -871.15637 1932.00000
-59.94374 -0.24461 -873.16784 1934.00000
-59.57308 -0.23796 -875.18406 1936.00000
-59.22336 -0.23175 -877.20479 1938.00000
-58.89369 -0.22593 -879.22933 1940.00000
-58.58211 -0.22049 -881.25689 1942.00000
-58.28639 -0.21537 -883.28666 1944.00000
-58.00470 -0.21051 -885.31748 1946.00000
-57.73628 -0.20590 -887.34728 1948.00000
-57.48011 -0.20157 -889.37234 1950.00000
-57.23366 -0.19759 -891.38824 1952.00000
-56.99458 -0.19400 -893.39453 1954.00000
-56.76208 -0.19084 -895.39549 1956.00000
-56.53702 -0.18815 -897.39525 1958.00000
-56.32057 -0.18596 -899.39593 1960.00000
-56.11250 -0.18425 -901.39802 1962.00000
-55.91146 -0.18300 -903.40124 1964.00000
-55.71647 -0.18218 -905.40524 1966.00000
-55.52736 -0.18179 -907.40981 1968.00000
-55.34474 -0.18183 -909.41489 1970.00000
-55.16979 -0.18232 -911.42053 1972.00000
-55.00365 -0.18324 -913.42678 1974.00000
-54.84655 -0.18452 -915.43366 1976.00000
-54.69784 -0.18606 -917.44116 1978.00000
-54.55668 -0.18775 -919.44923 1980.00000
-54.42263 -0.18952 -921.45784 1982.00000
-54.29569 -0.19136 -923.46695 1984.00000
-54.17597 -0.19326 -925.47652 1986.00000
-54.06346 -0.19515 -927.48648 1988.00000
-53.95777 -0.19702 -929.49675 1990.00000
-53.85794 -0.19890 -931.50722 1992.00000
-53.76242 -0.20075 -933.51776 1994.00000
-53.66953 -0.20256 -935.52824 1996.00000
-53.57785 -0.20430 -937.53862 1998.00000
-53.48655 -0.20594 -939.54890 2000.00000
-53.39533 -0.20747 -941.55916 2002.00000
-53.30405 -0.20890 -943.56945 2004.00000
-53.21273 -0.21023 -945.57980 2006.00000
-53.12155 -0.21146 -947.59024 2008.00000
-53.03126 -0.21260 -949.60080 2010.00000
-52.94359 -0.21370 -951.61152 2012.00000
-52.86129 -0.21482 -953.62248 2014.00000
-52.78746 -0.21601 -955.63372 2016.00000
-52.72482 -0.21733 -957.64527 2018.00000
-52.67514 -0.21881 -959.65708 2020.00000
-52.63819 -0.22045 -961.66906 2022.00000
-52.61140 -0.22219 -963.68108 2024.00000
-52.59091 -0.22394 -965.69310 2026.00000
-52.57384 -0.22565 -967.70511 2028.00000
-52.55890 -0.22729 -969.71713 2030.00000
-52.54577 -0.22888 -971.72917 2032.00000
-52.53453 -0.23040 -973.74122 2034.00000
-52.52534 -0.23186 -975.75326 2036.00000
-52.51826 -0.23326 -977.76527 2038.00000
-52.51326 -0.23461 -979.77723 2040.00000
-52.51018 -0.23589 -981.78912 2042.00000
-52.50888 -0.23711 -983.80095 2044.00000
-52.50942 -0.23826 -985.81276 2046.00000
-52.51216 -0.23936 -987.82465 2048.00000
-52.51775 -0.24041 -989.83669 2050.00000
-52.52680 -0.24142 -991.84889 2052.00000
-52.53968 -0.24240 -993.86122 2054.00000
-52.55676 -0.24335 -995.87362 2056.00000
-52.57856 -0.24429 -997.88607 2058.00000
-52.60571 -0.24524 -999.89854 2060.00000
-52.63863 -0.24622 -1001.91100 2062.00000
-52.67751 -0.24723 -1003.92347 2064.00000
-52.72239 -0.24826 -1005.93578 2066.00000
-52.77322 -0.24931 -1007.94757 2068.00000
-52.82996 -0.25038 -1009.95811 2070.00000
-52.89253 -0.25146 -1011.96651 2072.00000
-52.96092 -0.25255 -1013.97269 2074.00000
-53.03517 -0.25366 -1015.97746 2076.00000
-53.11535 -0.25479 -1017.98162 2078.00000
-53.20156 -0.25594 -1019.98554 2080.00000
-53.29381 -0.25713 -1021.98929 2082.00000
-53.39185 -0.25837 -1023.99288 2084.00000
-53.49486 -0.25968 -1025.99631 2086.00000
-53.60126 -0.26103 -1027.99966 2088.00000
-53.70931 -0.26241 -1030.00294 2090.00000
-53.81795 -0.26381 -1032.00591 2092.00000
-53.92678 -0.26521 -1034.00797 2094.00000
-54.03573 -0.26662 -1036.00833 2096.00000
-54.14486 -0.26803 -1038.00689 2098.00000
-54.25425 -0.26945 -1040.00438 2100.00000
-54.36398 -0.27087 -1042.00150 2102.00000
-54.47408 -0.27231 -1043.99860 2104.00000
-54.58455 -0.27376 -1045.99576 2106.00000
-54.69535 -0.27524 -1047.99294 2108.00000
-54.80650 -0.27673 -1049.99011 2110.00000
-54.91800 -0.27824 -1051.98726 2112.00000
-55.02982 -0.27977 -1053.98441 2114.00000
-55.14185 -0.28131 -1055.98157 2116.00000
-55.25397 -0.28286 -1057.97868 2118.00000
-55.36608 -0.28440 -1059.97570 2120.00000
-55.47822 -0.28593 -1061.97261 2122.00000
-55.59049 -0.28743 -1063.96947 2124.00000
-55.70289 -0.28891 -1065.96631 2126.00000
-55.81524 -0.29038 -1067.96316 2128.00000
-55.92732 -0.29184 -1069.96003 2130.00000
-56.03907 -0.29330 -1071.95692 2132.00000
-56.15063 -0.29476 -1073.95382 2134.00000
-56.26228 -0.29623 -1075.95072 2136.00000
-56.37419 -0.29770 -1077.94759 2138.00000
-56.48642 -0.29919 -1079.94442 2140.00000
-56.59893 -0.30068 -1081.94120 2142.00000
-56.71162 -0.30216 -1083.93786 2144.00000
-56.82445 -0.30365 -1085.93445 2146.00000
-56.93738 -0.30514 -1087.93100 2148.00000
-57.05038 -0.30663 -1089.92755 2150.00000
-57.16321 -0.30811 -1091.92411 2152.00000
-57.27552 -0.30959 -1093.92071 2154.00000
-57.38682 -0.31104 -1095.91737 2156.00000
-57.49636 -0.31247 -1097.91411 2158.00000
-57.60340 -0.31384 -1099.91096 2160.00000
-57.70831 -0.31517 -1101.90790 2162.00000
-57.81235 -0.31648 -1103.90491 2164.00000
-57.91609 -0.31778 -1105.90201 2166.00000
-58.01892 -0.31907 -1107.89922 2168.00000
-58.11934 -0.32030 -1109.89660 2170.00000
-58.21611 -0.32147 -1111.89422 2172.00000
-58.30998 -0.32257 -1113.89203 2174.00000
-58.40268 -0.32365 -1115.88994 2176.00000
-58.49530 -0.32473 -1117.88785 2178.00000
-58.58810 -0.32584 -1119.88573 2180.00000
-58.68091 -0.32696 -1121.88359 2182.00000
-58.77345 -0.32810 -1123.88148 2184.00000
-58.86554 -0.32924 -1125.87939 2186.00000
-58.95711 -0.33036 -1127.87734 2188.00000
-59.04824 -0.33147 -1129.87535 2190.00000
-59.13908 -0.33255 -1131.87338 2192.00000
-59.22989 -0.33361 -1133.87141 2194.00000
-59.32088 -0.33466 -1135.86943 2196.00000
-59.41222 -0.33573 -1137.86742 2198.00000
-59.50393 -0.33682 -1139.86539 2200.00000
-59.59603 -0.33794 -1141.86333 2202.00000
-59.68849 -0.33909 -1143.86125 2204.00000
-59.78129 -0.34025 -1145.85913 2206.00000
-59.87442 -0.34143 -1147.85701 2208.00000
-59.96788 -0.34261 -1149.85488 2210.00000
-60.06166 -0.34379 -1151.85274 2212.00000
-60.15576 -0.34499 -1153.85056 2214.00000
-60.25017 -0.34619 -1155.84833 2216.00000
-60.34491 -0.34739 -1157.84605 2218.00000
-60.43997 -0.34861 -1159.84373 2220.00000
-60.53534 -0.34983 -1161.84137 2222.00000
-60.63098 -0.35104 -1163.83899 2224.00000
-60.72679 -0.35222 -1165.83661 2226.00000
-60.82270 -0.35339 -1167.83422 2228.00000
-60.91869 -0.35459 -1169.83181 2230.00000
-61.01478 -0.35580 -1171.82939 2232.00000
-61.11096 -0.35703 -1173.82698 2234.00000
-61.20724 -0.35826 -1175.82460 2236.00000
-61.30362 -0.35947 -1177.82229 2238.00000
-61.40009 -0.36066 -1179.82011 2240.00000
-61.49667 -0.36184 -1181.81802 2242.00000
-61.59336 -0.36306 -1183.81598 2244.00000
-61.69015 -0.36431 -1185.81394 2246.00000
-61.78705 -0.36557 -1187.81192 2248.00000
-61.88405 -0.36681 -1189.80991 2250.00000
-61.98112 -0.36804 -1191.80789 2252.00000
-62.07827 -0.36927 -1193.80585 2254.00000
-62.17550 -0.37050 -1195.80381 2256.00000
-62.27283 -0.37174 -1197.80178 2258.00000
-62.37023 -0.37298 -1199.79973 2260.00000
-62.46773 -0.37422 -1201.79762 2262.00000
-62.56531 -0.37547 -1203.79542 2264.00000
-62.66297 -0.37673 -1205.79314 2266.00000
-62.76074 -0.37802 -1207.79079 2268.00000
-62.85865 -0.37934 -1209.78840 2270.00000
-62.95669 -0.38064 -1211.78599 2272.00000
-63.05487 -0.38191 -1213.78356 2274.00000
-63.15316 -0.38316 -1215.78112 2276.00000
-63.25157 -0.38438 -1217.77869 2278.00000
-63.35011 -0.38558 -1219.77627 2280.00000
-63.44877 -0.38677 -1221.77388 2282.00000
-63.54755 -0.38797 -1223.77148 2284.00000
-63.64642 -0.38920 -1225.76901 2286.00000
-63.74539 -0.39046 -1227.76642 2288.00000
-63.84448 -0.39172 -1229.76370 2290.00000
-63.94378 -0.39296 -1231.76090 2292.00000
-64.04337 -0.39419 -1233.75805 2294.00000
-64.14332 -0.39543 -1235.75516 2296.00000
-64.24364 -0.39669 -1237.75224 2298.00000
-64.34431 -0.39797 -1239.74932 2300.00000
-64.44532 -0.39931 -1241.74639 2302.00000
-64.54665 -0.40067 -1243.74344 2304.00000
-64.64831 -0.40194 -1245.74046 2306.00000
-64.75030 -0.40283 -1247.73747 2308.00000
-64.85261 -0.40289 -1249.73449 2310.00000
-64.95526 -0.40158 -1251.73154 2312.00000
-65.05827 -0.39838 -1253.72869 2314.00000
-65.16169 -0.39305 -1255.72593 2316.00000
-65.26563 -0.38584 -1257.72322 2318.00000
-65.37016 -0.37726 -1259.72050 2320.00000
-65.47534 -0.36797 -1261.71773 2322.00000
-65.58124 -0.35850 -1263.71494 2324.00000
-65.68785 -0.34905 -1265.71213 2326.00000
-65.79519 -0.33973 -1267.70927 2328.00000
-65.90322 -0.33053 -1269.70634 2330.00000
-66.01194 -0.32138 -1271.70337 2332.00000
-66.12144 -0.31229 -1273.70039 2334.00000
-66.23205 -0.30322 -1275.69745 2336.00000
-66.34447 -0.29415 -1277.69451 2338.00000
-66.45952 -0.28516 -1279.69151 2340.00000
-66.57726 -0.27635 -1281.68843 2342.00000
-66.69653 -0.26774 -1283.68534 2344.00000
-66.81547 -0.25925 -1285.68229 2346.00000
-66.93223 -0.25071 -1287.67930 2348.00000
-67.04538 -0.24183 -1289.67633 2350.00000
-67.15427 -0.23239 -1291.67313 2352.00000
-67.25897 -0.22222 -1293.66948 2354.00000
-67.36007 -0.21114 -1295.66587 2356.00000
-67.45873 -0.19908 -1297.66483 2358.00000
-67.55680 -0.18598 -1299.67192 2360.00000
-67.65600 -0.17183 -1301.69405 2362.00000
-67.75683 -0.15675 -1303.73256 2364.00000
-67.85875 -0.14091 -1305.78143 2366.00000
-67.96230 -0.12466 -1307.83403 2368.00000
-68.07218 -0.10879 -1309.88573 2370.00000
-68.19855 -0.09452 -1311.93356 2372.00000
-68.35412 -0.08270 -1313.97668 2374.00000
-68.55014 -0.07306 -1316.01908 2376.00000
-68.79422 -0.06425 -1318.07277 2378.00000
-69.08823 -0.05423 -1320.15505 2380.00000
-69.43049 -0.04144 -1322.27083 2382.00000
-69.82097 -0.02553 -1324.40499 2384.00000
-70.26506 -0.00713 -1326.53917 2386.00000
-70.77119 0.01287 -1328.66100 2388.00000
-71.34521 0.03389 -1330.76597 2390.00000
-71.98953 0.05576 -1332.85422 2392.00000
-72.70507 0.07849 -1334.92544 2394.00000
-73.49387 0.10199 -1336.97791 2396.00000
-74.36108 0.12600 -1339.00991 2398.00000
-75.31316 0.15002 -1341.01865 2400.00000
-76.34979 0.17346 -1342.99215 2402.00000
-77.46225 0.19576 -1344.90959 2404.00000
-78.64686 0.21660 -1346.76336 2406.00000
-79.91130 0.23593 -1348.56440 2408.00000
-81.26656 0.25382 -1350.32799 2410.00000
-82.69848 0.27009 -1352.03806 2412.00000
-84.16748 0.28458 -1353.65303 2414.00000
-85.66140 0.29792 -1355.17276 2416.00000
-87.20415 0.31180 -1356.64796 2418.00000
-88.79483 0.32810 -1358.10936 2420.00000
-90.42013 0.34794 -1359.56309 2422.00000
-92.07422 0.37134 -1361.00311 2424.00000
-93.76045 0.39766 -1362.42062 2426.00000
-95.48783 0.42617 -1363.80964 2428.00000
-97.26692 0.45604 -1365.16265 2430.00000
-99.09792 0.48585 -1366.45881 2432.00000
-100.96676 0.51386 -1367.66742 2434.00000
-102.85744 0.53892 -1368.76715 2436.00000
-104.76154 0.56067 -1369.75186 2438.00000
-106.68694 0.57922 -1370.62777 2440.00000
-108.66072 0.59501 -1371.40932 2442.00000
-110.71010 0.60864 -1372.11111 2444.00000
-112.83891 0.62110 -1372.74383 2446.00000
-115.02226 0.63367 -1373.31493 2448.00000
-117.21923 0.64724 -1373.82522 2450.00000
-119.40417 0.66208 -1374.27320 2452.00000
-121.57937 0.67820 -1374.66001 2454.00000
-123.75253 0.69545 -1374.98588 2456.00000
-125.92718 0.71366 -1375.24951 2458.00000
-128.10374 0.73263 -1375.44973 2460.00000
-130.28274 0.75217 -1375.58472 2462.00000
-132.46413 0.77188 -1375.64986 2464.00000
-134.64614 0.79106 -1375.63657 2466.00000
-136.82638 0.80892 -1375.53408 2468.00000
-139.00179 0.82471 -1375.33257 2470.00000
-141.16686 0.83804 -1375.02744 2472.00000
-143.31477 0.84916 -1374.62330 2474.00000
-145.44125 0.85922 -1374.13520 2476.00000
-147.54725 0.86980 -1373.58362 2478.00000
-149.63648 0.88203 -1372.98273 2480.00000
-151.71050 0.89642 -1372.33788 2482.00000
-153.76819 0.91300 -1371.65020 2484.00000
-155.80797 0.93169 -1370.91933 2486.00000
-157.83013 0.95233 -1370.14426 2488.00000
-159.83644 0.97484 -1369.32343 2490.00000
-161.82674 0.99907 -1368.45485 2492.00000
-163.79735 1.02468 -1367.53535 2494.00000
-165.74238 1.05115 -1366.55951 2496.00000
-167.65581 1.07784 -1365.51964 2498.00000
-169.53086 1.10380 -1364.40644 2500.00000
-171.35613 1.12777 -1363.20933 2502.00000
-173.11617 1.14843 -1361.91932 2504.00000
-174.79919 1.16518 -1360.53518 2506.00000
-176.40319 1.17845 -1359.06527 2508.00000
-177.93479 1.18933 -1357.52337 2510.00000
-179.40064 1.19879 -1355.92231 2512.00000
-180.80325 1.20754 -1354.27170 2514.00000
-182.14440 1.21614 -1352.57881 2516.00000
-183.43095 1.22542 -1350.85053 2518.00000
-184.67769 1.23675 -1349.09582 2520.00000
-185.90030 1.25154 -1347.32453 2522.00000
-187.10306 1.27022 -1345.54050 2524.00000
-188.27653 1.29190 -1343.73915 2526.00000
-189.40702 1.31529 -1341.91237 2528.00000
-190.48628 1.33962 -1340.05396 2530.00000
-191.51085 1.36458 -1338.16252 2532.00000
-192.47804 1.38993 -1336.24257 2534.00000
-193.38459 1.41517 -1334.30323 2536.00000
-194.22746 1.43944 -1332.35410 2538.00000
-195.00704 1.46188 -1330.39724 2540.00000
-195.72659 1.48195 -1328.42731 2542.00000
-196.38951 1.49961 -1326.44119 2544.00000
-197.00139 1.51543 -1324.44130 2546.00000
-197.57278 1.53048 -1322.43356 2548.00000
-198.11635 1.54589 -1320.42230 2550.00000
-198.63958 1.56221 -1318.40784 2552.00000
-199.14296 1.57945 -1316.38888 2554.00000
-199.62190 1.59722 -1314.36384 2556.00000
-200.06930 1.61495 -1312.33110 2558.00000
-200.47855 1.63216 -1310.28944 2560.00000
-200.84501 1.64843 -1308.23882 2562.00000
-201.16651 1.66351 -1306.18030 2564.00000
-201.44240 1.67728 -1304.11524 2566.00000
-201.67255 1.68967 -1302.04459 2568.00000
-201.85691 1.70066 -1299.96903 2570.00000
-201.99570 1.71027 -1297.88966 2572.00000
-202.09059 1.71859 -1295.80811 2574.00000
-202.14646 1.72596 -1293.72606 2576.00000
-202.17111 1.73289 -1291.64456 2578.00000
-202.17032 1.73980 -1289.56367 2580.00000
-202.14425 1.74666 -1287.48337 2582.00000
-202.08991 1.75324 -1285.40408 2584.00000
-202.00474 1.75936 -1283.32635 2586.00000
-201.88733 1.76492 -1281.25032 2588.00000
-201.73667 1.76987 -1279.17599 2590.00000
-201.55163 1.77416 -1277.10402 2592.00000
-201.33117 1.77772 -1275.03565 2594.00000
-201.07479 1.78051 -1272.97212 2596.00000
-200.78241 1.78256 -1270.91412 2598.00000
-200.45400 1.78384 -1268.86183 2600.00000
-200.08959 1.78436 -1266.81571 2602.00000
-199.68951 1.78415 -1264.77679 2604.00000
-199.25492 1.78326 -1262.74598 2606.00000
-198.78863 1.78183 -1260.72329 2608.00000
-198.29522 1.78003 -1258.70760 2610.00000
-197.77896 1.77802 -1256.69789 2612.00000
-197.24196 1.77587 -1254.69396 2614.00000
-196.68470 1.77356 -1252.69603 2616.00000
-196.10653 1.77103 -1250.70411 2618.00000
-195.50544 1.76817 -1248.71816 2620.00000
-194.87781 1.76480 -1246.73916 2622.00000
-194.21908 1.76074 -1244.76937 2624.00000
-193.52563 1.75583 -1242.81137 2626.00000
-192.79563 1.75002 -1240.86701 2628.00000
-192.02858 1.74329 -1238.93699 2630.00000
-191.22462 1.73566 -1237.02136 2632.00000
-190.38439 1.72716 -1235.12075 2634.00000
-189.50928 1.71783 -1233.23705 2636.00000
-188.60131 1.70769 -1231.37322 2638.00000
-187.66244 1.69681 -1229.53226 2640.00000
-186.69314 1.68523 -1227.71434 2642.00000
-185.69299 1.67297 -1225.91629 2644.00000
-184.66377 1.66001 -1224.13437 2646.00000
-183.61089 1.64625 -1222.36483 2648.00000
-182.54207 1.63149 -1220.60470 2650.00000
-181.46495 1.61549 -1218.85356 2652.00000
-180.38637 1.59820 -1217.11439 2654.00000
-179.31148 1.57975 -1215.39183 2656.00000
-178.24107 1.56040 -1213.68622 2658.00000
-177.17165 1.54031 -1211.99230 2660.00000
-176.09963 1.51960 -1210.30489 2662.00000
-175.02290 1.49838 -1208.62112 2664.00000
-173.94074 1.47680 -1206.94001 2666.00000
-172.85336 1.45501 -1205.26143 2668.00000
-171.76166 1.43315 -1203.58520 2670.00000
-170.66710 1.41132 -1201.91074 2672.00000
-169.57136 1.38958 -1200.23712 2674.00000
-168.47625 1.36798 -1198.56314 2676.00000
-167.38458 1.34645 -1196.88684 2678.00000
-166.30091 1.32491 -1195.20525 2680.00000
-165.23106 1.30326 -1193.51488 2682.00000
-164.18062 1.28142 -1191.81304 2684.00000
-163.15138 1.25930 -1190.10032 2686.00000
-162.13868 1.23688 -1188.38176 2688.00000
-161.13479 1.21418 -1186.66271 2690.00000
-160.13392 1.19118 -1184.94510 2692.00000
-159.13358 1.16804 -1183.22858 2694.00000
-158.13395 1.14526 -1181.51183 2696.00000
-157.13680 1.12362 -1179.79332 2698.00000
-156.14437 1.10385 -1178.07227 2700.00000
-155.15920 1.08629 -1176.34936 2702.00000
-154.18475 1.07080 -1174.62690 2704.00000
-153.22462 1.05701 -1172.90787 2706.00000
-152.27990 1.04455 -1171.19222 2708.00000
-151.34911 1.03306 -1169.47594 2710.00000
-150.43075 1.02234 -1167.75529 2712.00000
-149.52413 1.01226 -1166.02841 2714.00000
-148.62904 1.00299 -1164.29503 2716.00000
-147.74530 0.99458 -1162.55572 2718.00000
-146.87270 0.98694 -1160.81138 2720.00000
-146.01126 0.97969 -1159.06275 2722.00000
-145.16231 0.97272 -1157.30963 2724.00000
-144.32882 0.96586 -1155.55026 2726.00000
-143.51473 0.95908 -1153.78200 2728.00000
-142.72268 0.95215 -1152.00330 2730.00000
-141.95168 0.94503 -1150.21485 2732.00000
-141.19663 0.93783 -1148.41946 2734.00000
-140.44990 0.93082 -1146.62093 2736.00000
-139.70567 0.92409 -1144.82196 2738.00000
-138.96192 0.91756 -1143.02321 2740.00000
-138.21934 0.91116 -1141.22373 2742.00000
-137.47983 0.90502 -1139.42197 2744.00000
-136.74607 0.89925 -1137.61641 2746.00000
-136.02216 0.89381 -1135.80553 2748.00000
-135.31412 0.88843 -1133.98751 2750.00000
-134.62841 0.88281 -1132.16064 2752.00000
-133.96941 0.87683 -1130.32411 2754.00000
-133.33899 0.87052 -1128.47792 2756.00000
-132.73747 0.86407 -1126.62242 2758.00000
-132.16467 0.85759 -1124.75775 2760.00000
-131.62019 0.85105 -1122.88403 2762.00000
-131.10308 0.84420 -1121.00181 2764.00000
-130.61128 0.83690 -1119.11224 2766.00000
-130.14151 0.82914 -1117.21688 2768.00000
-129.68897 0.82120 -1115.31764 2770.00000
-129.24791 0.81349 -1113.41647 2772.00000
-128.81380 0.80621 -1111.51463 2774.00000
-128.38428 0.79934 -1109.61233 2776.00000
-127.95855 0.79275 -1107.70904 2778.00000
-127.53738 0.78631 -1105.80395 2780.00000
-127.12392 0.77986 -1103.89624 2782.00000
-126.72358 0.77328 -1101.98504 2784.00000
-126.34172 0.76656 -1100.06969 2786.00000
-125.98107 0.75973 -1098.15023 2788.00000
-125.64120 0.75290 -1096.22729 2790.00000
-125.31927 0.74614 -1094.30185 2792.00000
-125.01179 0.73950 -1092.37486 2794.00000
-124.71642 0.73301 -1090.44671 2796.00000
-124.43216 0.72667 -1088.51723 2798.00000
-124.15891 0.72041 -1086.58596 2800.00000
-123.89730 0.71419 -1084.65268 2802.00000
-123.64864 0.70793 -1082.71737 2804.00000
-123.41456 0.70159 -1080.78014 2806.00000
-123.19621 0.69513 -1078.84127 2808.00000
-122.99404 0.68857 -1076.90096 2810.00000
-122.80815 0.68195 -1074.95926 2812.00000
-122.63849 0.67531 -1073.01594 2814.00000
-122.48509 0.66870 -1071.07069 2816.00000
-122.34824 0.66213 -1069.12348 2818.00000
-122.22847 0.65559 -1067.17452 2820.00000
-122.12639 0.64906 -1065.22419 2822.00000
-122.04237 0.64250 -1063.27296 2824.00000
-121.97644 0.63587 -1061.32131 2826.00000
-121.92853 0.62918 -1059.36971 2828.00000
-121.89857 0.62247 -1057.41850 2830.00000
-121.88620 0.61571 -1055.46770 2832.00000
-121.89017 0.60894 -1053.51701 2834.00000
-121.90779 0.60221 -1051.56611 2836.00000
-121.93539 0.59561 -1049.61490 2838.00000
-121.97005 0.58916 -1047.66347 2840.00000
-122.01043 0.58288 -1045.71200 2842.00000
-122.05657 0.57681 -1043.76070 2844.00000
-122.10969 0.57089 -1041.80974 2846.00000
-122.17198 0.56507 -1039.85927 2848.00000
-122.24587 0.55934 -1037.90918 2850.00000
-122.33323 0.55369 -1035.95919 2852.00000
-122.43534 0.54808 -1034.00910 2854.00000
-122.55347 0.54247 -1032.05907 2856.00000
-122.68936 0.53686 -1030.10955 2858.00000
-122.84482 0.53121 -1028.16118 2860.00000
-123.02134 0.52543 -1026.21469 2862.00000
-123.21975 0.51951 -1024.27071 2864.00000
-123.44025 0.51341 -1022.32967 2866.00000
-123.68276 0.50715 -1020.39170 2868.00000
-123.94718 0.50074 -1018.45663 2870.00000
-124.23356 0.49422 -1016.52433 2872.00000
-124.54197 0.48760 -1014.59499 2874.00000
-124.87248 0.48085 -1012.66908 2876.00000
-125.22520 0.47398 -1010.74720 2878.00000
-125.60023 0.46697 -1008.82997 2880.00000
-125.99752 0.45981 -1006.91780 2882.00000
-126.41655 0.45252 -1005.01075 2884.00000
-126.85596 0.44512 -1003.10834 2886.00000
-127.31355 0.43766 -1001.20985 2888.00000
-127.78658 0.43018 -999.31474 2890.00000
-128.27116 0.42278 -997.42243 2892.00000
-128.76227 0.41555 -995.53205 2894.00000
-129.25585 0.40858 -993.64287 2896.00000
-129.75042 0.40191 -991.75461 2898.00000
-130.24640 0.39552 -989.86743 2900.00000
-130.74486 0.38935 -987.98145 2902.00000
-131.24668 0.38338 -986.09645 2904.00000
-131.75242 0.37754 -984.21190 2906.00000
-132.26309 0.37187 -982.32760 2908.00000
-132.78291 0.36648 -980.44480 2910.00000
-133.32088 0.36116 -978.56664 2912.00000
-133.88354 0.35570 -976.69573 2914.00000
-134.47109 0.35007 -974.83276 2916.00000
-135.07977 0.34426 -972.97691 2918.00000
-135.70649 0.33831 -971.12714 2920.00000
-136.34914 0.33229 -969.28225 2922.00000
-137.00802 0.32624 -967.44204 2924.00000
-137.68667 0.32008 -965.60815 2926.00000
-138.38881 0.31374 -963.78265 2928.00000
-139.11467 0.30720 -961.96630 2930.00000
-139.85971 0.30055 -960.15788 2932.00000
-140.61627 0.29395 -958.35474 2934.00000
-141.37942 0.28751 -956.55507 2936.00000
-142.15080 0.28122 -954.75949 2938.00000
-142.93589 0.27505 -952.96999 2940.00000
-143.73914 0.26907 -951.18820 2942.00000
-144.56187 0.26363 -949.41488 2944.00000
-145.40290 0.25936 -947.65005 2946.00000
-146.25905 0.25708 -945.89287 2948.00000
-147.12567 0.25749 -944.14155 2950.00000
-147.99692 0.26079 -942.39291 2952.00000
-148.86747 0.26690 -940.64246 2954.00000
-149.73759 0.27548 -938.88659 2956.00000
-150.61504 0.28570 -937.12478 2958.00000
-151.50954 0.29654 -935.36121 2960.00000
-152.42744 0.30756 -933.60323 2962.00000
-153.36871 0.31867 -931.85523 2964.00000
-154.32775 0.33022 -930.11702 2966.00000
-155.29713 0.34223 -928.38564 2968.00000
-156.27194 0.35466 -926.65756 2970.00000
-157.25047 0.36740 -924.92802 2972.00000
-158.23303 0.38043 -923.18937 2974.00000
-159.21932 0.39388 -921.43200 2976.00000
-160.20236 0.40787 -919.65032 2978.00000
-161.16736 0.42235 -917.84470 2980.00000
-162.10007 0.43711 -916.01654 2982.00000
-162.99398 0.45183 -914.16800 2984.00000
-163.85276 0.46602 -912.30357 2986.00000
-164.68784 0.47907 -910.43001 2988.00000
-165.51095 0.49040 -908.55332 2990.00000
-166.32786 0.49996 -906.67604 2992.00000
-167.13875 0.50818 -904.79756 2994.00000
-167.94088 0.51591 -902.91571 2996.00000
-168.73112 0.52387 -901.02849 2998.00000
-169.50683 0.53242 -899.13475 3000.00000
-170.26605 0.54170 -897.23405 3002.00000
-171.00782 0.55169 -895.32663 3004.00000
-171.73193 0.56230 -893.41307 3006.00000
-172.43887 0.57351 -891.49407 3008.00000
-173.12998 0.58532 -889.57035 3010.00000
-173.80737 0.59776 -887.64239 3012.00000
-174.47305 0.61084 -885.71021 3014.00000
-175.12797 0.62450 -883.77359 3016.00000
-175.77160 0.63864 -881.83227 3018.00000
-176.40186 0.65307 -879.88588 3020.00000
-177.01552 0.66762 -877.93394 3022.00000
-177.60964 0.68217 -875.97619 3024.00000
-178.18246 0.69666 -874.01267 3026.00000
-178.73319 0.71107 -872.04343 3028.00000
-179.26155 0.72540 -870.06824 3030.00000
-179.76742 0.73967 -868.08670 3032.00000
-180.25110 0.75387 -866.09873 3034.00000
-180.71393 0.76804 -864.10491 3036.00000
-181.15922 0.78223 -862.10646 3038.00000
-181.59199 0.79654 -860.10500 3040.00000
-182.01621 0.81104 -858.10180 3042.00000
-182.43215 0.82576 -856.09725 3044.00000
-182.83581 0.84065 -854.09073 3046.00000
-183.22060 0.85559 -852.08089 3048.00000
-183.58139 0.87045 -850.06638 3050.00000
-183.91788 0.88520 -848.04676 3052.00000
-184.23467 0.89995 -846.02274 3054.00000
-184.53768 0.91485 -843.99548 3056.00000
-184.82959 0.92993 -841.96581 3058.00000
-185.10865 0.94513 -839.93406 3060.00000
-185.36882 0.96029 -837.90010 3062.00000
-185.60064 0.97509 -835.86334 3064.00000
-185.79811 0.98909 -833.82325 3066.00000
-185.96240 1.00150 -831.77975 3068.00000
-186.09786 1.01155 -829.73308 3070.00000
-186.20733 1.01881 -827.68342 3072.00000
-186.28803 1.02385 -825.63055 3074.00000
-186.33392 1.02759 -823.57461 3076.00000
-186.34460 1.03069 -821.51828 3078.00000
-186.33014 1.03356 -819.47008 3080.00000
-186.30321 1.03628 -817.44706 3082.00000
-186.27316 1.03870 -815.46975 3084.00000
-186.24414 1.04060 -813.54016 3086.00000
-186.21646 1.04188 -811.63636 3088.00000
-186.19021 1.04256 -809.73781 3090.00000
-186.16861 1.04272 -807.83469 3092.00000
-186.16101 1.04249 -805.92677 3094.00000
-186.18484 1.04203 -804.02187 3096.00000
-186.26237 1.04138 -802.13482 3098.00000
-186.41432 1.04050 -800.28257 3100.00000
-186.65688 1.03921 -798.47025 3102.00000
-186.99866 1.03725 -796.68985 3104.00000
-187.44054 1.03438 -794.93583 3106.00000
-187.97832 1.03041 -793.20808 3108.00000
-188.60276 1.02540 -791.50809 3110.00000
-189.29769 1.01965 -789.83582 3112.00000
-190.04451 1.01380 -788.18840 3114.00000
-190.83797 1.00844 -786.56455 3116.00000
-191.69266 1.00380 -784.97045 3118.00000
-192.62813 0.99977 -783.41876 3120.00000
-193.65280 0.99614 -781.92052 3122.00000
-194.76062 0.99268 -780.47859 3124.00000
-195.93507 0.98928 -779.08797 3126.00000
-197.15650 0.98618 -777.74075 3128.00000
-198.41313 0.98392 -776.43174 3130.00000
-199.70447 0.98310 -775.15971 3132.00000
-201.03658 0.98401 -773.92751 3134.00000
-202.41510 0.98639 -772.74399 3136.00000
-203.84076 0.98959 -771.62113 3138.00000
-205.30915 0.99281 -770.56798 3140.00000
-206.81630 0.99552 -769.58782 3142.00000
-208.36152 0.99752 -768.67984 3144.00000
-209.94581 0.99884 -767.84190 3146.00000
-211.57161 0.99956 -767.07032 3148.00000
-213.23810 0.99978 -766.36117 3150.00000
-214.93890 0.99950 -765.71221 3152.00000
-216.67053 0.99868 -765.12211 3154.00000
-218.43903 0.99722 -764.58666 3156.00000
-220.25599 0.99506 -764.09427 3158.00000
-222.11829 0.99221 -763.62745 3160.00000
-224.00599 0.98873 -763.16944 3162.00000
-225.90831 0.98473 -762.70982 3164.00000
-227.83347 0.98029 -762.24274 3166.00000
-229.80102 0.97563 -761.76396 3168.00000
-231.81578 0.97106 -761.27307 3170.00000
-233.85968 0.96704 -760.77260 3172.00000
-235.91397 0.96399 -760.26005 3174.00000
-237.96806 0.96216 -759.72474 3176.00000
-240.01820 0.96159 -759.15117 3178.00000
-242.06188 0.96223 -758.52535 3180.00000
-244.09443 0.96408 -757.84009 3182.00000
-246.11049 0.96716 -757.09400 3184.00000
-248.10585 0.97148 -756.28815 3186.00000
-250.07899 0.97680 -755.42305 3188.00000
-252.03187 0.98244 -754.49716 3190.00000
-253.96573 0.98727 -753.50828 3192.00000
-255.87161 0.99024 -752.45874 3194.00000
-257.73556 0.99096 -751.35363 3196.00000
-259.56859 0.98991 -750.18473 3198.00000
-261.37548 0.98800 -748.94930 3200.00000
-263.13481 0.98601 -747.66352 3202.00000
-264.82271 0.98434 -746.34776 3204.00000
-266.42704 0.98308 -745.01607 3206.00000
-267.95628 0.98214 -743.66705 3208.00000
-269.44786 0.98146 -742.27396 3210.00000
-270.94775 0.98103 -740.79997 3212.00000
-272.47426 0.98087 -739.22745 3214.00000
-274.00548 0.98081 -737.56980 3216.00000
-275.49042 0.98052 -735.86611 3218.00000
-276.88708 0.97962 -734.14687 3220.00000
-278.18735 0.97773 -732.41051 3222.00000
-279.40325 0.97457 -730.64362 3224.00000
-280.55277 0.97006 -728.83645 3226.00000
-281.64859 0.96431 -726.98835 3228.00000
-282.69361 0.95755 -725.10419 3230.00000
-283.68542 0.95016 -723.19024 3232.00000
-284.62147 0.94254 -721.25269 3234.00000
-285.50290 0.93501 -719.29737 3236.00000
-286.33660 0.92783 -717.32938 3238.00000
-287.13263 0.92125 -715.35168 3240.00000
-287.89743 0.91543 -713.36498 3242.00000
-288.63239 0.91035 -711.37037 3244.00000
-289.33536 0.90592 -709.37076 3246.00000
-290.00156 0.90200 -707.37049 3248.00000
-290.62476 0.89846 -705.37288 3250.00000
-291.20123 0.89522 -703.37585 3252.00000
-291.73248 0.89234 -701.37325 3254.00000
-292.22430 0.89004 -699.36148 3256.00000
-292.68666 0.88861 -697.34144 3258.00000
-293.13204 0.88823 -695.31716 3260.00000
-293.56929 0.88891 -693.29360 3262.00000
-294.00017 0.89058 -691.27592 3264.00000
-294.42236 0.89313 -689.26876 3266.00000
-294.83406 0.89653 -687.27179 3268.00000
-295.23520 0.90073 -685.27948 3270.00000
-295.62560 0.90564 -683.28692 3272.00000
-296.00379 0.91107 -681.29158 3274.00000
-296.36719 0.91679 -679.29264 3276.00000
-296.71339 0.92259 -677.29012 3278.00000
-297.04178 0.92832 -675.28446 3280.00000
-297.35312 0.93393 -673.27625 3282.00000
-297.64916 0.93942 -671.26602 3284.00000
-297.93081 0.94476 -669.25392 3286.00000
-298.19608 0.94996 -667.23953 3288.00000
-298.44078 0.95515 -665.22223 3290.00000
-298.66050 0.96038 -663.20172 3292.00000
-298.85146 0.96543 -661.17800 3294.00000
-299.01375 0.97015 -659.15159 3296.00000
-299.15331 0.97462 -657.12355 3298.00000
-299.27849 0.97899 -655.09499 3300.00000
-299.39485 0.98334 -653.06654 3302.00000
-299.50443 0.98773 -651.03824 3304.00000
-299.60690 0.99217 -649.00966 3306.00000
-299.70053 0.99670 -646.98032 3308.00000
-299.78261 1.00133 -644.95003 3310.00000
-299.85040 1.00595 -642.91887 3312.00000
-299.90214 1.01051 -640.88705 3314.00000
-299.93718 1.01497 -638.85490 3316.00000
-299.95589 1.01935 -636.82275 3318.00000
-299.95974 1.02368 -634.79097 3320.00000
-299.95106 1.02803 -632.75986 3322.00000
-299.93201 1.03244 -630.72958 3324.00000
-299.90371 1.03691 -628.70010 3326.00000
-299.86652 1.04145 -626.67112 3328.00000
-299.82036 1.04606 -624.64233 3330.00000
-299.76515 1.05073 -622.61362 3332.00000
-299.70120 1.05548 -620.58502 3334.00000
-299.62942 1.06032 -618.55665 3336.00000
-299.55129 1.06530 -616.52865 3338.00000
-299.46783 1.07041 -614.50112 3340.00000
-299.37816 1.07565 -612.47424 3342.00000
-299.27835 1.08093 -610.44832 3344.00000
-299.16159 1.08612 -608.42373 3346.00000
-299.02163 1.09109 -606.40069 3348.00000
-298.85845 1.09586 -604.37909 3350.00000
-298.67885 1.10055 -602.35850 3352.00000
-298.49003 1.10532 -600.33855 3354.00000
-298.29596 1.11024 -598.31909 3356.00000
-298.09729 1.11533 -596.30025 3358.00000
-297.89200 1.12054 -594.28233 3360.00000
-297.67681 1.12576 -592.26575 3362.00000
-297.44912 1.13084 -590.25076 3364.00000
-297.20772 1.13563 -588.23729 3366.00000
-296.95228 1.13997 -586.22515 3368.00000
-296.68287 1.14372 -584.21428 3370.00000
-296.39965 1.14680 -582.20481 3372.00000
-296.10278 1.14917 -580.19697 3374.00000
-295.79244 1.15080 -578.19103 3376.00000
-295.46878 1.15170 -576.18725 3378.00000
-295.13193 1.15189 -574.18595 3380.00000
-294.78195 1.15140 -572.18734 3382.00000
-294.41910 1.15025 -570.19146 3384.00000
-294.04374 1.14847 -568.19814 3386.00000
-293.65606 1.14619 -566.20708 3388.00000
-293.25620 1.14360 -564.21809 3390.00000
-292.84457 1.14084 -562.23111 3392.00000
-292.42158 1.13802 -560.24621 3394.00000
-291.98752 1.13525 -558.26360 3396.00000
-291.54273 1.13253 -556.28344 3398.00000
-291.08748 1.12986 -554.30594 3400.00000
-290.62178 1.12724 -552.33125 3402.00000
-290.14579 1.12465 -550.35946 3404.00000
-289.65975 1.12209 -548.39036 3406.00000
-289.16379 1.11959 -546.42363 3408.00000
-288.65810 1.11716 -544.45896 3410.00000
-288.14296 1.11477 -542.49624 3412.00000
-287.61850 1.11242 -540.53556 3414.00000
-287.08480 1.11016 -538.57708 3416.00000
-286.54212 1.10797 -536.62091 3418.00000
-285.99036 1.10580 -534.66733 3420.00000
-285.42826 1.10367 -532.71693 3422.00000
-284.85319 1.10158 -530.77069 3424.00000
-284.26164 1.09942 -528.82974 3426.00000
-283.65044 1.09708 -526.89496 3428.00000
-283.01782 1.09448 -524.96681 3430.00000
-282.36353 1.09167 -523.04552 3432.00000
-281.68842 1.08872 -521.13113 3434.00000
-280.99396 1.08564 -519.22358 3436.00000
-280.28128 1.08240 -517.32291 3438.00000
-279.55069 1.07899 -515.42939 3440.00000
-278.80186 1.07547 -513.54349 3442.00000
-278.03479 1.07187 -511.66541 3444.00000
-277.25043 1.06816 -509.79477 3446.00000
-276.45121 1.06438 -507.93043 3448.00000
-275.64142 1.06062 -506.07056 3450.00000
-274.82601 1.05701 -504.21315 3452.00000
-274.00864 1.05369 -502.35668 3454.00000
-273.19106 1.05069 -500.50036 3456.00000
-272.37363 1.04790 -498.64400 3458.00000
-271.55592 1.04490 -496.78818 3460.00000
-270.73731 1.04099 -494.93455 3462.00000
-269.91779 1.03537 -493.08597 3464.00000
-269.09812 1.02761 -491.24554 3466.00000
-268.27868 1.01794 -489.41354 3468.00000
-267.45876 1.00700 -487.58700 3470.00000
-266.63762 0.99550 -485.76301 3472.00000
-265.81484 0.98391 -483.93998 3474.00000
-264.99027 0.97235 -482.11739 3476.00000
-264.16387 0.96081 -480.29525 3478.00000
-263.33569 0.94924 -478.47375 3480.00000
-262.50598 0.93761 -476.65298 3482.00000
-261.67528 0.92592 -474.83300 3484.00000
-260.84429 0.91419 -473.01375 3486.00000
-260.01351 0.90243 -471.19502 3488.00000
-259.18314 0.89063 -469.37648 3490.00000
-258.35320 0.87875 -467.55788 3492.00000
-257.52365 0.86677 -465.73910 3494.00000
-256.69441 0.85471 -463.92008 3496.00000
-255.86550 0.84269 -462.10077 3498.00000
-255.03698 0.83110 -460.28125 3500.00000
-254.20903 0.82065 -458.46184 3502.00000
-253.38198 0.81206 -456.64318 3504.00000
-252.55619 0.80574 -454.82607 3506.00000
-251.73163 0.80144 -453.01072 3508.00000
-250.90787 0.79849 -451.19643 3510.00000
-250.08448 0.79612 -449.38251 3512.00000
-249.26125 0.79385 -447.56856 3514.00000
-248.43827 0.79154 -445.75435 3516.00000
-247.61606 0.78918 -443.93966 3518.00000
-246.79568 0.78680 -442.12408 3520.00000
-245.97854 0.78440 -440.30707 3522.00000
-245.16611 0.78196 -438.48805 3524.00000
-244.35992 0.77946 -436.66639 3526.00000
-243.56170 0.77685 -434.84131 3528.00000
-242.77313 0.77410 -433.01204 3530.00000
-241.99527 0.77118 -431.17808 3532.00000
-241.22839 0.76808 -429.33928 3534.00000
-240.47191 0.76482 -427.49583 3536.00000
-239.72417 0.76143 -425.64841 3538.00000
-238.98272 0.75797 -423.79836 3540.00000
-238.24554 0.75450 -421.94767 3542.00000
-237.51202 0.75105 -420.09890 3544.00000
-236.78257 0.74765 -418.25465 3546.00000
-236.05717 0.74428 -416.41523 3548.00000
-235.33487 0.74096 -414.57838 3550.00000
-234.61473 0.73773 -412.74187 3552.00000
-233.89641 0.73464 -410.90446 3554.00000
-233.18065 0.73173 -409.06545 3556.00000
-232.46981 0.72898 -407.22403 3558.00000
-231.76778 0.72631 -405.37908 3560.00000
-231.07865 0.72365 -403.52982 3562.00000
-230.40521 0.72093 -401.67635 3564.00000
-229.74887 0.71815 -399.81941 3566.00000
-229.10984 0.71532 -397.95906 3568.00000
-228.48769 0.71242 -396.09429 3570.00000
-227.88211 0.70944 -394.22430 3572.00000
-227.29310 0.70638 -392.34885 3574.00000
-226.72084 0.70320 -390.46812 3576.00000
-226.16511 0.69985 -388.58260 3578.00000
-225.62484 0.69639 -386.69304 3580.00000
-225.09781 0.69290 -384.80039 3582.00000
-224.58130 0.68949 -382.90551 3584.00000
-224.07309 0.68625 -381.00875 3586.00000
-223.57123 0.68324 -379.11023 3588.00000
-223.07370 0.68042 -377.21026 3590.00000
-222.57894 0.67772 -375.30918 3592.00000
-222.08688 0.67512 -373.40709 3594.00000
-221.59903 0.67266 -371.50372 3596.00000
-221.11870 0.67039 -369.59842 3598.00000
-220.65088 0.66836 -367.69021 3600.00000
-220.20072 0.66660 -365.77819 3602.00000
-219.77143 0.66513 -363.86186 3604.00000
-219.36396 0.66400 -361.94112 3606.00000
-218.97743 0.66325 -360.01606 3608.00000
-218.60990 0.66289 -358.08698 3610.00000
-218.25966 0.66295 -356.15434 3612.00000
-217.92627 0.66346 -354.21852 3614.00000
-217.61009 0.66447 -352.27982 3616.00000
-217.31122 0.66601 -350.33862 3618.00000
-217.02816 0.66814 -348.39553 3620.00000
-216.75791 0.67087 -346.45127 3622.00000
-216.49863 0.67428 -344.50618 3624.00000
-216.25163 0.67840 -342.55990 3626.00000
-216.02047 0.68318 -340.61165 3628.00000
-215.80801 0.68843 -338.66100 3630.00000
-215.61461 0.69407 -336.70809 3632.00000
-215.43741 0.70003 -334.75360 3634.00000
-215.27041 0.70638 -332.79854 3636.00000
-215.10737 0.71332 -330.84381 3638.00000
-214.94489 0.72100 -328.88989 3640.00000
-214.78226 0.72950 -326.93680 3642.00000
-214.62024 0.73889 -324.98424 3644.00000
-214.46014 0.74920 -323.03163 3646.00000
-214.30368 0.76036 -321.07833 3648.00000
-214.15339 0.77228 -319.12394 3650.00000
-214.01373 0.78485 -317.16828 3652.00000
-213.89120 0.79791 -315.21128 3654.00000
-213.79131 0.81126 -313.25311 3656.00000
-213.71559 0.82479 -311.29416 3658.00000
-213.66148 0.83842 -309.33493 3660.00000
-213.62260 0.85215 -307.37577 3662.00000
-213.59132 0.86606 -305.41662 3664.00000
-213.56240 0.88017 -303.45700 3666.00000
-213.53344 0.89448 -301.49639 3668.00000
-213.50368 0.90898 -299.53470 3670.00000
-213.47302 0.92371 -297.57209 3672.00000
-213.44194 0.93888 -295.60877 3674.00000
-213.41255 0.95502 -293.64510 3676.00000
-213.39039 0.97287 -291.68142 3678.00000
-213.38544 0.99294 -289.71783 3680.00000
-213.41000 1.01515 -287.75349 3682.00000
-213.47283 1.03882 -285.78571 3684.00000
-213.57221 1.06310 -283.81052 3686.00000
-213.69599 1.08757 -281.82669 3688.00000
-213.83709 1.11258 -279.83763 3690.00000
-213.99219 1.13803 -277.84706 3692.00000
-214.15363 1.16336 -275.85676 3694.00000
-214.31391 1.18849 -273.86717 3696.00000
-214.46623 1.21343 -271.87797 3698.00000
-214.60433 1.23814 -269.88820 3700.00000
-214.72321 1.26254 -267.89587 3702.00000
-214.81941 1.28646 -265.89759 3704.00000
-214.89309 1.30976 -263.88961 3706.00000
-214.95082 1.33238 -261.87169 3708.00000
-215.00181 1.35429 -259.84787 3710.00000
-215.05167 1.37547 -257.82196 3712.00000
-215.10154 1.39577 -255.79596 3714.00000
-215.14970 1.41470 -253.77046 3716.00000
-215.19313 1.43152 -251.74543 3718.00000
-215.22868 1.44556 -249.72059 3720.00000
-215.25360 1.45662 -247.69553 3722.00000
-215.26647 1.46517 -245.66954 3724.00000
-215.26823 1.47213 -243.64169 3726.00000
-215.26102 1.47831 -241.61167 3728.00000
-215.24666 1.48412 -239.58013 3730.00000
-215.22651 1.48967 -237.54786 3732.00000
-215.20127 1.49496 -235.51531 3734.00000
-215.17083 1.49994 -233.48269 3736.00000
-215.13451 1.50457 -231.45014 3738.00000
-215.09064 1.50881 -229.41785 3740.00000
-215.03541 1.51257 -227.38612 3742.00000
-214.96252 1.51573 -225.35533 3744.00000
-214.86571 1.51815 -223.32572 3746.00000
-214.74308 1.51982 -221.29730 3748.00000
-214.59977 1.52085 -219.26972 3750.00000
-214.44517 1.52147 -217.24247 3752.00000
-214.28683 1.52191 -215.21518 3754.00000
-214.12812 1.52232 -213.18768 3756.00000
-213.96895 1.52282 -211.16002 3758.00000
-213.80708 1.52347 -209.13251 3760.00000
-213.63958 1.52427 -207.10553 3762.00000
-213.46414 1.52517 -205.07940 3764.00000
-213.27911 1.52613 -203.05424 3766.00000
-213.08244 1.52711 -201.03002 3768.00000
-212.87058 1.52802 -199.00688 3770.00000
-212.63860 1.52875 -196.98544 3772.00000
-212.38176 1.52921 -194.96668 3774.00000
-212.09664 1.52941 -192.95156 3776.00000
-211.78121 1.52935 -190.94104 3778.00000
-211.43363 1.52896 -188.93607 3780.00000
-211.05255 1.52820 -186.93752 3782.00000
-210.63821 1.52702 -184.94583 3784.00000
-210.19425 1.52540 -182.96052 3786.00000
-209.72901 1.52354 -180.98001 3788.00000
-209.25332 1.52172 -179.00216 3790.00000
-208.77464 1.52014 -177.02551 3792.00000
-208.29487 1.51885 -175.04972 3794.00000
-207.81181 1.51777 -173.07537 3796.00000
-207.32190 1.51681 -171.10340 3798.00000
-206.82271 1.51591 -169.13448 3800.00000
