VERSION 0.7
FIELDS x y z lapdistance
SIZE 4 4 4 4
TYPE F F F F
COUNT 1 1 1 1
WIDTH 1169
HEIGHT 1
VIEWPOINT -0.415 0.570 0.582 0.406 167.637 1.022 805.483
POINTS 1169
DATA ascii
-69.96140 -0.54526 -1147.32369 2208.00000
-70.05791 -0.54641 -1149.32139 2210.00000
-70.15348 -0.54754 -1151.31913 2212.00000
-70.24805 -0.54865 -1153.31692 2214.00000
-70.34184 -0.54975 -1155.31473 2216.00000
-70.43513 -0.55083 -1157.31253 2218.00000
-70.52813 -0.55191 -1159.31033 2220.00000
-70.62092 -0.55299 -1161.30810 2222.00000
-70.71355 -0.55407 -1163.30586 2224.00000
-70.80602 -0.55514 -1165.30364 2226.00000
-70.89838 -0.55622 -1167.30146 2228.00000
-70.99070 -0.55729 -1169.29929 2230.00000
-71.08305 -0.55836 -1171.29710 2232.00000
-71.17546 -0.55943 -1173.29489 2234.00000
-71.26797 -0.56047 -1175.29269 2236.00000
-71.36058 -0.56144 -1177.29043 2238.00000
-71.45330 -0.56235 -1179.28809 2240.00000
-71.54611 -0.56325 -1181.28564 2242.00000
-71.63902 -0.56422 -1183.28314 2244.00000
-71.73200 -0.56526 -1185.28062 2246.00000
-71.82506 -0.56634 -1187.27810 2248.00000
-71.91818 -0.56744 -1189.27556 2250.00000
-72.01138 -0.56853 -1191.27300 2252.00000
-72.10466 -0.56963 -1193.27044 2254.00000
-72.19801 -0.57072 -1195.26790 2256.00000
-72.29146 -0.57182 -1197.26537 2258.00000
-72.38499 -0.57292 -1199.26284 2260.00000
-72.47860 -0.57403 -1201.26037 2262.00000
-72.57230 -0.57513 -1203.25802 2264.00000
-72.66608 -0.57623 -1205.25578 2266.00000
-72.75993 -0.57734 -1207.25359 2268.00000
-72.85387 -0.57844 -1209.25141 2270.00000
-72.94789 -0.57955 -1211.24923 2272.00000
-73.04199 -0.58065 -1213.24705 2274.00000
-73.13616 -0.58176 -1215.24487 2276.00000
-73.23042 -0.58288 -1217.24269 2278.00000
-73.32476 -0.58399 -1219.24049 2280.00000
-73.41918 -0.58511 -1221.23827 2282.00000
-73.51369 -0.58623 -1223.23604 2284.00000
-73.60829 -0.58734 -1225.23386 2286.00000
-73.70298 -0.58846 -1227.23178 2288.00000
-73.79771 -0.58959 -1229.22978 2290.00000
-73.89241 -0.59071 -1231.22784 2292.00000
-73.98700 -0.59183 -1233.22590 2294.00000
-74.08153 -0.59296 -1235.22396 2296.00000
-74.17633 -0.59407 -1237.22199 2298.00000
-74.27249 -0.59519 -1239.21997 2300.00000
-74.37200 -0.59633 -1241.21779 2302.00000
-74.47713 -0.59755 -1243.21531 2304.00000
-74.58825 -0.59894 -1245.21249 2306.00000
-74.70316 -0.60074 -1247.20947 2308.00000
-74.81954 -0.60334 -1249.20637 2310.00000
-74.93613 -0.60723 -1251.20323 2312.00000
-75.05253 -0.61280 -1253.20004 2314.00000
-75.16863 -0.62022 -1255.19680 2316.00000
-75.28419 -0.62928 -1257.19353 2318.00000
-75.39865 -0.63952 -1259.19030 2320.00000
-75.51150 -0.65039 -1261.18712 2322.00000
-75.62262 -0.66146 -1263.18403 2324.00000
-75.73149 -0.67250 -1265.18105 2326.00000
-75.83715 -0.68340 -1267.17824 2328.00000
-75.93973 -0.69418 -1269.17560 2330.00000
-76.04063 -0.70488 -1271.17307 2332.00000
-76.14116 -0.71553 -1273.17056 2334.00000
-76.24208 -0.72616 -1275.16800 2336.00000
-76.34368 -0.73677 -1277.16530 2338.00000
-76.44600 -0.74743 -1279.16243 2340.00000
-76.54898 -0.75814 -1281.15943 2342.00000
-76.65259 -0.76892 -1283.15633 2344.00000
-76.75683 -0.77972 -1285.15321 2346.00000
-76.86168 -0.79046 -1287.15013 2348.00000
-76.96715 -0.80101 -1289.14726 2350.00000
-77.07331 -0.81124 -1291.14485 2352.00000
-77.18032 -0.82099 -1293.14306 2354.00000
-77.28851 -0.83016 -1295.14128 2356.00000
-77.39842 -0.83872 -1297.13703 2358.00000
-77.51104 -0.84672 -1299.12508 2360.00000
-77.62773 -0.85432 -1301.09888 2362.00000
-77.74921 -0.86166 -1303.05736 2364.00000
-77.87416 -0.86870 -1305.00664 2366.00000
-78.00053 -0.87511 -1306.95309 2368.00000
-78.12715 -0.88022 -1308.90056 2370.00000
-78.25499 -0.88294 -1310.85015 2372.00000
-78.38994 -0.88205 -1312.79942 2374.00000
-78.54620 -0.87710 -1314.74033 2376.00000
-78.74491 -0.86896 -1316.65764 2378.00000
-79.00616 -0.85936 -1318.53360 2380.00000
-79.34129 -0.84974 -1320.36355 2382.00000
-79.74972 -0.84039 -1322.15842 2384.00000
-80.22055 -0.83060 -1323.92968 2386.00000
-80.74122 -0.81945 -1325.68360 2388.00000
-81.30477 -0.80638 -1327.42276 2390.00000
-81.90944 -0.79121 -1329.14872 2392.00000
-82.55525 -0.77389 -1330.86177 2394.00000
-83.24201 -0.75434 -1332.56071 2396.00000
-83.96965 -0.73253 -1334.24425 2398.00000
-84.73998 -0.70856 -1335.91186 2400.00000
-85.55882 -0.68298 -1337.56146 2402.00000
-86.43655 -0.65696 -1339.18513 2404.00000
-87.38504 -0.63209 -1340.76983 2406.00000
-88.41041 -0.60950 -1342.30439 2408.00000
-89.50822 -0.58917 -1343.78654 2410.00000
-90.66611 -0.57001 -1345.22311 2412.00000
-91.87079 -0.55078 -1346.62239 2414.00000
-93.11416 -0.53079 -1347.98747 2416.00000
-94.39383 -0.50993 -1349.31684 2418.00000
-95.71230 -0.48851 -1350.60670 2420.00000
-97.07587 -0.46723 -1351.85035 2422.00000
-98.49046 -0.44703 -1353.03773 2424.00000
-99.95650 -0.42850 -1354.16089 2426.00000
-101.46811 -0.41142 -1355.21977 2428.00000
-103.01608 -0.39479 -1356.22325 2430.00000
-104.59187 -0.37737 -1357.18393 2432.00000
-106.19028 -0.35848 -1358.10850 2434.00000
-107.81120 -0.33843 -1358.99186 2436.00000
-109.45888 -0.31835 -1359.81977 2438.00000
-111.13786 -0.29928 -1360.57928 2440.00000
-112.84953 -0.28166 -1361.26494 2442.00000
-114.59045 -0.26539 -1361.87692 2444.00000
-116.35310 -0.24998 -1362.42027 2446.00000
-118.12877 -0.23454 -1362.90469 2448.00000
-119.91156 -0.21819 -1363.34045 2450.00000
-121.70054 -0.20043 -1363.73431 2452.00000
-123.49688 -0.18102 -1364.08913 2454.00000
-125.30100 -0.15989 -1364.40525 2456.00000
-127.11329 -0.13708 -1364.68151 2458.00000
-128.93561 -0.11279 -1364.91472 2460.00000
-130.76927 -0.08759 -1365.09721 2462.00000
-132.61191 -0.06244 -1365.21680 2464.00000
-134.45856 -0.03825 -1365.26253 2466.00000
-136.30435 -0.01553 -1365.22887 2468.00000
-138.14633 0.00554 -1365.11401 2470.00000
-139.98174 0.02492 -1364.91773 2472.00000
-141.80607 0.04269 -1364.64144 2474.00000
-143.61452 0.05914 -1364.28924 2476.00000
-145.40479 0.07480 -1363.86797 2478.00000
-147.17766 0.09031 -1363.38515 2480.00000
-148.93397 0.10618 -1362.84756 2482.00000
-150.67326 0.12290 -1362.26215 2484.00000
-152.39476 0.14077 -1361.63400 2486.00000
-154.09868 0.15989 -1360.96455 2488.00000
-155.78637 0.18025 -1360.25319 2490.00000
-157.45799 0.20183 -1359.49938 2492.00000
-159.11126 0.22451 -1358.70275 2494.00000
-160.74240 0.24805 -1357.86140 2496.00000
-162.34740 0.27203 -1356.97063 2498.00000
-163.92281 0.29597 -1356.02459 2500.00000
-165.46491 0.31953 -1355.02020 2502.00000
-166.96930 0.34250 -1353.95749 2504.00000
-168.43240 0.36474 -1352.83762 2506.00000
-169.85273 0.38622 -1351.66138 2508.00000
-171.22951 0.40695 -1350.42948 2510.00000
-172.56024 0.42692 -1349.14424 2512.00000
-173.84085 0.44613 -1347.80932 2514.00000
-175.06708 0.46455 -1346.42834 2516.00000
-176.23587 0.48217 -1345.00345 2518.00000
-177.34626 0.49899 -1343.53522 2520.00000
-178.39895 0.51511 -1342.02521 2522.00000
-179.39662 0.53089 -1340.47827 2524.00000
-180.34506 0.54698 -1338.90147 2526.00000
-181.25124 0.56404 -1337.30057 2528.00000
-182.11939 0.58249 -1335.67799 2530.00000
-182.95029 0.60246 -1334.03449 2532.00000
-183.74321 0.62401 -1332.36879 2534.00000
-184.49802 0.64722 -1330.67594 2536.00000
-185.21571 0.67204 -1328.94846 2538.00000
-185.89593 0.69812 -1327.18442 2540.00000
-186.53683 0.72482 -1325.39131 2542.00000
-187.13976 0.75162 -1323.57819 2544.00000
-187.71059 0.77842 -1321.75103 2546.00000
-188.25584 0.80541 -1319.91182 2548.00000
-188.77791 0.83270 -1318.06100 2550.00000
-189.27350 0.86007 -1316.19955 2552.00000
-189.73606 0.88712 -1314.32830 2554.00000
-190.16035 0.91353 -1312.44793 2556.00000
-190.54402 0.93919 -1310.55890 2558.00000
-190.88662 0.96405 -1308.66164 2560.00000
-191.18883 0.98809 -1306.75713 2562.00000
-191.45259 1.01136 -1304.84701 2564.00000
-191.68126 1.03391 -1302.93304 2566.00000
-191.87832 1.05588 -1301.01639 2568.00000
-192.04586 1.07732 -1299.09738 2570.00000
-192.18465 1.09825 -1297.17624 2572.00000
-192.29477 1.11869 -1295.25365 2574.00000
-192.37611 1.13861 -1293.33049 2576.00000
-192.42889 1.15803 -1291.40729 2578.00000
-192.45341 1.17693 -1289.48401 2580.00000
-192.44901 1.19529 -1287.56066 2582.00000
-192.41240 1.21294 -1285.63782 2584.00000
-192.33811 1.22961 -1283.71634 2586.00000
-192.22210 1.24506 -1281.79676 2588.00000
-192.06591 1.25942 -1279.87927 2590.00000
-191.87882 1.27317 -1277.96392 2592.00000
-191.67469 1.28701 -1276.05035 2594.00000
-191.46317 1.30140 -1274.13817 2596.00000
-191.24354 1.31622 -1272.22735 2598.00000
-191.00559 1.33093 -1270.31872 2600.00000
-190.73479 1.34487 -1268.41432 2602.00000
-190.41788 1.35741 -1266.51719 2604.00000
-190.04701 1.36819 -1264.63025 2606.00000
-189.62150 1.37722 -1262.75502 2608.00000
-189.14827 1.38483 -1260.89099 2610.00000
-188.64141 1.39167 -1259.03571 2612.00000
-188.11730 1.39844 -1257.18585 2614.00000
-187.58544 1.40551 -1255.33930 2616.00000
-187.04491 1.41280 -1253.49597 2618.00000
-186.48854 1.41997 -1251.65709 2620.00000
-185.90922 1.42670 -1249.82438 2622.00000
-185.30280 1.43281 -1247.99955 2624.00000
-184.66783 1.43820 -1246.18405 2626.00000
-184.00440 1.44288 -1244.37865 2628.00000
-183.31293 1.44684 -1242.58346 2630.00000
-182.59327 1.45009 -1240.79849 2632.00000
-181.84403 1.45258 -1239.02459 2634.00000
-181.06173 1.45420 -1237.26362 2636.00000
-180.24104 1.45482 -1235.51756 2638.00000
-179.37716 1.45434 -1233.78737 2640.00000
-178.46951 1.45278 -1232.07336 2642.00000
-177.52392 1.45032 -1230.37516 2644.00000
-176.55133 1.44728 -1228.69014 2646.00000
-175.56160 1.44402 -1227.01525 2648.00000
-174.55620 1.44070 -1225.35031 2650.00000
-173.52944 1.43729 -1223.69626 2652.00000
-172.47529 1.43365 -1222.05010 2654.00000
-171.39272 1.42961 -1220.40367 2656.00000
-170.28846 1.42508 -1218.75083 2658.00000
-169.17329 1.42002 -1217.09240 2660.00000
-168.05508 1.41450 -1215.43125 2662.00000
-166.93733 1.40866 -1213.76934 2664.00000
-165.82101 1.40262 -1212.10729 2666.00000
-164.70682 1.39653 -1210.44472 2668.00000
-163.59647 1.39049 -1208.78038 2670.00000
-162.49219 1.38455 -1207.11286 2672.00000
-161.39489 1.37874 -1205.44152 2674.00000
-160.30325 1.37303 -1203.76703 2676.00000
-159.21469 1.36742 -1202.09091 2678.00000
-158.12743 1.36190 -1200.41422 2680.00000
-157.04094 1.35646 -1198.73699 2682.00000
-155.95517 1.35106 -1197.05831 2684.00000
-154.86949 1.34570 -1195.37662 2686.00000
-153.78285 1.34041 -1193.69029 2688.00000
-152.69579 1.33520 -1191.99855 2690.00000
-151.61119 1.32998 -1190.30169 2692.00000
-150.53244 1.32447 -1188.59989 2694.00000
-149.46222 1.31818 -1186.89295 2696.00000
-148.40277 1.31043 -1185.18007 2698.00000
-147.35583 1.30080 -1183.45987 2700.00000
-146.32170 1.28941 -1181.73064 2702.00000
-145.29825 1.27695 -1179.99039 2704.00000
-144.28107 1.26433 -1178.23769 2706.00000
-143.26546 1.25236 -1176.47420 2708.00000
-142.24928 1.24148 -1174.70414 2710.00000
-141.23369 1.23182 -1172.93020 2712.00000
-140.22300 1.22326 -1171.15202 2714.00000
-139.22386 1.21559 -1169.36693 2716.00000
-138.24237 1.20857 -1167.57219 2718.00000
-137.28150 1.20198 -1165.76673 2720.00000
-136.34105 1.19565 -1163.95112 2722.00000
-135.41881 1.18945 -1162.12673 2724.00000
-134.51218 1.18331 -1160.29455 2726.00000
-133.61976 1.17717 -1158.45467 2728.00000
-132.74239 1.17102 -1156.60650 2730.00000
-131.88389 1.16479 -1154.74863 2732.00000
-131.05055 1.15838 -1152.87895 2734.00000
-130.24796 1.15168 -1150.99594 2736.00000
-129.47724 1.14464 -1149.10016 2738.00000
-128.73345 1.13738 -1147.19454 2740.00000
-128.00673 1.13013 -1145.28352 2742.00000
-127.28779 1.12311 -1143.37044 2744.00000
-126.57287 1.11636 -1141.45598 2746.00000
-125.86269 1.10987 -1139.53933 2748.00000
-125.16033 1.10357 -1137.61926 2750.00000
-124.46998 1.09736 -1135.69453 2752.00000
-123.79659 1.09115 -1133.76394 2754.00000
-123.14588 1.08482 -1131.82631 2756.00000
-122.52211 1.07829 -1129.88103 2758.00000
-121.92559 1.07157 -1127.92852 2760.00000
-121.35227 1.06472 -1125.96990 2762.00000
-120.79580 1.05788 -1124.00659 2764.00000
-120.25134 1.05115 -1122.03967 2766.00000
-119.71681 1.04455 -1120.06980 2768.00000
-119.19207 1.03808 -1118.09724 2770.00000
-118.67891 1.03170 -1116.12188 2772.00000
-118.18187 1.02530 -1114.14298 2774.00000
-117.70843 1.01874 -1112.15910 2776.00000
-117.26582 1.01186 -1110.16873 2778.00000
-116.85629 1.00463 -1108.17136 2780.00000
-116.47544 0.99716 -1106.16792 2782.00000
-116.11358 0.98964 -1104.16067 2784.00000
-115.76130 0.98225 -1102.15185 2786.00000
-115.41422 0.97508 -1100.14262 2788.00000
-115.07224 0.96813 -1098.13329 2790.00000
-114.73715 0.96137 -1096.12365 2792.00000
-114.41043 0.95477 -1094.11340 2794.00000
-114.09270 0.94831 -1092.10214 2796.00000
-113.78400 0.94199 -1090.08934 2798.00000
-113.48445 0.93581 -1088.07456 2800.00000
-113.19470 0.92975 -1086.05762 2802.00000
-112.91629 0.92379 -1084.03851 2804.00000
-112.65152 0.91788 -1082.01728 2806.00000
-112.40273 0.91197 -1079.99410 2808.00000
-112.17180 0.90603 -1077.96909 2810.00000
-111.95976 0.90003 -1075.94229 2812.00000
-111.76693 0.89398 -1073.91348 2814.00000
-111.59324 0.88786 -1071.88238 2816.00000
-111.43858 0.88168 -1069.84894 2818.00000
-111.30281 0.87546 -1067.81345 2820.00000
-111.18571 0.86919 -1065.77635 2822.00000
-111.08706 0.86288 -1063.73816 2824.00000
-111.00684 0.85652 -1061.69937 2826.00000
-110.94510 0.85011 -1059.66047 2828.00000
-110.90189 0.84365 -1057.62181 2830.00000
-110.87722 0.83715 -1055.58343 2832.00000
-110.87111 0.83060 -1053.54500 2834.00000
-110.88354 0.82401 -1051.50623 2836.00000
-110.91454 0.81737 -1049.46717 2838.00000
-110.96412 0.81068 -1047.42818 2840.00000
-111.03230 0.80395 -1045.38978 2842.00000
-111.11910 0.79717 -1043.35244 2844.00000
-111.22451 0.79035 -1041.31660 2846.00000
-111.34834 0.78349 -1039.28247 2848.00000
-111.48976 0.77660 -1037.24990 2850.00000
-111.64672 0.76973 -1035.21843 2852.00000
-111.81613 0.76293 -1033.18759 2854.00000
-111.99520 0.75625 -1031.15714 2856.00000
-112.18259 0.74974 -1029.12719 2858.00000
-112.37794 0.74339 -1027.09794 2860.00000
-112.58124 0.73721 -1025.06962 2862.00000
-112.79248 0.73120 -1023.04241 2864.00000
-113.01166 0.72535 -1021.01636 2866.00000
-113.23926 0.71967 -1018.99130 2868.00000
-113.47689 0.71412 -1016.96695 2870.00000
-113.72784 0.70865 -1014.94340 2872.00000
-113.99653 0.70314 -1012.92134 2874.00000
-114.28691 0.69750 -1010.90174 2876.00000
-114.60100 0.69171 -1008.88549 2878.00000
-114.93915 0.68575 -1006.87328 2880.00000
-115.30116 0.67962 -1004.86565 2882.00000
-115.68692 0.67332 -1002.86286 2884.00000
-116.09663 0.66686 -1000.86487 2886.00000
-116.53072 0.66020 -998.87165 2888.00000
-116.98959 0.65336 -996.88344 2890.00000
-117.47316 0.64636 -994.90070 2892.00000
-117.97990 0.63922 -992.92363 2894.00000
-118.50546 0.63201 -990.95170 2896.00000
-119.04240 0.62490 -988.98351 2898.00000
-119.58456 0.61801 -987.01766 2900.00000
-120.13165 0.61135 -985.05379 2902.00000
-120.68703 0.60483 -983.09213 2904.00000
-121.25345 0.59841 -981.13284 2906.00000
-121.83186 0.59206 -979.17613 2908.00000
-122.42224 0.58578 -977.22228 2910.00000
-123.02422 0.57957 -975.27159 2912.00000
-123.63747 0.57343 -973.32435 2914.00000
-124.26203 0.56738 -971.38093 2916.00000
-124.89861 0.56140 -969.44188 2918.00000
-125.54876 0.55547 -967.50790 2920.00000
-126.21426 0.54953 -965.57955 2922.00000
-126.89695 0.54354 -963.65716 2924.00000
-127.59934 0.53744 -961.74151 2926.00000
-128.32471 0.53118 -959.83409 2928.00000
-129.07660 0.52468 -957.93688 2930.00000
-129.85757 0.51786 -956.05173 2932.00000
-130.66850 0.51069 -954.17983 2934.00000
-131.50849 0.50322 -952.32142 2936.00000
-132.37425 0.49560 -950.47525 2938.00000
-133.25938 0.48812 -948.63814 2940.00000
-134.15571 0.48111 -946.80608 2942.00000
-135.05815 0.47465 -944.97690 2944.00000
-135.96637 0.46836 -943.15070 2946.00000
-136.88135 0.46147 -941.32812 2948.00000
-137.80244 0.45326 -939.50896 2950.00000
-138.72763 0.44352 -937.69270 2952.00000
-139.65552 0.43261 -935.87997 2954.00000
-140.58558 0.42127 -934.07326 2956.00000
-141.51776 0.41016 -932.27593 2958.00000
-142.45417 0.39958 -930.48929 2960.00000
-143.39979 0.38955 -928.71229 2962.00000
-144.35969 0.38001 -926.94415 2964.00000
-145.33610 0.37086 -925.18418 2966.00000
-146.32776 0.36206 -923.43113 2968.00000
-147.33045 0.35359 -921.68362 2970.00000
-148.33802 0.34551 -919.94193 2972.00000
-149.34328 0.33791 -918.20978 2974.00000
-150.34010 0.33097 -916.49324 2976.00000
-151.32753 0.32481 -914.79264 2978.00000
-152.30877 0.31949 -913.10013 2980.00000
-153.28420 0.31507 -911.40711 2982.00000
-154.24855 0.31167 -909.70666 2984.00000
-155.19245 0.30953 -907.99335 2986.00000
-156.10650 0.30911 -906.26354 2988.00000
-156.98543 0.31090 -904.51611 2990.00000
-157.83028 0.31511 -902.75260 2992.00000
-158.64852 0.32151 -900.97683 2994.00000
-159.45122 0.32962 -899.19352 2996.00000
-160.24693 0.33892 -897.40604 2998.00000
-161.03815 0.34909 -895.61535 3000.00000
-161.82129 0.35992 -893.82014 3002.00000
-162.58762 0.37123 -892.01738 3004.00000
-163.32625 0.38281 -890.20355 3006.00000
-164.02864 0.39452 -888.37626 3008.00000
-164.69165 0.40631 -886.53506 3010.00000
-165.31826 0.41824 -884.68137 3012.00000
-165.91703 0.43047 -882.81812 3014.00000
-166.49856 0.44315 -880.94889 3016.00000
-167.06927 0.45629 -879.07602 3018.00000
-167.62965 0.46978 -877.20004 3020.00000
-168.17604 0.48342 -875.32029 3022.00000
-168.70287 0.49705 -873.43566 3024.00000
-169.20547 0.51054 -871.54536 3026.00000
-169.68173 0.52385 -869.64924 3028.00000
-170.13194 0.53700 -867.74746 3030.00000
-170.55808 0.55001 -865.84027 3032.00000
-170.96278 0.56297 -863.92816 3034.00000
-171.34739 0.57590 -862.01167 3036.00000
-171.71104 0.58879 -860.09114 3038.00000
-172.05187 0.60161 -858.16690 3040.00000
-172.36888 0.61437 -856.23950 3042.00000
-172.66293 0.62712 -854.30967 3044.00000
-172.93752 0.63992 -852.37833 3046.00000
-173.19904 0.65289 -850.44628 3048.00000
-173.45439 0.66613 -848.51390 3050.00000
-173.70755 0.67965 -846.58116 3052.00000
-173.95966 0.69342 -844.64797 3054.00000
-174.20997 0.70743 -842.71421 3056.00000
-174.45602 0.72161 -840.77974 3058.00000
-174.69400 0.73590 -838.84433 3060.00000
-174.92054 0.75027 -836.90786 3062.00000
-175.13389 0.76482 -834.97023 3064.00000
-175.33352 0.78002 -833.03105 3066.00000
-175.51903 0.79672 -831.08969 3068.00000
-175.68877 0.81582 -829.14579 3070.00000
-175.83834 0.83750 -827.19975 3072.00000
-175.96041 0.86113 -825.25267 3074.00000
-176.04805 0.88562 -823.30572 3076.00000
-176.09949 0.91006 -821.35841 3078.00000
-176.12187 0.93415 -819.40506 3080.00000
-176.12842 0.95801 -817.43115 3082.00000
-176.12983 0.98173 -815.41710 3084.00000
-176.13191 1.00508 -813.35821 3086.00000
-176.13978 1.02750 -811.27147 3088.00000
-176.16433 1.04858 -809.17533 3090.00000
-176.22443 1.06819 -807.08136 3092.00000
-176.33725 1.08659 -804.99408 3094.00000
-176.50731 1.10414 -802.91061 3096.00000
-176.73614 1.12118 -800.82130 3098.00000
-177.03813 1.13789 -798.71456 3100.00000
-177.43298 1.15416 -796.58990 3102.00000
-177.92684 1.16988 -794.46181 3104.00000
-178.50708 1.18512 -792.34381 3106.00000
-179.16135 1.20002 -790.24370 3108.00000
-179.89395 1.21446 -788.16964 3110.00000
-180.71587 1.22814 -786.13214 3112.00000
-181.62928 1.24081 -784.13770 3114.00000
-182.62186 1.25230 -782.18240 3116.00000
-183.68139 1.26212 -780.25901 3118.00000
-184.80886 1.26937 -778.37028 3120.00000
-186.01231 1.27348 -776.52886 3122.00000
-187.29801 1.27462 -774.74896 3124.00000
-188.66290 1.27368 -773.03598 3126.00000
-190.09313 1.27161 -771.38430 3128.00000
-191.57544 1.26859 -769.78719 3130.00000
-193.11060 1.26377 -768.24637 3132.00000
-194.70518 1.25613 -766.76487 3134.00000
-196.35746 1.24557 -765.33769 3136.00000
-198.05909 1.23294 -763.95294 3138.00000
-199.80851 1.21910 -762.60580 3140.00000
-201.61350 1.20425 -761.31152 3142.00000
-203.47978 1.18818 -760.10004 3144.00000
-205.40454 1.17087 -758.99735 3146.00000
-207.37858 1.15243 -758.01424 3148.00000
-209.39248 1.13307 -757.14113 3150.00000
-211.43605 1.11306 -756.35328 3152.00000
-213.49470 1.09260 -755.62827 3154.00000
-215.54945 1.07173 -754.95488 3156.00000
-217.58095 1.05029 -754.32605 3158.00000
-219.58452 1.02797 -753.72953 3160.00000
-221.57043 1.00455 -753.15163 3162.00000
-223.54201 0.98030 -752.58480 3164.00000
-225.48472 0.95603 -752.02776 3166.00000
-227.37316 0.93251 -751.48282 3168.00000
-229.20035 0.90932 -750.94694 3170.00000
-230.98597 0.88559 -750.40591 3172.00000
-232.74723 0.86025 -749.84176 3174.00000
-234.48965 0.83314 -749.24155 3176.00000
-236.21256 0.80606 -748.60096 3178.00000
-237.91660 0.78063 -747.92195 3180.00000
-239.60612 0.75748 -747.21100 3182.00000
-241.28677 0.73686 -746.47761 3184.00000
-242.96273 0.71917 -745.72714 3186.00000
-244.63437 0.70442 -744.95471 3188.00000
-246.29741 0.69203 -744.14901 3190.00000
-247.94121 0.68173 -743.29526 3192.00000
-249.55118 0.67302 -742.37843 3194.00000
-251.11549 0.66560 -741.39117 3196.00000
-252.63241 0.65963 -740.34059 3198.00000
-254.11075 0.65498 -739.24329 3200.00000
-255.56052 0.65133 -738.11221 3202.00000
-256.98810 0.64848 -736.95411 3204.00000
-258.39834 0.64668 -735.77195 3206.00000
-259.79427 0.64615 -734.56433 3208.00000
-261.17383 0.64664 -733.32671 3210.00000
-262.52954 0.64752 -732.05499 3212.00000
-263.85335 0.64835 -730.74764 3214.00000
-265.13995 0.64880 -729.40614 3216.00000
-266.38714 0.64832 -728.03316 3218.00000
-267.59561 0.64615 -726.63025 3220.00000
-268.76674 0.64212 -725.19784 3222.00000
-269.89965 0.63782 -723.73611 3224.00000
-270.99196 0.63464 -722.24527 3226.00000
-272.04272 0.63395 -720.72602 3228.00000
-273.05398 0.63604 -719.18012 3230.00000
-274.02814 0.63973 -717.60975 3232.00000
-274.96569 0.64399 -716.01638 3234.00000
-275.86602 0.64827 -714.39989 3236.00000
-276.72895 0.65243 -712.75866 3238.00000
-277.55415 0.65648 -711.09193 3240.00000
-278.34019 0.66050 -709.40170 3242.00000
-279.08537 0.66456 -707.69071 3244.00000
-279.78868 0.66870 -705.95957 3246.00000
-280.45030 0.67294 -704.20470 3248.00000
-281.07123 0.67723 -702.41938 3250.00000
-281.65117 0.68141 -700.60161 3252.00000
-282.18922 0.68519 -698.75815 3254.00000
-282.68876 0.68827 -696.89811 3256.00000
-283.15979 0.69065 -695.02937 3258.00000
-283.61416 0.69261 -693.15682 3260.00000
-284.05785 0.69455 -691.28050 3262.00000
-284.48982 0.69682 -689.39539 3264.00000
-284.90422 0.69956 -687.49382 3266.00000
-285.29425 0.70278 -685.57302 3268.00000
-285.65629 0.70642 -683.63791 3270.00000
-285.99174 0.71044 -681.69457 3272.00000
-286.30600 0.71480 -679.74715 3274.00000
-286.60612 0.71947 -677.79796 3276.00000
-286.89869 0.72440 -675.84823 3278.00000
-287.18747 0.72954 -673.89841 3280.00000
-287.47289 0.73486 -671.94842 3282.00000
-287.75362 0.74030 -669.99791 3284.00000
-288.02773 0.74583 -668.04629 3286.00000
-288.29286 0.75142 -666.09299 3288.00000
-288.54642 0.75702 -664.13754 3290.00000
-288.78596 0.76258 -662.17976 3292.00000
-289.00977 0.76807 -660.21968 3294.00000
-289.21715 0.77348 -658.25754 3296.00000
-289.40821 0.77880 -656.29372 3298.00000
-289.58340 0.78405 -654.32861 3300.00000
-289.74320 0.78924 -652.36255 3302.00000
-289.88798 0.79436 -650.39588 3304.00000
-290.01802 0.79942 -648.42876 3306.00000
-290.13348 0.80442 -646.46103 3308.00000
-290.23451 0.80938 -644.49238 3310.00000
-290.32178 0.81434 -642.52275 3312.00000
-290.39669 0.81933 -640.55232 3314.00000
-290.46096 0.82438 -638.58135 3316.00000
-290.51586 0.82953 -636.61014 3318.00000
-290.56165 0.83474 -634.63891 3320.00000
-290.59740 0.84000 -632.66781 3322.00000
-290.62108 0.84525 -630.69677 3324.00000
-290.63024 0.85046 -628.72564 3326.00000
-290.62309 0.85559 -626.75418 3328.00000
-290.59878 0.86062 -624.78237 3330.00000
-290.55706 0.86555 -622.81042 3332.00000
-290.49790 0.87037 -620.83865 3334.00000
-290.42112 0.87509 -618.86744 3336.00000
-290.32609 0.87968 -616.89722 3338.00000
-290.21167 0.88413 -614.92839 3340.00000
-290.07674 0.88841 -612.96131 3342.00000
-289.92191 0.89253 -610.99608 3344.00000
-289.75119 0.89657 -609.03236 3346.00000
-289.57112 0.90067 -607.06949 3348.00000
-289.38701 0.90495 -605.10695 3350.00000
-289.20059 0.90942 -603.14460 3352.00000
-289.01007 0.91405 -601.18267 3354.00000
-288.81138 0.91877 -599.22164 3356.00000
-288.60043 0.92351 -597.26210 3358.00000
-288.37494 0.92820 -595.30450 3360.00000
-288.13489 0.93280 -593.34914 3362.00000
-287.88188 0.93727 -591.39609 3364.00000
-287.61784 0.94149 -589.44515 3366.00000
-287.34417 0.94532 -587.49587 3368.00000
-287.06152 0.94865 -585.54785 3370.00000
-286.76997 0.95140 -583.60096 3372.00000
-286.46945 0.95352 -581.65527 3374.00000
-286.15991 0.95503 -579.71096 3376.00000
-285.84161 0.95592 -577.76818 3378.00000
-285.51527 0.95621 -575.82702 3380.00000
-285.18199 0.95593 -573.88741 3382.00000
-284.84268 0.95510 -571.94920 3384.00000
-284.49780 0.95381 -570.01210 3386.00000
-284.14737 0.95216 -568.07569 3388.00000
-283.79120 0.95032 -566.13970 3390.00000
-283.42869 0.94842 -564.20418 3392.00000
-283.05869 0.94656 -562.26946 3394.00000
-282.67967 0.94476 -560.33605 3396.00000
-282.29033 0.94301 -558.40446 3398.00000
-281.89002 0.94129 -556.47505 3400.00000
-281.47857 0.93960 -554.54806 3402.00000
-281.05593 0.93792 -552.62357 3404.00000
-280.62166 0.93624 -550.70157 3406.00000
-280.17444 0.93454 -548.78213 3408.00000
-279.71221 0.93279 -546.86565 3410.00000
-279.23286 0.93092 -544.95282 3412.00000
-278.73483 0.92892 -543.04438 3414.00000
-278.21707 0.92675 -541.14103 3416.00000
-277.67892 0.92440 -539.24341 3418.00000
-277.11998 0.92187 -537.35206 3420.00000
-276.54031 0.91914 -535.46735 3422.00000
-275.94058 0.91624 -533.58922 3424.00000
-275.32245 0.91319 -531.71707 3426.00000
-274.68820 0.91005 -529.85001 3428.00000
-274.03993 0.90686 -527.98738 3430.00000
-273.37947 0.90365 -526.12872 3432.00000
-272.70861 0.90047 -524.27365 3434.00000
-272.02868 0.89735 -522.42200 3436.00000
-271.34026 0.89428 -520.57378 3438.00000
-270.64365 0.89128 -518.72907 3440.00000
-269.93920 0.88836 -516.88789 3442.00000
-269.22713 0.88552 -515.05023 3444.00000
-268.50707 0.88275 -513.21618 3446.00000
-267.77756 0.88001 -511.38607 3448.00000
-267.03607 0.87725 -509.56064 3450.00000
-266.28009 0.87437 -507.74094 3452.00000
-265.50872 0.87132 -505.92763 3454.00000
-264.72336 0.86812 -504.12058 3456.00000
-263.92715 0.86501 -502.31884 3458.00000
-263.12307 0.86248 -500.52094 3460.00000
-262.31224 0.86136 -498.72488 3462.00000
-261.49402 0.86247 -496.92755 3464.00000
-260.66729 0.86603 -495.12515 3466.00000
-259.83279 0.87166 -493.31644 3468.00000
-258.99364 0.87849 -491.50363 3470.00000
-258.15292 0.88573 -489.68911 3472.00000
-257.31229 0.89300 -487.87422 3474.00000
-256.47231 0.90019 -486.05943 3476.00000
-255.63297 0.90729 -484.24478 3478.00000
-254.79412 0.91436 -482.43014 3480.00000
-253.95560 0.92142 -480.61533 3482.00000
-253.11728 0.92847 -478.80012 3484.00000
-252.27904 0.93552 -476.98426 3486.00000
-251.44087 0.94257 -475.16770 3488.00000
-250.60290 0.94961 -473.35067 3490.00000
-249.76520 0.95667 -471.53341 3492.00000
-248.92781 0.96379 -469.71603 3494.00000
-248.09076 0.97099 -467.89858 3496.00000
-247.25408 0.97816 -466.08109 3498.00000
-246.41778 0.98487 -464.26346 3500.00000
-245.58175 0.99031 -462.44536 3502.00000
-244.74570 0.99356 -460.62608 3504.00000
-243.90922 0.99435 -458.80473 3506.00000
-243.07216 0.99308 -456.98116 3508.00000
-242.23482 0.99067 -455.15619 3510.00000
-241.39747 0.98798 -453.33060 3512.00000
-240.56027 0.98541 -451.50482 3514.00000
-239.72329 0.98305 -449.67898 3516.00000
-238.88658 0.98081 -447.85303 3518.00000
-238.05027 0.97865 -446.02691 3520.00000
-237.21461 0.97652 -444.20049 3522.00000
-236.38006 0.97443 -442.37362 3524.00000
-235.54734 0.97235 -440.54603 3526.00000
-234.71729 0.97029 -438.71735 3528.00000
-233.89135 0.96821 -436.88681 3530.00000
-233.07224 0.96606 -435.05319 3532.00000
-232.26380 0.96373 -433.21488 3534.00000
-231.46923 0.96114 -431.37066 3536.00000
-230.68931 0.95828 -429.52037 3538.00000
-229.92220 0.95522 -427.66469 3540.00000
-229.16457 0.95204 -425.80427 3542.00000
-228.41259 0.94878 -423.93881 3544.00000
-227.66299 0.94548 -422.06722 3546.00000
-226.91443 0.94218 -420.18948 3548.00000
-226.16763 0.93892 -418.30738 3550.00000
-225.42418 0.93576 -416.42243 3552.00000
-224.68559 0.93271 -414.53520 3554.00000
-223.95268 0.92980 -412.64579 3556.00000
-223.22560 0.92703 -410.75425 3558.00000
-222.50439 0.92440 -408.86052 3560.00000
-221.78982 0.92190 -406.96412 3562.00000
-221.08429 0.91947 -405.06365 3564.00000
-220.39204 0.91701 -403.15681 3566.00000
-219.71769 0.91444 -401.24168 3568.00000
-219.06422 0.91168 -399.31786 3570.00000
-218.43217 0.90873 -397.38606 3572.00000
-217.81986 0.90564 -395.44758 3574.00000
-217.22415 0.90247 -393.50392 3576.00000
-216.64142 0.89929 -391.55663 3578.00000
-216.06760 0.89621 -389.60724 3580.00000
-215.49941 0.89328 -387.65690 3582.00000
-214.93722 0.89050 -385.70555 3584.00000
-214.38533 0.88776 -383.75179 3586.00000
-213.84879 0.88498 -381.79384 3588.00000
-213.32996 0.88208 -379.83083 3590.00000
-212.82751 0.87909 -377.86313 3592.00000
-212.33709 0.87611 -375.89213 3594.00000
-211.85388 0.87326 -373.91930 3596.00000
-211.37497 0.87066 -371.94557 3598.00000
-210.89938 0.86841 -369.97128 3600.00000
-210.42735 0.86666 -367.99644 3602.00000
-209.95987 0.86553 -366.02065 3604.00000
-209.49852 0.86507 -364.04318 3606.00000
-209.04547 0.86528 -362.06310 3608.00000
-208.60320 0.86613 -360.07970 3610.00000
-208.17423 0.86757 -358.09259 3612.00000
-207.76086 0.86955 -356.10158 3614.00000
-207.36470 0.87204 -354.10674 3616.00000
-206.98658 0.87498 -352.10834 3618.00000
-206.62674 0.87836 -350.10675 3620.00000
-206.28522 0.88220 -348.10228 3622.00000
-205.96198 0.88650 -346.09512 3624.00000
-205.65713 0.89128 -344.08519 3626.00000
-205.37094 0.89653 -342.07224 3628.00000
-205.10372 0.90224 -340.05624 3630.00000
-204.85564 0.90841 -338.03737 3632.00000
-204.62676 0.91503 -336.01599 3634.00000
-204.41715 0.92210 -333.99254 3636.00000
-204.22690 0.92962 -331.96742 3638.00000
-204.05616 0.93759 -329.94101 3640.00000
-203.90485 0.94601 -327.91367 3642.00000
-203.77200 0.95491 -325.88558 3644.00000
-203.65487 0.96436 -323.85681 3646.00000
-203.54862 0.97446 -321.82742 3648.00000
-203.44807 0.98528 -319.79761 3650.00000
-203.35014 0.99690 -317.76761 3652.00000
-203.25457 1.00931 -315.73754 3654.00000
-203.16350 1.02241 -313.70742 3656.00000
-203.08065 1.03603 -311.67726 3658.00000
-203.00973 1.04995 -309.64711 3660.00000
-202.95312 1.06400 -307.61707 3662.00000
-202.91175 1.07804 -305.58704 3664.00000
-202.88573 1.09205 -303.55674 3666.00000
-202.87486 1.10607 -301.52588 3668.00000
-202.87893 1.12012 -299.49452 3670.00000
-202.89781 1.13422 -297.46288 3672.00000
-202.93144 1.14821 -295.43118 3674.00000
-202.97987 1.16164 -293.39965 3676.00000
-203.04316 1.17372 -291.36854 3678.00000
-203.12116 1.18363 -289.33847 3680.00000
-203.21295 1.19115 -287.31089 3682.00000
-203.31610 1.19676 -285.28839 3684.00000
-203.42654 1.20134 -283.27381 3686.00000
-203.54014 1.20570 -281.26725 3688.00000
-203.65432 1.21017 -279.26554 3690.00000
-203.76804 1.21481 -277.26558 3692.00000
-203.88109 1.21953 -275.26564 3694.00000
-203.99360 1.22421 -273.26506 3696.00000
-204.10572 1.22870 -271.26379 3698.00000
-204.21754 1.23288 -269.26231 3700.00000
-204.32907 1.23663 -267.26218 3702.00000
-204.44013 1.23989 -265.26636 3704.00000
-204.55031 1.24259 -263.27837 3706.00000
-204.65894 1.24471 -261.29869 3708.00000
-204.76507 1.24622 -259.32388 3710.00000
-204.86745 1.24713 -257.35049 3712.00000
-204.96459 1.24759 -255.37667 3714.00000
-205.05430 1.24807 -253.40175 3716.00000
-205.13357 1.24937 -251.42574 3718.00000
-205.19911 1.25234 -249.44902 3720.00000
-205.24862 1.25723 -247.47241 3722.00000
-205.28104 1.26361 -245.49728 3724.00000
-205.29631 1.27060 -243.52510 3726.00000
-205.29513 1.27738 -241.55606 3728.00000
-205.27887 1.28358 -239.58883 3730.00000
-205.24941 1.28916 -237.62219 3732.00000
-205.20829 1.29417 -235.65561 3734.00000
-205.15628 1.29868 -233.68908 3736.00000
-205.09363 1.30273 -231.72285 3738.00000
-205.02031 1.30634 -229.75721 3740.00000
-204.93624 1.30952 -227.79242 3742.00000
-204.84138 1.31226 -225.82860 3744.00000
-204.73572 1.31453 -223.86562 3746.00000
-204.61925 1.31631 -221.90316 3748.00000
-204.49193 1.31761 -219.94098 3750.00000
-204.35365 1.31846 -217.97907 3752.00000
-204.20430 1.31894 -216.01756 3754.00000
-204.04380 1.31916 -214.05670 3756.00000
-203.87213 1.31925 -212.09674 3758.00000
-203.68927 1.31929 -210.13795 3760.00000
-203.49524 1.31934 -208.18062 3762.00000
-203.29001 1.31940 -206.22492 3764.00000
-203.07353 1.31949 -204.27090 3766.00000
-202.84567 1.31965 -202.31834 3768.00000
-202.60613 1.31987 -200.36694 3770.00000
-202.35452 1.32011 -198.41662 3772.00000
-202.09038 1.32037 -196.46755 3774.00000
-201.81338 1.32062 -194.52001 3776.00000
-201.52321 1.32085 -192.57435 3778.00000
-201.21916 1.32106 -190.63100 3780.00000
-200.89981 1.32122 -188.69049 3782.00000
-200.56326 1.32128 -186.75324 3784.00000
-200.20791 1.32121 -184.81946 3786.00000
-199.83289 1.32100 -182.88913 3788.00000
-199.43787 1.32067 -180.96231 3790.00000
-199.02285 1.32023 -179.03927 3792.00000
-198.58794 1.31971 -177.12038 3794.00000
-198.13320 1.31909 -175.20607 3796.00000
-197.65860 1.31838 -173.29679 3798.00000
-197.16406 1.31760 -171.39300 3800.00000
-196.64970 1.31680 -169.49508 3802.00000
-196.11637 1.31598 -167.60306 3804.00000
-195.56649 1.31519 -165.71632 3806.00000
-195.00430 1.31446 -163.83357 3808.00000
-194.43464 1.31378 -161.95330 3810.00000
-193.86125 1.31319 -160.07446 3812.00000
-193.28627 1.31271 -158.19647 3814.00000
-192.71040 1.31233 -156.31922 3816.00000
-192.13294 1.31207 -154.44297 3818.00000
-191.55160 1.31189 -152.56851 3820.00000
-190.96276 1.31178 -150.69702 3822.00000
-190.36301 1.31168 -148.82955 3824.00000
-189.75043 1.31156 -146.96654 3826.00000
-189.12422 1.31133 -145.10798 3828.00000
-188.48420 1.31088 -143.25380 3830.00000
-187.83029 1.31008 -141.40411 3832.00000
-187.16254 1.30882 -139.55913 3834.00000
-186.48145 1.30706 -137.71901 3836.00000
-185.78880 1.30478 -135.88342 3838.00000
-185.08794 1.30202 -134.05138 3840.00000
-184.38229 1.29885 -132.22178 3842.00000
-183.67303 1.29526 -130.39422 3844.00000
-182.95881 1.29124 -128.56904 3846.00000
-182.23724 1.28677 -126.74679 3848.00000
-181.50661 1.28184 -124.92780 3850.00000
-180.76619 1.27643 -123.11228 3852.00000
-180.01589 1.27054 -121.30041 3854.00000
-179.25581 1.26418 -119.49239 3856.00000
-178.48609 1.25734 -117.68843 3858.00000
-177.70681 1.25002 -115.88877 3860.00000
-176.91793 1.24223 -114.09350 3862.00000
-176.11931 1.23395 -112.30240 3864.00000
-175.31082 1.22520 -110.51488 3866.00000
-174.49274 1.21598 -108.73044 3868.00000
-173.66589 1.20629 -106.94892 3870.00000
-172.83094 1.19614 -105.17048 3872.00000
-171.98776 1.18553 -103.39561 3874.00000
-171.13547 1.17444 -101.62502 3876.00000
-170.27324 1.16287 -99.85942 3878.00000
-169.40071 1.15082 -98.09924 3880.00000
-168.51786 1.13830 -96.34453 3882.00000
-167.62468 1.12534 -94.59505 3884.00000
-166.72093 1.11195 -92.85044 3886.00000
-165.80593 1.09813 -91.11065 3888.00000
-164.87817 1.08378 -89.37653 3890.00000
-163.93492 1.06879 -87.65008 3892.00000
-162.97271 1.05317 -85.93390 3894.00000
-161.98887 1.03716 -84.23031 3896.00000
-160.98270 1.02133 -82.54038 3898.00000
-159.95614 1.00654 -80.86317 3900.00000
-158.91328 0.99348 -79.19550 3902.00000
-157.85778 0.98223 -77.53309 3904.00000
-156.79040 0.97227 -75.87267 3906.00000
-155.71057 0.96271 -74.21385 3908.00000
-154.61903 0.95297 -72.55838 3910.00000
-153.51814 0.94282 -70.90714 3912.00000
-152.41141 0.93237 -69.25931 3914.00000
-151.30209 0.92174 -67.61345 3916.00000
-150.19218 0.91103 -65.96857 3918.00000
-149.08245 0.90026 -64.32424 3920.00000
-147.97284 0.88941 -62.67992 3922.00000
-146.86231 0.87846 -61.03385 3924.00000
-145.74849 0.86738 -59.38241 3926.00000
-144.62833 0.85619 -57.72102 3928.00000
-143.50120 0.84497 -56.04880 3930.00000
-142.36971 0.83387 -54.36967 3932.00000
-141.23644 0.82296 -52.68768 3934.00000
-140.10282 0.81212 -51.00495 3936.00000
-138.96958 0.80078 -49.32197 3938.00000
-137.83776 0.78807 -47.63804 3940.00000
-136.70941 0.77324 -45.95171 3942.00000
-135.58738 0.75621 -44.26113 3944.00000
-134.47460 0.73750 -42.56463 3946.00000
-133.37367 0.71788 -40.86083 3948.00000
-132.28619 0.69797 -39.14859 3950.00000
-131.21281 0.67798 -37.42717 3952.00000
-130.15367 0.65796 -35.69632 3954.00000
-129.10893 0.63790 -33.95609 3956.00000
-128.07913 0.61776 -32.20647 3958.00000
-127.06532 0.59749 -30.44729 3960.00000
-126.06886 0.57707 -28.67822 3962.00000
-125.09136 0.55649 -26.89884 3964.00000
-124.13464 0.53572 -25.10852 3966.00000
-123.20019 0.51470 -23.30668 3968.00000
-122.28822 0.49338 -21.49328 3970.00000
-121.39658 0.47177 -19.66949 3972.00000
-120.52011 0.45000 -17.83812 3974.00000
-119.65215 0.42831 -16.00280 3976.00000
-118.78786 0.40678 -14.16614 3978.00000
-117.92553 0.38547 -12.32910 3980.00000
-117.06591 0.36435 -10.49138 3982.00000
-116.21123 0.34338 -8.65201 3984.00000
-115.36380 0.32249 -6.80993 3986.00000
-114.52486 0.30164 -4.96443 3988.00000
-113.69466 0.28083 -3.11509 3990.00000
-112.87307 0.26006 -1.26173 3992.00000
-112.06007 0.23934 0.59569 3994.00000
-111.25617 0.21864 2.45729 3996.00000
-110.46266 0.19795 4.32343 3998.00000
-109.68151 0.17723 6.19468 4000.00000
-108.91478 0.15643 8.07162 4002.00000
-108.16388 0.13553 9.95453 4004.00000
-107.42948 0.11452 11.84356 4006.00000
-106.71177 0.09339 13.73881 4008.00000
-106.01050 0.07214 15.64031 4010.00000
-105.32481 0.05078 17.54776 4012.00000
-104.65295 0.02936 19.46035 4014.00000
-103.99254 0.00793 21.37697 4016.00000
-103.34114 -0.01346 23.29648 4018.00000
-102.69607 -0.03474 25.21773 4020.00000
-102.05450 -0.05586 27.13960 4022.00000
-101.41445 -0.07676 29.06138 4024.00000
-100.77498 -0.09743 30.98284 4026.00000
-100.13598 -0.11788 32.90422 4028.00000
-99.49806 -0.13812 34.82616 4030.00000
-98.86271 -0.15819 36.74949 4032.00000
-98.23202 -0.17813 38.67498 4034.00000
-97.60783 -0.19797 40.60315 4036.00000
-96.99149 -0.21775 42.53426 4038.00000
-96.38375 -0.23748 44.46836 4040.00000
-95.78485 -0.25716 46.40532 4042.00000
-95.19475 -0.27678 48.34497 4044.00000
-94.61371 -0.29636 50.28734 4046.00000
-94.04306 -0.31591 52.23290 4048.00000
-93.48603 -0.33550 54.18271 4050.00000
-92.94724 -0.35523 56.13806 4052.00000
-92.43057 -0.37518 58.09974 4054.00000
-91.93815 -0.39543 60.06792 4056.00000
-91.47091 -0.41599 62.04231 4058.00000
-91.02902 -0.43686 64.02244 4060.00000
-90.61179 -0.45798 66.00770 4062.00000
-90.21704 -0.47932 67.99726 4064.00000
-89.84083 -0.50077 69.99007 4066.00000
-89.47888 -0.52230 71.98528 4068.00000
-89.12781 -0.54383 73.98239 4070.00000
-88.78484 -0.56530 75.98092 4072.00000
-88.44726 -0.58664 77.98029 4074.00000
-88.11322 -0.60776 79.98011 4076.00000
-87.78198 -0.62855 81.98019 4078.00000
-87.45409 -0.64883 83.98055 4080.00000
-87.13180 -0.66847 85.98139 4082.00000
-86.81895 -0.68745 87.98299 4084.00000
-86.51880 -0.70576 89.98528 4086.00000
-86.23180 -0.72342 91.98769 4088.00000
-85.95612 -0.74041 93.98998 4090.00000
-85.68921 -0.75672 95.99253 4092.00000
-85.42859 -0.77231 97.99564 4094.00000
-85.17222 -0.78715 99.99934 4096.00000
-84.91897 -0.80122 102.00349 4098.00000
-84.66844 -0.81452 104.00797 4100.00000
-84.42071 -0.82704 106.01270 4102.00000
-84.17627 -0.83879 108.01768 4104.00000
-83.93619 -0.84979 110.02301 4106.00000
-83.70214 -0.86007 112.02895 4108.00000
-83.47604 -0.86967 114.03583 4110.00000
-83.25967 -0.87864 116.04395 4112.00000
-83.05427 -0.88699 118.05341 4114.00000
-82.86040 -0.89474 120.06418 4116.00000
-82.67805 -0.90188 122.07609 4118.00000
-82.50652 -0.90839 124.08890 4120.00000
-82.34405 -0.91421 126.10236 4122.00000
-82.18793 -0.91929 128.11625 4124.00000
-82.03562 -0.92364 130.13046 4126.00000
-81.88605 -0.92740 132.14505 4128.00000
-81.73991 -0.93079 134.16026 4130.00000
-81.59915 -0.93402 136.17629 4132.00000
-81.46619 -0.93724 138.19324 4134.00000
-81.34321 -0.94053 140.21111 4136.00000
-81.23190 -0.94391 142.22984 4138.00000
-81.13337 -0.94737 144.24923 4140.00000
-81.04835 -0.95091 146.26911 4142.00000
-80.97730 -0.95456 148.28936 4144.00000
-80.92048 -0.95832 150.30992 4146.00000
-80.87811 -0.96220 152.33083 4148.00000
-80.85040 -0.96618 154.35209 4150.00000
-80.83757 -0.97026 156.37365 4152.00000
-80.83981 -0.97444 158.39541 4154.00000
-80.85727 -0.97876 160.41723 4156.00000
-80.89010 -0.98327 162.43892 4158.00000
-80.93832 -0.98798 164.46026 4160.00000
-81.00177 -0.99285 166.48102 4162.00000
-81.07993 -0.99782 168.50102 4164.00000
-81.17209 -1.00290 170.52011 4166.00000
-81.27733 -1.00807 172.53828 4168.00000
-81.39391 -1.01328 174.55567 4170.00000
-81.51878 -1.01844 176.57240 4172.00000
-81.64823 -1.02352 178.58864 4174.00000
-81.77970 -1.02849 180.60447 4176.00000
-81.91256 -1.03334 182.61994 4178.00000
-82.04772 -1.03807 184.63500 4180.00000
-82.18659 -1.04271 186.64949 4182.00000
-82.33019 -1.04729 188.66326 4184.00000
-82.47904 -1.05182 190.67628 4186.00000
-82.63325 -1.05631 192.68868 4188.00000
-82.79280 -1.06074 194.70064 4190.00000
-82.95756 -1.06501 196.71226 4192.00000
-83.12739 -1.06892 198.72357 4194.00000
-83.30225 -1.07223 200.73449 4196.00000
-83.48212 -1.07470 202.74497 4198.00000
-83.66704 -1.07617 204.75493 4200.00000
-83.85706 -1.07656 206.76429 4202.00000
-84.05230 -1.07586 208.77303 4204.00000
-84.25289 -1.07408 210.78111 4206.00000
-84.45895 -1.07124 212.78859 4208.00000
-84.67068 -1.06734 214.79555 4210.00000
-84.88838 -1.06240 216.80206 4212.00000
-85.11237 -1.05642 218.80813 4214.00000
-85.34293 -1.04940 220.81370 4216.00000
-85.58031 -1.04135 222.81866 4218.00000
-85.82481 -1.03227 224.82289 4220.00000
-86.07659 -1.02218 226.82620 4222.00000
-86.33580 -1.01107 228.82843 4224.00000
-86.60261 -0.99895 230.82949 4226.00000
-86.87737 -0.98582 232.82940 4228.00000
-87.16057 -0.97170 234.82821 4230.00000
-87.45259 -0.95659 236.82598 4232.00000
-87.75355 -0.94050 238.82261 4234.00000
-88.06340 -0.92340 240.81808 4236.00000
-88.38201 -0.90529 242.81232 4238.00000
-88.70928 -0.88611 244.80524 4240.00000
-89.04518 -0.86586 246.79674 4242.00000
-89.38969 -0.84468 248.78666 4244.00000
-89.74283 -0.82295 250.77491 4246.00000
-90.10465 -0.80149 252.76159 4248.00000
-90.47524 -0.78138 254.74688 4250.00000
-90.85462 -0.76353 256.73081 4252.00000
-91.24275 -0.74812 258.71332 4254.00000
-91.63951 -0.73461 260.69433 4256.00000
-92.04473 -0.72212 262.67374 4258.00000
-92.45833 -0.70994 264.65144 4260.00000
-92.88030 -0.69777 266.62732 4262.00000
-93.31089 -0.68552 268.60122 4264.00000
-93.75061 -0.67318 270.57293 4266.00000
-94.20014 -0.66078 272.54227 4268.00000
-94.65974 -0.64839 274.50935 4270.00000
-95.12909 -0.63604 276.47431 4272.00000
-95.60827 -0.62373 278.43716 4274.00000
-96.09908 -0.61148 280.39768 4276.00000
-96.60487 -0.59924 282.35536 4278.00000
-97.12922 -0.58698 284.30941 4280.00000
-97.67391 -0.57460 286.25814 4282.00000
-98.23706 -0.56205 288.19727 4284.00000
-98.81087 -0.54945 290.11834 4286.00000
-99.38439 -0.53700 292.01084 4288.00000
-99.95239 -0.52470 293.87472 4290.00000
-100.51628 -0.51214 295.72374 4292.00000
-101.07510 -0.49845 297.57109 4294.00000
-101.61839 -0.48265 299.42468 4296.00000
-102.12378 -0.46434 301.28815 4298.00000
-102.56110 -0.44397 303.16002 4300.00000
-102.90607 -0.42267 305.03107 4302.00000
-103.15588 -0.40133 306.88636 4304.00000
-103.32826 -0.38008 308.72018 4306.00000
-103.43922 -0.35871 310.54092 4308.00000
-103.49368 -0.33708 312.35608 4310.00000
-103.48772 -0.31524 314.16680 4312.00000
-103.40929 -0.29346 315.97102 4314.00000
-103.25011 -0.27194 317.76760 4316.00000
-103.01336 -0.25060 319.55585 4318.00000
-102.71024 -0.22919 321.33359 4320.00000
-102.35027 -0.20753 323.09838 4322.00000
-101.93337 -0.18563 324.84908 4324.00000
-101.45507 -0.16353 326.58655 4326.00000
-100.91799 -0.14111 328.31201 4328.00000
-100.33050 -0.11814 330.02527 4330.00000
-99.69523 -0.09461 331.72310 4332.00000
-99.00343 -0.07077 333.39913 4334.00000
-98.23933 -0.04710 335.04539 4336.00000
-97.39122 -0.02402 336.65538 4338.00000
-96.45818 -0.00170 338.22941 4340.00000
-95.44776 0.02002 339.77548 4342.00000
-94.37167 0.04131 341.29953 4344.00000
-93.24611 0.06235 342.79988 4346.00000
-92.09081 0.08361 344.27611 4348.00000
-90.92227 0.10592 345.73147 4350.00000
-89.74286 0.13016 347.16870 4352.00000
-88.54540 0.15687 348.58904 4354.00000
-87.32345 0.18596 349.99112 4356.00000
-86.07123 0.21671 351.36959 4358.00000
-84.77981 0.24789 352.71541 4360.00000
-83.43686 0.27858 354.02028 4362.00000
-82.03202 0.30842 355.28181 4364.00000
-80.56604 0.33746 356.50082 4366.00000
-79.05373 0.36584 357.68101 4368.00000
-77.51449 0.39374 358.83449 4370.00000
-75.96031 0.42125 359.97732 4372.00000
-74.38828 0.44832 361.12301 4374.00000
-72.78165 0.47479 362.27580 4376.00000
-71.12645 0.50047 363.42302 4378.00000
-69.42426 0.52513 364.54376 4380.00000
-67.68608 0.54891 365.63103 4382.00000
-65.92893 0.57209 366.69833 4384.00000
-64.17248 0.59497 367.77324 4386.00000
-62.43286 0.61761 368.88520 4388.00000
-60.71941 0.63996 370.05525 4390.00000
-59.03462 0.66188 371.28580 4392.00000
-57.37756 0.68334 372.56597 4394.00000
-55.75183 0.70429 373.89063 4396.00000
-54.16493 0.72447 375.26300 4398.00000
-52.61807 0.74323 376.68178 4400.00000
-51.11009 0.75956 378.14304 4402.00000
-49.64255 0.77258 379.64502 4404.00000
-48.21522 0.78209 381.18455 4406.00000
-46.82376 0.78872 382.75633 4408.00000
-45.46066 0.79359 384.35423 4410.00000
-44.12031 0.79756 385.97372 4412.00000
-42.80112 0.80104 387.61245 4414.00000
-41.50355 0.80411 389.26931 4416.00000
-40.22874 0.80674 390.94442 4418.00000
-38.97904 0.80884 392.63978 4420.00000
-37.75995 0.81034 394.35946 4422.00000
-36.58154 0.81113 396.10884 4424.00000
-35.45427 0.81109 397.89251 4426.00000
-34.38320 0.81014 399.71203 4428.00000
-33.36609 0.80828 401.56560 4430.00000
-32.39473 0.80561 403.44688 4432.00000
-31.45954 0.80230 405.34653 4434.00000
-30.55775 0.79842 407.25892 4436.00000
-29.69499 0.79390 409.18463 4438.00000
-28.87829 0.78863 411.12729 4440.00000
-28.11115 0.78246 413.08968 4442.00000
-27.39300 0.77531 415.07086 4444.00000
-26.71925 0.76725 417.06478 4446.00000
-26.08139 0.75860 419.06051 4448.00000
-25.46992 0.74980 421.04643 4450.00000
-24.87946 0.74103 423.02039 4452.00000
-24.31071 0.73212 424.99097 4454.00000
-23.76822 0.72287 426.96691 4456.00000
-23.25527 0.71320 428.95244 4458.00000
-22.77122 0.70324 430.94780 4460.00000
-22.31119 0.69331 432.95092 4462.00000
-21.86789 0.68381 434.95837 4464.00000
-21.43563 0.67506 436.96552 4466.00000
-21.01215 0.66716 438.96579 4468.00000
-20.59734 0.65990 440.95172 4470.00000
-20.19020 0.65270 442.92198 4472.00000
-19.78760 0.64488 444.88292 4474.00000
-19.38655 0.63606 446.84067 4476.00000
-18.98567 0.62624 448.79831 4478.00000
-18.58468 0.61564 450.75671 4480.00000
-18.18363 0.60445 452.71573 4482.00000
-17.78251 0.59289 454.67500 4484.00000
-17.38125 0.58124 456.63431 4486.00000
-16.97986 0.56982 458.59355 4488.00000
-16.57842 0.55880 460.55272 4490.00000
-16.17705 0.54817 462.51184 4492.00000
-15.77587 0.53800 464.47097 4494.00000
-15.37487 0.52855 466.43018 4496.00000
-14.97392 0.52003 468.38949 4498.00000
-14.57278 0.51257 470.34886 4500.00000
-14.17123 0.50607 472.30816 4502.00000
-13.76918 0.50050 474.26720 4504.00000
-13.36706 0.49608 476.22577 4506.00000
-12.96660 0.49295 478.18385 4508.00000
-12.57145 0.49108 480.14203 4510.00000
-12.18676 0.49027 482.10243 4512.00000
-11.81674 0.49028 484.06992 4514.00000
-11.46238 0.49116 486.05291 4516.00000
-11.12130 0.49313 488.06091 4518.00000
-10.78995 0.49647 490.09510 4520.00000
-10.46724 0.50126 492.14583 4522.00000
-10.15852 0.50719 494.20393 4524.00000
-9.87598 0.51374 496.26538 4526.00000
-9.63273 0.52034 498.33041 4528.00000
-9.43621 0.52677 500.40190 4530.00000
-9.28670 0.53297 502.48372 4532.00000
-9.18167 0.53885 504.57696 4534.00000
-9.12095 0.54425 506.67782 4536.00000
-9.10938 0.54879 508.78098 4538.00000
-9.15650 0.55225 510.88171 4540.00000
-9.27166 0.55447 512.97671 4542.00000
-9.45753 0.55551 515.06452 4544.00000
