VERSION 0.7
FIELDS x y z time arclength
SIZE 4 4 4 4 4
TYPE F F F F F
COUNT 1 1 1 1 1
WIDTH 1053
HEIGHT 1
VIEWPOINT 0.000 0.000 0.000 1.000 -54.377 0.442 8.315
POINTS 1053
DATA ascii
-80.3701 0.1486 -103.8636 17.8318 1001.5955
-80.9368 0.1442 -105.0725 17.8694 1002.9306
-81.9172 0.1341 -107.0217 17.9069 1005.1125
-82.5624 0.1274 -108.2145 17.9444 1006.4688
-83.4266 0.1221 -109.7107 17.9820 1008.1967
-84.0152 0.1224 -110.6664 18.0195 1009.3192
-85.0524 0.1307 -112.2548 18.0571 1011.2163
-85.6821 0.1403 -113.1704 18.0946 1012.3275
-86.6712 0.1615 -114.5447 18.1321 1014.0210
-87.5124 0.1824 -115.6601 18.1697 1015.4182
-88.7041 0.2158 -117.1639 18.2072 1017.3373
-89.4095 0.2378 -118.0150 18.2448 1018.4429
-90.7432 0.2838 -119.5478 18.2823 1020.4754
-91.5286 0.3131 -120.4103 18.3198 1021.6422
-92.8032 0.3613 -121.7639 18.3574 1023.5021
-93.8870 0.4013 -122.8624 18.3949 1025.0459
-94.9016 0.4360 -123.8506 18.4325 1026.4626
-96.0529 0.4713 -124.9273 18.4700 1028.0393
-97.4820 0.5105 -126.2017 18.5075 1029.9546
-98.5101 0.5353 -127.0764 18.5451 1031.3047
-99.9105 0.5654 -128.2163 18.5826 1033.1107
-100.7820 0.5822 -128.8957 18.6202 1034.2158
-102.3695 0.6089 -130.0831 18.6577 1036.1985
-103.5190 0.6259 -130.9063 18.6952 1037.6125
-105.0540 0.6458 -131.9646 18.7328 1039.4772
-105.9980 0.6566 -132.5908 18.7703 1040.6100
-107.6680 0.6735 -133.6599 18.8079 1042.5930
-108.6639 0.6823 -134.2781 18.8454 1043.7653
-110.4932 0.6966 -135.3883 18.8830 1045.9050
-111.5102 0.7039 -135.9933 18.9205 1047.0885
-113.3122 0.7153 -137.0441 18.9580 1049.1744
-114.5684 0.7228 -137.7632 18.9956 1050.6219
-116.2719 0.7324 -138.7323 19.0331 1052.5819
-117.3073 0.7382 -139.3212 19.0707 1053.7731
-119.1641 0.7483 -140.3828 19.1082 1055.9119
-120.2671 0.7544 -141.0183 19.1457 1057.1849
-122.1700 0.7704 -142.1393 19.1833 1059.3936
-123.3055 0.7793 -142.8284 19.2208 1060.7218
-125.0364 0.7895 -143.9077 19.2584 1062.7617
-126.4702 0.7945 -144.8346 19.2959 1064.4690
-127.7119 0.7974 -145.6648 19.3334 1065.9626
-129.0740 0.8013 -146.6067 19.3710 1067.6188
-130.8919 0.8066 -147.9059 19.4085 1069.8533
-131.9520 0.8086 -148.6871 19.4461 1071.1700
-133.5757 0.8103 -149.9266 19.4836 1073.2129
-134.9301 0.8146 -151.0043 19.5211 1074.9437
-136.8169 0.8246 -152.5682 19.5587 1077.3945
-138.0266 0.8322 -153.6095 19.5962 1078.9907
-139.2957 0.8420 -154.7371 19.6338 1080.6884
-140.8096 0.8557 -156.1334 19.6713 1082.7479
-142.2380 0.8691 -157.5047 19.7088 1084.7281
-143.6009 0.8811 -158.8642 19.7464 1086.6533
-144.7780 0.8907 -160.0814 19.7839 1088.3466
-146.2343 0.9018 -161.6471 19.8215 1090.4850
-147.7676 0.9131 -163.3709 19.8590 1092.7920
-148.8140 0.9204 -164.5999 19.8966 1094.4061
-150.3388 0.9303 -166.4645 19.9341 1096.8149
-151.2030 0.9355 -167.5661 19.9716 1098.2152
-152.6940 0.9438 -169.5446 20.0092 1100.6925
-153.6782 0.9488 -170.9077 20.0467 1102.3739
-155.0759 0.9552 -172.9349 20.0843 1104.8363
-155.8708 0.9583 -174.1442 20.1218 1106.2834
-157.1846 0.9629 -176.2305 20.1593 1108.7491
-158.0437 0.9650 -177.6618 20.1969 1110.4185
-159.2855 0.9675 -179.8278 20.2344 1112.9152
-159.9901 0.9687 -181.1163 20.2720 1114.3838
-161.1103 0.9698 -183.2543 20.3095 1116.7976
-161.7892 0.9702 -184.6142 20.3470 1118.3175
-162.9215 0.9711 -187.0000 20.3846 1120.9585
-163.5102 0.9716 -188.3069 20.4221 1122.3918
-164.5186 0.9726 -190.6709 20.4597 1124.9619
-165.1084 0.9731 -192.1361 20.4972 1126.5414
-166.0514 0.9740 -194.6292 20.5347 1129.2070
-166.6109 0.9745 -196.2184 20.5723 1130.8918
-167.3304 0.9751 -198.4005 20.6098 1133.1896
-167.9140 0.9756 -200.3159 20.6474 1135.1920
-168.3981 0.9760 -202.0267 20.6849 1136.9700
-168.9123 0.9764 -203.9904 20.7224 1139.0000
-169.5085 0.9767 -206.5130 20.7600 1141.5920
-169.9077 0.9769 -208.4026 20.7975 1143.5234
-170.2621 0.9771 -210.2727 20.8351 1145.4269
-170.6223 0.9773 -212.4153 20.8726 1147.5996
-170.9925 0.9775 -214.9802 20.9101 1150.1910
-171.2215 0.9776 -216.8632 20.9477 1152.0879
-171.4105 0.9777 -218.6821 20.9852 1153.9167
-171.5870 0.9776 -220.7357 21.0228 1155.9779
-171.7623 0.9766 -223.4494 21.0603 1158.6973
-171.8457 0.9751 -225.3817 21.0979 1160.6315
-171.8938 0.9731 -227.1904 21.1354 1162.4408
-171.9128 0.9701 -229.3133 21.1729 1164.5638
-171.8819 0.9654 -231.9088 21.2105 1167.1595
-171.8105 0.9608 -234.0394 21.2480 1169.2915
-171.7214 0.9565 -235.7800 21.2856 1171.0343
-171.5436 0.9493 -238.2951 21.3231 1173.5558
-171.3202 0.9415 -240.7122 21.3606 1175.9833
-171.1152 0.9350 -242.5235 21.3982 1177.8062
-170.8687 0.9276 -244.4241 21.4357 1179.7227
-170.4846 0.9165 -246.9801 21.4733 1182.3074
-170.0778 0.9050 -249.3461 21.5108 1184.7083
-169.7249 0.8959 -251.1745 21.5483 1186.5704
-169.1453 0.8818 -253.8895 21.5859 1189.3467
-168.7696 0.8726 -255.4907 21.6234 1190.9915
-168.1395 0.8572 -257.9844 21.6610 1193.5636
-167.6319 0.8452 -259.8318 21.6985 1195.4796
-166.8358 0.8277 -262.5243 21.7360 1198.2874
-166.3378 0.8176 -264.0950 21.7736 1199.9352
-165.5037 0.8017 -266.5825 21.8111 1202.5590
-164.8694 0.7906 -268.3565 21.8487 1204.4429
-163.8438 0.7737 -271.0678 21.8862 1207.3419
-163.1898 0.7639 -272.7035 21.9237 1209.1035
-162.1958 0.7511 -275.0848 21.9613 1211.6840
-161.4316 0.7437 -276.8297 21.9988 1213.5890
-160.2335 0.7345 -279.4438 22.0364 1216.4646
-159.5029 0.7291 -280.9717 22.0739 1218.1582
-158.2689 0.7190 -283.4746 22.1115 1220.9489
-157.3770 0.7101 -285.2362 22.1490 1222.9233
-156.0372 0.6961 -287.8281 22.1865 1225.8411
-155.0233 0.6856 -289.7414 22.2241 1228.0065
-153.9643 0.6739 -291.6994 22.2616 1230.2325
-153.0350 0.6627 -293.3884 22.2992 1232.1603
-151.5585 0.6422 -296.0634 22.3367 1235.2158
-150.6937 0.6285 -297.6495 22.3742 1237.0225
-149.4030 0.6056 -300.0445 22.4118 1239.7432
-148.4106 0.5861 -301.9063 22.4493 1241.8530
-147.0212 0.5562 -304.5636 22.4869 1244.8518
-146.2713 0.5387 -306.0341 22.5244 1246.5027
-144.9881 0.5065 -308.6256 22.5619 1249.3945
-144.0741 0.4821 -310.5343 22.5995 1251.5110
-142.8064 0.4466 -313.2816 22.6370 1254.5369
-141.9088 0.4198 -315.3222 22.6746 1256.7665
-140.9697 0.3903 -317.5565 22.7121 1259.1902
-140.2061 0.3668 -319.4643 22.7496 1261.2454
-139.0862 0.3371 -322.4348 22.7872 1264.4202
-138.3156 0.3190 -324.6194 22.8247 1266.7368
-137.5801 0.3005 -326.8251 22.8623 1269.0620
-136.9682 0.2834 -328.7660 22.8998 1271.0972
-136.2734 0.2632 -331.1080 22.9373 1273.5402
-135.4637 0.2388 -334.0722 22.9749 1276.6132
-134.8775 0.2203 -336.4093 23.0124 1279.0227
-134.4020 0.2046 -338.4557 23.0500 1281.1238
-133.8919 0.1866 -340.8353 23.0875 1283.5575
-133.3323 0.1650 -343.7495 23.1250 1286.5250
-132.9040 0.1475 -346.2696 23.1626 1289.0814
-132.5853 0.1339 -348.3835 23.2001 1291.2194
-132.2591 0.1197 -350.8527 23.2377 1293.7100
-131.9279 0.1052 -353.8893 23.2752 1296.7648
-131.7199 0.0957 -356.2775 23.3128 1299.1620
-131.5756 0.0886 -358.3702 23.3503 1301.2598
-131.4544 0.0822 -360.7653 23.3878 1303.6580
-131.3636 0.0763 -363.9293 23.4254 1306.8234
-131.3481 0.0728 -366.2903 23.4629 1309.1844
-131.3826 0.0715 -368.8107 23.5005 1311.7051
-131.4415 0.0718 -370.7127 23.5380 1313.6082
-131.5847 0.0742 -373.5542 23.5755 1316.4532
-131.7668 0.0779 -376.1171 23.6131 1319.0226
-132.0035 0.0836 -378.6722 23.6506 1321.5887
-132.2186 0.0891 -380.6303 23.6882 1323.5587
-132.6066 0.0998 -383.6024 23.7257 1326.5560
-132.9705 0.1096 -385.9968 23.7632 1328.9780
-133.4000 0.1214 -388.4562 23.8008 1331.4747
-133.7711 0.1311 -390.3825 23.8383 1333.4364
-134.4634 0.1469 -393.5898 23.8759 1336.7178
-134.9639 0.1569 -395.6838 23.9134 1338.8708
-135.5946 0.1684 -398.0936 23.9509 1341.3618
-136.4338 0.1826 -401.0287 23.9885 1344.4147
-137.0165 0.1918 -402.9129 24.0260 1346.3870
-137.7647 0.2027 -405.1931 24.0636 1348.7869
-138.6059 0.2140 -407.5779 24.1011 1351.3157
-139.2824 0.2226 -409.3960 24.1386 1353.2556
-140.4300 0.2365 -412.2920 24.1762 1356.3708
-141.3284 0.2465 -414.4278 24.2137 1358.6880
-142.3535 0.2562 -416.7295 24.2513 1361.2076
-143.1890 0.2627 -418.5242 24.2888 1363.1874
-144.5191 0.2711 -421.2355 24.3263 1366.2075
-145.6639 0.2767 -423.4477 24.3639 1368.6984
-146.9470 0.2825 -425.8036 24.4014 1371.3811
-147.8609 0.2871 -427.4145 24.4390 1373.2332
-149.4551 0.2975 -430.0959 24.4765 1376.3528
-150.6670 0.3073 -432.0524 24.5141 1378.6543
-152.0534 0.3199 -434.2058 24.5516 1381.2155
-153.1822 0.3309 -435.9007 24.5891 1383.2518
-154.9769 0.3504 -438.4817 24.6267 1386.3956
-156.0587 0.3631 -439.9778 24.6642 1388.2419
-157.7217 0.3840 -442.2039 24.7018 1391.0208
-159.7880 0.4112 -444.8447 24.7393 1394.3741
-161.0289 0.4286 -446.3608 24.7768 1396.3333
-162.7174 0.4536 -448.3477 24.8144 1398.9410
-164.4972 0.4861 -450.3390 24.8519 1401.6119
-166.4427 0.5292 -452.4188 24.8895 1404.4603
-167.8426 0.5604 -453.8680 24.9270 1406.4755
-169.5611 0.5946 -455.6023 24.9645 1408.9172
-171.4133 0.6275 -457.4344 25.0021 1411.5227
-172.9568 0.6531 -458.9415 25.0396 1413.6802
-175.2255 0.6871 -461.1274 25.0772 1416.8307
-176.7670 0.7077 -462.6144 25.1147 1418.9727
-178.5020 0.7290 -464.2944 25.1522 1421.3878
-180.1789 0.7482 -465.9221 25.1898 1423.7249
-182.4250 0.7702 -468.1281 25.2273 1426.8732
-183.6745 0.7808 -469.3800 25.2649 1428.6420
-185.9025 0.7965 -471.6766 25.3024 1431.8418
-187.2011 0.8032 -473.0585 25.3399 1433.7382
-189.3298 0.8108 -475.4080 25.3775 1436.9086
-190.7406 0.8130 -477.0194 25.4150 1439.0503
-192.5181 0.8132 -479.1299 25.4526 1441.8097
-194.3728 0.8113 -481.4299 25.4901 1444.7644
-195.5475 0.8095 -482.9474 25.5277 1446.6835
-197.0031 0.8083 -484.8976 25.5652 1449.1171
-198.5443 0.8151 -487.0597 25.6027 1451.7722
-200.1189 0.8349 -489.3754 25.6403 1454.5728
-201.0980 0.8539 -490.8770 25.6778 1456.3655
-202.4595 0.8793 -493.0427 25.7154 1458.9237
-203.8280 0.9000 -495.3217 25.7529 1461.5823
-204.8556 0.9123 -497.1044 25.7904 1463.6399
-206.3111 0.9299 -499.7632 25.8280 1466.6713
-207.2059 0.9480 -501.4882 25.8655 1468.6145
-208.4409 0.9840 -503.9993 25.9031 1471.4132
-209.1949 1.0062 -505.6017 25.9406 1473.1843
-210.4639 1.0421 -508.4467 25.9781 1476.2998
-211.1381 1.0626 -510.0429 26.0157 1478.0327
-212.2546 1.1005 -512.8455 26.0532 1481.0497
-212.8903 1.1236 -514.5342 26.0908 1482.8544
-213.9080 1.1618 -517.4181 26.1283 1485.9128
-214.5496 1.1866 -519.3588 26.1658 1487.9570
-215.3388 1.2178 -521.9232 26.2034 1490.6404
-216.1209 1.2483 -524.6765 26.2409 1493.5028
-216.6391 1.2680 -526.6506 26.2785 1495.5439
-217.1568 1.2875 -528.7654 26.3160 1497.7213
-217.7235 1.3086 -531.3137 26.3535 1500.3319
-218.2933 1.3292 -534.1641 26.3911 1503.2389
-218.6632 1.3424 -536.2334 26.4286 1505.3411
-219.0306 1.3552 -538.5288 26.4662 1507.6658
-219.4107 1.3677 -541.2583 26.5037 1510.4216
-219.7176 1.3769 -543.8414 26.5412 1513.0229
-219.9660 1.3836 -546.3369 26.5788 1515.5309
-220.1196 1.3873 -548.1816 26.6163 1517.3821
-220.3074 1.3905 -550.9991 26.6539 1520.2058
-220.4397 1.3943 -553.6922 26.6914 1522.9021
-220.5295 1.3997 -556.2524 26.7290 1525.4640
-220.5762 1.4010 -558.0798 26.7665 1527.2919
-220.6139 1.3965 -561.1781 26.8040 1530.3905
-220.6102 1.3910 -562.8362 26.8416 1532.0486
-220.5522 1.3784 -566.0236 26.8791 1535.2366
-220.4923 1.3681 -567.9733 26.9167 1537.1874
-220.3611 1.3465 -571.0754 26.9542 1540.2922
-220.2638 1.3319 -572.9316 26.9917 1542.1511
-220.0503 1.3078 -576.2469 27.0293 1545.4734
-219.9153 1.2963 -578.0154 27.0668 1547.2471
-219.6389 1.2740 -581.0549 27.1044 1550.2992
-219.3405 1.2507 -583.7616 27.1419 1553.0225
-219.0658 1.2299 -585.8973 27.1794 1555.1759
-218.7604 1.2084 -587.9932 27.2170 1557.2941
-218.2449 1.1746 -591.0609 27.2545 1560.4050
-217.8262 1.1480 -593.2413 27.2921 1562.6255
-217.4066 1.1221 -595.2174 27.3296 1564.6459
-216.9497 1.0947 -597.1823 27.3671 1566.6633
-216.1844 1.0514 -600.1417 27.4047 1569.7205
-215.6115 1.0209 -602.1546 27.4422 1571.8136
-214.8902 0.9846 -604.5031 27.4798 1574.2706
-214.4052 0.9613 -605.9854 27.5173 1575.8306
-213.5709 0.9230 -608.3754 27.5548 1578.3623
-212.9434 0.8954 -610.0671 27.5924 1580.1669
-211.8599 0.8497 -612.7992 27.6299 1583.1064
-211.2300 0.8241 -614.2951 27.6675 1584.7299
-210.1774 0.7834 -616.6622 27.7050 1587.3208
-209.4896 0.7575 -618.1335 27.7425 1588.9451
-208.3704 0.7160 -620.4073 27.7801 1591.4799
-207.5469 0.6862 -621.9998 27.8176 1593.2728
-206.2825 0.6418 -624.3162 27.8552 1595.9124
-205.5000 0.6151 -625.6859 27.8927 1597.4901
-204.1459 0.5697 -627.9438 27.9303 1600.1233
-203.2020 0.5388 -629.4478 27.9678 1601.8993
-201.7622 0.4926 -631.6371 28.0053 1604.5201
-200.8635 0.4645 -632.9499 28.0429 1606.1112
-199.3503 0.4186 -635.0663 28.0804 1608.7135
-198.2893 0.3877 -636.4896 28.1180 1610.4890
-197.0506 0.3531 -638.0875 28.1555 1612.5111
-195.2512 0.3053 -640.3026 28.1930 1615.3655
-194.0046 0.2734 -641.7689 28.2306 1617.2903
-192.8282 0.2443 -643.1053 28.2681 1619.0710
-191.0631 0.2026 -645.0237 28.3057 1621.6783
-189.4934 0.1672 -646.6537 28.3432 1623.9417
-188.1168 0.1372 -648.0263 28.3807 1625.8859
-186.8412 0.1102 -649.2545 28.4183 1627.6567
-184.9419 0.0720 -651.0024 28.4558 1630.2384
-183.2104 0.0387 -652.5242 28.4934 1632.5438
-181.7147 0.0109 -653.7851 28.5309 1634.5002
-180.3400 -0.0139 -654.9039 28.5684 1636.2729
-178.3057 -0.0484 -656.4879 28.6060 1638.8514
-176.4373 -0.0764 -657.8783 28.6435 1641.1807
-174.8330 -0.0962 -659.0244 28.6811 1643.1525
-173.3263 -0.1123 -660.0669 28.7186 1644.9847
-170.7852 -0.1413 -661.7545 28.7561 1648.0354
-169.2003 -0.1607 -662.7616 28.7937 1649.9133
-167.5185 -0.1813 -663.7971 28.8312 1651.8884
-165.9534 -0.2005 -664.7364 28.8688 1653.7139
-164.1420 -0.2239 -665.8038 28.9063 1655.8165
-161.6031 -0.2594 -667.2748 28.9439 1658.7510
-159.8359 -0.2856 -668.2784 28.9814 1660.7834
-158.1644 -0.3110 -669.2133 29.0189 1662.6989
-156.3336 -0.3396 -670.2250 29.0565 1664.7908
-153.7216 -0.3818 -671.6779 29.0940 1667.7799
-151.9263 -0.4118 -672.6989 29.1316 1669.8455
-149.3995 -0.4552 -674.1661 29.1691 1672.7677
-147.8575 -0.4830 -675.0777 29.2066 1674.5592
-146.3382 -0.5115 -675.9967 29.2442 1676.3351
-143.7550 -0.5630 -677.6192 29.2817 1679.3861
-142.2359 -0.5943 -678.6119 29.3193 1681.2010
-139.8672 -0.6441 -680.2253 29.3568 1684.0675
-138.5373 -0.6706 -681.1709 29.3943 1685.6996
-136.3514 -0.7079 -682.7991 29.4319 1688.4255
-134.6776 -0.7317 -684.1097 29.4694 1690.5516
-132.3786 -0.7624 -686.0039 29.5070 1693.5306
-131.1236 -0.7790 -687.0859 29.5445 1695.1879
-128.8120 -0.8049 -689.1789 29.5820 1698.3064
-127.5019 -0.8146 -690.4266 29.6196 1700.1156
-125.5109 -0.8290 -692.4017 29.6571 1702.9202
-124.3604 -0.8379 -693.5915 29.6947 1704.5753
-122.2608 -0.8560 -695.8602 29.7322 1707.6666
-121.1252 -0.8669 -697.1450 29.7697 1709.3815
-119.1902 -0.8875 -699.4343 29.8073 1712.3792
-117.9145 -0.8995 -701.0238 29.8448 1714.4174
-116.6236 -0.9032 -702.7067 29.8824 1716.5383
-115.2268 -0.9014 -704.6161 29.9199 1718.9042
-113.5699 -0.9007 -706.9946 29.9574 1721.8030
-112.5003 -0.8999 -708.6078 29.9950 1723.7386
-111.3685 -0.8965 -710.3861 30.0325 1725.8466
-110.3195 -0.8909 -712.1044 30.0701 1727.8597
-108.8410 -0.8803 -714.6539 30.1076 1730.8071
-107.9998 -0.8733 -716.1749 30.1452 1732.5453
-106.8005 -0.8612 -718.4486 30.1827 1735.1160
-105.8082 -0.8489 -720.4313 30.2202 1737.3331
-104.5769 -0.8318 -723.0345 30.2578 1740.2130
-103.8834 -0.8216 -724.5788 30.2953 1741.9059
-102.6839 -0.8023 -727.4067 30.3329 1744.9778
-102.0426 -0.7907 -729.0121 30.3704 1746.7067
-100.9777 -0.7706 -731.8389 30.4079 1749.7275
-100.3174 -0.7579 -733.7100 30.4455 1751.7118
-99.6846 -0.7460 -735.5912 30.4830 1753.6967
-98.9135 -0.7322 -738.0334 30.5206 1756.2578
-98.1059 -0.7185 -740.7820 30.5581 1759.1227
-97.5797 -0.7101 -742.7032 30.5956 1761.1146
-97.0062 -0.7013 -744.9164 30.6332 1763.4010
-96.4438 -0.6932 -747.2136 30.6707 1765.7660
-95.8902 -0.6855 -749.6191 30.7083 1768.2345
-95.3773 -0.6754 -751.9924 30.7458 1770.6625
-94.9588 -0.6636 -754.0296 30.7833 1772.7423
-94.5165 -0.6501 -756.2570 30.8209 1775.0132
-93.9534 -0.6426 -759.1622 30.8584 1777.9725
-93.6237 -0.6427 -760.8933 30.8960 1779.7347
-93.0298 -0.6418 -764.0641 30.9335 1782.9607
-92.6995 -0.6394 -765.8475 30.9710 1784.7744
-92.1327 -0.6357 -768.9221 31.0086 1787.9008
-91.7467 -0.6348 -771.0094 31.0461 1790.0236
-91.1961 -0.6341 -773.9633 31.0837 1793.0283
-90.8595 -0.6336 -775.7537 31.1212 1794.8501
-90.2937 -0.6333 -778.7358 31.1588 1797.8854
-89.9000 -0.6363 -780.7854 31.1963 1799.9724
-89.4781 -0.6437 -782.9584 31.2338 1802.1860
-89.0476 -0.6520 -785.1481 31.2714 1804.4177
-88.3739 -0.6563 -788.5139 31.3089 1807.8502
-87.9207 -0.6519 -790.7374 31.3465 1810.1194
-87.3944 -0.6482 -793.2668 31.3840 1812.7031
-86.9660 -0.6471 -795.2750 31.4215 1814.7565
-86.2839 -0.6446 -798.3981 31.4591 1817.9532
-85.8538 -0.6418 -800.3340 31.4966 1819.9363
-85.1173 -0.6369 -803.6089 31.5342 1823.2930
-84.7119 -0.6343 -805.3950 31.5717 1825.1245
-83.9957 -0.6296 -808.5383 31.6092 1828.3484
-83.5179 -0.6262 -810.6338 31.6468 1830.4977
-82.8007 -0.6209 -813.7834 31.6843 1833.7279
-82.3715 -0.6174 -815.6700 31.7219 1835.6626
-81.6777 -0.6117 -818.7177 31.7594 1838.7883
-81.1884 -0.6075 -820.8656 31.7969 1840.9913
-80.6788 -0.6033 -823.1019 31.8345 1843.2849
-80.0529 -0.5984 -825.8512 31.8720 1846.1045
-79.3801 -0.5939 -828.8136 31.9096 1849.1425
-78.7889 -0.5906 -831.4296 31.9471 1851.8243
-78.3407 -0.5883 -833.4256 31.9846 1853.8701
-77.7173 -0.5846 -836.2285 32.0222 1856.7415
-77.0665 -0.5796 -839.2408 32.0597 1859.8234
-76.6336 -0.5758 -841.3105 32.0973 1861.9377
-75.9152 -0.5686 -844.7680 32.1348 1865.4691
-75.5081 -0.5639 -846.7351 32.1723 1867.4779
-74.8524 -0.5555 -849.9175 32.2099 1870.7273
-74.4018 -0.5490 -852.1129 32.2474 1872.9683
-73.9207 -0.5415 -854.4619 32.2850 1875.3661
-73.2980 -0.5312 -857.5156 32.3225 1878.4827
-72.6919 -0.5200 -860.5149 32.3601 1881.5426
-72.2369 -0.5112 -862.7866 32.3976 1883.8594
-71.7672 -0.5022 -865.1046 32.4351 1886.2246
-71.1946 -0.4915 -867.9059 32.4727 1889.0839
-70.5616 -0.4796 -871.0590 32.5102 1892.2999
-70.1510 -0.4718 -873.1562 32.5478 1894.4370
-69.4773 -0.4590 -876.7050 32.5853 1898.0491
-69.0352 -0.4508 -879.1337 32.6228 1900.5178
-68.5414 -0.4417 -881.9630 32.6604 1903.3899
-68.1713 -0.4348 -884.1804 32.6979 1905.6379
-67.6184 -0.4247 -887.6674 32.7355 1909.1685
-67.3182 -0.4193 -889.6636 32.7730 1911.1871
-66.8106 -0.4105 -893.1967 32.8105 1914.7566
-66.5290 -0.4062 -895.2643 32.8481 1916.8433
-66.0693 -0.4003 -898.8559 32.8856 1920.4642
-65.8120 -0.3975 -900.9772 32.9232 1922.6011
-65.4480 -0.3942 -904.1123 32.9607 1925.7572
-65.1758 -0.3925 -906.5918 32.9982 1928.2516
-64.9285 -0.3915 -908.9413 33.0358 1930.6141
-64.6271 -0.3913 -911.9500 33.0733 1933.6378
-64.3217 -0.3922 -915.2178 33.1109 1936.9199
-64.1223 -0.3935 -917.4971 33.1484 1939.2080
-63.8200 -0.3960 -921.1619 33.1859 1942.8853
-63.6151 -0.3978 -923.8123 33.2235 1945.5435
-63.4142 -0.3995 -926.5609 33.2610 1948.2993
-63.2523 -0.4010 -928.8908 33.2986 1950.6349
-63.0108 -0.4034 -932.5333 33.3361 1954.2854
-62.8768 -0.4048 -934.6506 33.3736 1956.4070
-62.6672 -0.4069 -938.1140 33.4112 1959.8767
-62.5284 -0.4084 -940.5401 33.4487 1962.3068
-62.3920 -0.4099 -943.0251 33.4863 1964.7955
-62.2309 -0.4117 -946.1052 33.5238 1967.8798
-62.0661 -0.4136 -949.4430 33.5614 1971.2217
-61.9349 -0.4151 -952.2499 33.5989 1974.0316
-61.8287 -0.4162 -954.5703 33.6364 1976.3544
-61.6843 -0.4175 -957.6915 33.6740 1979.4790
-61.5208 -0.4184 -961.0466 33.7115 1982.8381
-61.4072 -0.4188 -963.3367 33.7491 1985.1311
-61.2197 -0.4193 -967.1715 33.7866 1988.9705
-61.1220 -0.4194 -969.2383 33.8241 1991.0396
-60.9673 -0.4195 -972.6768 33.8617 1994.4814
-60.8552 -0.4186 -975.3499 33.8992 1997.1569
-60.7093 -0.4195 -979.1223 33.9368 2000.9323
-60.6274 -0.4202 -981.3348 33.9743 2003.1461
-60.5036 -0.4198 -984.5735 34.0118 2006.3873
-60.4072 -0.4187 -987.1832 34.0494 2008.9987
-60.2747 -0.4179 -990.8881 34.0869 2012.7061
-60.1947 -0.4175 -993.1645 34.1245 2014.9838
-60.0874 -0.4164 -996.2577 34.1620 2018.0789
-59.9784 -0.4149 -999.4609 34.1995 2021.2839
-59.9072 -0.4139 -1001.5872 34.2371 2023.4114
-59.7903 -0.4121 -1005.1284 34.2746 2026.9546
-59.6925 -0.4102 -1008.1478 34.3122 2029.9756
-59.6120 -0.4085 -1010.6959 34.3497 2032.5249
-59.5001 -0.4053 -1014.5282 34.3872 2036.3589
-59.4417 -0.4042 -1016.7878 34.4248 2038.6193
-59.3651 -0.4022 -1020.1761 34.4623 2042.0084
-59.3135 -0.3998 -1022.9665 34.4999 2044.7992
-59.2598 -0.3971 -1026.5885 34.5374 2048.4216
-59.2336 -0.3962 -1028.8569 34.5750 2050.6902
-59.2033 -0.3946 -1032.1412 34.6125 2053.9746
-59.1842 -0.3929 -1034.9476 34.6500 2056.7812
-59.1712 -0.3915 -1037.3944 34.6876 2059.2280
-59.1595 -0.3898 -1041.1802 34.7251 2063.0137
-59.1574 -0.3895 -1044.1229 34.7627 2065.9565
-59.1642 -0.3885 -1047.1222 34.8002 2068.9558
-59.1753 -0.3874 -1049.5605 34.8377 2071.3943
-59.2031 -0.3865 -1053.3157 34.8753 2075.1494
-59.2380 -0.3864 -1056.2623 34.9128 2078.0962
-59.2819 -0.3862 -1059.0256 34.9504 2080.8599
-59.3564 -0.3862 -1062.8690 34.9879 2084.7041
-59.4048 -0.3864 -1065.2043 35.0254 2087.0398
-59.4747 -0.3866 -1068.3774 35.0630 2090.2136
-59.5444 -0.3867 -1071.3765 35.1005 2093.2136
-59.6332 -0.3872 -1075.0714 35.1381 2096.9097
-59.6929 -0.3874 -1077.4932 35.1756 2099.3320
-59.7716 -0.3867 -1080.6316 35.2131 2102.4714
-59.8467 -0.3878 -1083.5598 35.2507 2105.4006
-59.9129 -0.3892 -1086.0894 35.2882 2107.9312
-60.0149 -0.3898 -1089.8920 35.3258 2111.7351
-60.0761 -0.3897 -1092.1245 35.3633 2113.9685
-60.1834 -0.3903 -1095.9733 35.4008 2117.8186
-60.2524 -0.3911 -1098.4103 35.4384 2120.2566
-60.3625 -0.3919 -1102.2362 35.4759 2124.0842
-60.4480 -0.3924 -1105.1665 35.5135 2127.0156
-60.5504 -0.3932 -1108.6427 35.5510 2130.4934
-60.6146 -0.3937 -1110.8025 35.5886 2132.6541
-60.7281 -0.3946 -1114.5885 35.6261 2136.4419
-60.8164 -0.3953 -1117.4990 35.6636 2139.3538
-60.8992 -0.3959 -1120.2061 35.7012 2142.0620
-61.0212 -0.3969 -1124.1233 35.7387 2145.9812
-61.1271 -0.3979 -1127.1973 35.7763 2149.0571
-61.2301 -0.3990 -1129.8342 35.8138 2151.6958
-61.3583 -0.4005 -1132.8580 35.8513 2154.7224
-61.5149 -0.4022 -1136.6499 35.8889 2158.5176
-61.6086 -0.4032 -1139.1365 35.9264 2161.0059
-61.7179 -0.4041 -1142.2323 35.9640 2164.1035
-61.8235 -0.4051 -1145.4401 36.0015 2167.3132
-61.9010 -0.4057 -1147.9094 36.0390 2169.7837
-62.0213 -0.4067 -1151.8563 36.0766 2173.7324
-62.1070 -0.4074 -1154.6449 36.1141 2176.5225
-62.2114 -0.4082 -1157.9364 36.1517 2179.8157
-62.2918 -0.4084 -1160.4026 36.1892 2182.2830
-62.4234 -0.4092 -1164.3485 36.2267 2186.2312
-62.5210 -0.4109 -1167.2346 36.2643 2189.1189
-62.6212 -0.4124 -1170.1603 36.3018 2192.0464
-62.7242 -0.4131 -1173.1315 36.3394 2195.0193
-62.8592 -0.4140 -1176.9960 36.3769 2198.8860
-62.9354 -0.4148 -1179.1648 36.4144 2201.0562
-63.0747 -0.4163 -1183.1030 36.4520 2204.9968
-63.1614 -0.4171 -1185.5375 36.4895 2207.4329
-63.3077 -0.4184 -1189.6124 36.5271 2211.5105
-63.4063 -0.4194 -1192.3468 36.5646 2214.2466
-63.5401 -0.4208 -1196.0289 36.6021 2217.9312
-63.6296 -0.4217 -1198.4779 36.6397 2220.3818
-63.7616 -0.4229 -1202.0725 36.6772 2223.9788
-63.8698 -0.4240 -1204.9990 36.7148 2226.9075
-64.0108 -0.4255 -1208.7828 36.7523 2230.6938
-64.0904 -0.4263 -1210.8993 36.7898 2232.8118
-64.2393 -0.4278 -1214.8278 36.8274 2236.7432
-64.3402 -0.4288 -1217.4659 36.8649 2239.3831
-64.4827 -0.4303 -1221.1609 36.9025 2243.0808
-64.5915 -0.4315 -1223.9586 36.9400 2245.8806
-64.7287 -0.4329 -1227.4637 36.9776 2249.3887
-64.8365 -0.4341 -1230.2001 37.0151 2252.1270
-64.9838 -0.4356 -1233.8986 37.0526 2255.8284
-65.0797 -0.4367 -1236.2825 37.0902 2258.2141
-65.2435 -0.4385 -1240.3014 37.1277 2262.2366
-65.3567 -0.4397 -1243.0411 37.1653 2264.9785
-65.5111 -0.4415 -1246.7247 37.2028 2268.6653
-65.6117 -0.4425 -1249.0994 37.2403 2271.0422
-65.7909 -0.4426 -1253.2708 37.2779 2275.2175
-65.8984 -0.4385 -1255.7350 37.3154 2277.6841
-66.0505 -0.4233 -1259.1564 37.3530 2281.1089
-66.2067 -0.4055 -1262.5770 37.3905 2284.5332
-66.3479 -0.3935 -1265.5604 37.4280 2287.5198
-66.4589 -0.3847 -1267.8348 37.4656 2289.7969
-66.6124 -0.3715 -1270.8718 37.5031 2292.8379
-66.7418 -0.3604 -1273.2997 37.5407 2295.2690
-66.9538 -0.3461 -1276.9127 37.5782 2298.8884
-67.0730 -0.3386 -1278.7660 37.6157 2300.7456
-67.2642 -0.3291 -1281.5186 37.6533 2303.5049
-67.5420 -0.3199 -1285.0513 37.6908 2307.0483
-67.7361 -0.3157 -1287.2173 37.7284 2309.2231
-67.9592 -0.3124 -1289.4465 37.7659 2311.4636
-68.2182 -0.3113 -1291.7573 37.8034 2313.7888
-68.6285 -0.3119 -1295.0054 37.8410 2317.0627
-68.8797 -0.3134 -1296.7847 37.8785 2318.8596
-69.2488 -0.3174 -1299.1670 37.9161 2321.2705
-69.6963 -0.3265 -1301.7904 37.9536 2323.9319
-70.0118 -0.3323 -1303.5004 37.9911 2325.6707
-70.5549 -0.3467 -1306.2087 38.0287 2328.4331
-70.9159 -0.3565 -1307.8700 38.0662 2330.1331
-71.4836 -0.3754 -1310.3064 38.1038 2332.6348
-71.8464 -0.3909 -1311.7679 38.1413 2334.1409
-72.5175 -0.4212 -1314.2712 38.1789 2336.7327
-72.9940 -0.4411 -1315.9230 38.2164 2338.4519
-73.5511 -0.4605 -1317.7358 38.2539 2340.3486
-74.2229 -0.4783 -1319.7892 38.2915 2342.5093
-75.0302 -0.4937 -1322.0818 38.3290 2344.9399
-75.5425 -0.5017 -1323.4489 38.3666 2346.3999
-76.3027 -0.5095 -1325.3590 38.4041 2348.4558
-76.9079 -0.5133 -1326.7958 38.4416 2350.0149
-77.8813 -0.5175 -1328.9751 38.4792 2352.4016
-78.4693 -0.5183 -1330.2177 38.5167 2353.7764
-79.4720 -0.5168 -1332.2166 38.5543 2356.0127
-80.0319 -0.5151 -1333.2729 38.5918 2357.2085
-81.0802 -0.5115 -1335.1490 38.6293 2359.3574
-81.8059 -0.5058 -1336.3722 38.6669 2360.7798
-82.8810 -0.4978 -1338.0815 38.7044 2362.7993
-83.9302 -0.4882 -1339.6494 38.7420 2364.6860
-84.7772 -0.4795 -1340.8474 38.7795 2366.1531
-85.7166 -0.4699 -1342.1124 38.8170 2367.7290
-86.8795 -0.4587 -1343.5920 38.8546 2369.6108
-87.7238 -0.4506 -1344.6123 38.8921 2370.9353
-89.0997 -0.4370 -1346.1827 38.9297 2373.0232
-89.9162 -0.4293 -1347.0669 38.9672 2374.2268
-91.3071 -0.4166 -1348.4989 39.0047 2376.2234
-92.0587 -0.4096 -1349.2357 39.0423 2377.2759
-93.4634 -0.3953 -1350.5463 39.0798 2379.1970
-94.4490 -0.3853 -1351.4205 39.1174 2380.5146
-95.8451 -0.3716 -1352.5951 39.1549 2382.3391
-96.9801 -0.3603 -1353.5020 39.1925 2383.7920
-98.2776 -0.3473 -1354.4850 39.2300 2385.4199
-99.4689 -0.3356 -1355.3403 39.2675 2386.8867
-100.8835 -0.3215 -1356.3007 39.3051 2388.5967
-102.2393 -0.3077 -1357.1689 39.3426 2390.2068
-103.6262 -0.2942 -1358.0067 39.3802 2391.8271
-104.5866 -0.2847 -1358.5568 39.4177 2392.9338
-106.1896 -0.2690 -1359.4226 39.4552 2394.7559
-107.5323 -0.2564 -1360.1003 39.4928 2396.2600
-109.0220 -0.2419 -1360.8018 39.5303 2397.9067
-109.9771 -0.2319 -1361.2227 39.5679 2398.9507
-111.6075 -0.2157 -1361.8954 39.6054 2400.7144
-112.6971 -0.2059 -1362.3149 39.6429 2401.8821
-114.5135 -0.1886 -1362.9554 39.6805 2403.8083
-115.5683 -0.1775 -1363.2954 39.7180 2404.9165
-117.3110 -0.1606 -1363.8088 39.7556 2406.7336
-118.6781 -0.1477 -1364.1710 39.7931 2408.1479
-120.0895 -0.1346 -1364.5073 39.8306 2409.5989
-121.2929 -0.1233 -1364.7650 39.8682 2410.8296
-123.3619 -0.1039 -1365.1418 39.9057 2412.9329
-124.6583 -0.0918 -1365.3383 39.9433 2414.2441
-125.9695 -0.0797 -1365.5074 39.9808 2415.5664
-127.4058 -0.0664 -1365.6564 40.0183 2417.0103
-129.2671 -0.0486 -1365.7970 40.0559 2418.8772
-130.6876 -0.0349 -1365.8638 40.0934 2420.2993
-132.3472 -0.0186 -1365.8987 40.1310 2421.9595
-133.4069 -0.0081 -1365.8975 40.1685 2423.0193
-135.3146 0.0109 -1365.8470 40.2061 2424.9277
-136.3990 0.0218 -1365.7904 40.2436 2426.0137
-138.3976 0.0424 -1365.6350 40.2811 2428.0186
-139.4812 0.0537 -1365.5234 40.3187 2429.1079
-141.3397 0.0734 -1365.2852 40.3562 2430.9819
-142.7936 0.0891 -1365.0588 40.3938 2432.4534
-144.2423 0.1050 -1364.7969 40.4313 2433.9258
-145.5583 0.1201 -1364.5304 40.4688 2435.2686
-147.4424 0.1423 -1364.0959 40.5064 2437.2021
-148.9174 0.1601 -1363.7114 40.5439 2438.7266
-150.3190 0.1778 -1363.3081 40.5815 2440.1853
-151.6056 0.1939 -1362.9069 40.6190 2441.5332
-153.4184 0.2170 -1362.2858 40.6565 2443.4497
-154.9369 0.2373 -1361.7166 40.6941 2445.0715
-156.2745 0.2555 -1361.1766 40.7316 2446.5139
-157.5036 0.2725 -1360.6493 40.7692 2447.8516
-159.2838 0.2978 -1359.8270 40.8067 2449.8127
-160.7640 0.3195 -1359.0923 40.8442 2451.4656
-161.9905 0.3381 -1358.4471 40.8818 2452.8516
-163.4743 0.3613 -1357.6187 40.9193 2454.5513
-165.1880 0.3897 -1356.6001 40.9569 2456.5449
-166.4139 0.4106 -1355.8286 40.9944 2457.9937
-168.0054 0.4390 -1354.7721 41.0319 2459.9041
-168.9562 0.4568 -1354.1075 41.0695 2461.0645
-170.6218 0.4890 -1352.8859 41.1070 2463.1301
-171.6082 0.5090 -1352.1251 41.1446 2464.3762
-173.3293 0.5452 -1350.7280 41.1821 2466.5933
-174.2595 0.5655 -1349.9352 41.2196 2467.8157
-175.8201 0.6014 -1348.5414 41.2572 2469.9084
-176.7351 0.6234 -1347.6858 41.2947 2471.1614
-178.1030 0.6586 -1346.3568 41.3323 2473.0688
-179.1806 0.6868 -1345.2626 41.3698 2474.6050
-180.8653 0.7345 -1343.4460 41.4074 2477.0830
-181.8374 0.7639 -1342.3340 41.4449 2478.5605
-183.2155 0.8074 -1340.6801 41.4824 2480.7139
-183.9818 0.8319 -1339.7167 41.5200 2481.9451
-185.3302 0.8780 -1337.9371 41.5575 2484.1782
-186.2758 0.9130 -1336.6162 41.5951 2485.8032
-187.1847 0.9480 -1335.2860 41.6326 2487.4148
-188.0970 0.9847 -1333.8854 41.6701 2489.0867
-189.2887 1.0356 -1331.9470 41.7077 2491.3628
-190.2178 1.0774 -1330.3445 41.7452 2493.2156
-191.0237 1.1148 -1328.8807 41.7828 2494.8870
-191.8009 1.1516 -1327.3993 41.8203 2496.5603
-192.5790 1.1889 -1325.8386 41.8578 2498.3047
-193.6303 1.2391 -1323.5916 41.8954 2500.7861
-194.3276 1.2724 -1322.0002 41.9329 2502.5239
-195.2955 1.3190 -1319.6417 41.9705 2505.0737
-195.9586 1.3499 -1317.9038 42.0080 2506.9341
-196.4965 1.3766 -1316.3910 42.0455 2508.5400
-197.2510 1.4158 -1314.0946 42.0831 2510.9575
-197.6483 1.4364 -1312.7863 42.1206 2512.3252
-198.2648 1.4693 -1310.5964 42.1582 2514.6003
-198.7553 1.4961 -1308.6713 42.1957 2516.5872
-199.1135 1.5168 -1307.1202 42.2332 2518.1792
-199.5003 1.5394 -1305.2709 42.2708 2520.0688
-199.9315 1.5656 -1302.9037 42.3083 2522.4751
-200.2230 1.5849 -1301.0310 42.3459 2524.3706
-200.4544 1.6012 -1299.3065 42.3834 2526.1106
-200.6598 1.6165 -1297.5204 42.4209 2527.9087
-200.9041 1.6371 -1294.8512 42.4585 2530.5891
-201.0211 1.6489 -1293.1633 42.4960 2532.2810
-201.1112 1.6600 -1291.4858 42.5336 2533.9609
-201.1854 1.6731 -1289.3075 42.5711 2536.1406
-201.2156 1.6862 -1286.8502 42.6087 2538.5981
-201.2046 1.6937 -1285.3813 42.6462 2540.0671
-201.1356 1.7048 -1282.7415 42.6837 2542.7080
-201.0672 1.7098 -1281.2781 42.7213 2544.1731
-200.9103 1.7176 -1278.8517 42.7588 2546.6047
-200.7520 1.7230 -1276.9897 42.7964 2548.4734
-200.5004 1.7286 -1274.5872 42.8339 2550.8892
-200.3182 1.7312 -1273.1121 42.8714 2552.3755
-199.9758 1.7346 -1270.6801 42.9090 2554.8315
-199.7403 1.7361 -1269.2001 42.9465 2556.3301
-199.3782 1.7379 -1267.1265 42.9841 2558.4351
-198.9771 1.7384 -1265.0466 43.0216 2560.5532
-198.4612 1.7381 -1262.6200 43.0591 2563.0342
-198.0115 1.7374 -1260.6837 43.0967 2565.0220
-197.5684 1.7364 -1258.9030 43.1342 2566.8572
-196.9534 1.7344 -1256.5945 43.1718 2569.2461
-196.2747 1.7309 -1254.2173 43.2093 2571.7183
-195.7387 1.7276 -1252.4587 43.2468 2573.5569
-195.1717 1.7243 -1250.6859 43.2844 2575.4182
-194.4130 1.7196 -1248.4434 43.3219 2577.7856
-193.5460 1.7136 -1246.0242 43.3595 2580.3555
-192.9452 1.7088 -1244.4301 43.3970 2582.0591
-191.8837 1.7000 -1241.7467 43.4345 2584.9448
-191.0970 1.6934 -1239.8605 43.4721 2586.9885
-190.2147 1.6857 -1237.8309 43.5096 2589.2017
-189.2877 1.6770 -1235.7878 43.5472 2591.4451
-188.5502 1.6699 -1234.2203 43.5847 2593.1775
-187.5879 1.6605 -1232.2426 43.6222 2595.3770
-186.2410 1.6469 -1229.5823 43.6598 2598.3589
-185.2964 1.6369 -1227.7965 43.6973 2600.3792
-184.3603 1.6268 -1226.0814 43.7349 2602.3330
-183.2172 1.6142 -1224.0505 43.7724 2604.6636
-181.8148 1.5982 -1221.6331 43.8100 2607.4585
-180.6481 1.5838 -1219.6742 43.8475 2609.7385
-179.6447 1.5698 -1218.0250 43.8850 2611.6692
-178.1732 1.5464 -1215.6602 43.9226 2614.4546
-176.7781 1.5225 -1213.4589 43.9601 2617.0608
-175.6851 1.5033 -1211.7518 43.9977 2619.0879
-174.5762 1.4835 -1210.0283 44.0352 2621.1375
-173.0748 1.4561 -1207.7002 44.0727 2623.9077
-171.5731 1.4281 -1205.3759 44.1103 2626.6750
-170.5407 1.4088 -1203.7789 44.1478 2628.5769
-168.8453 1.3774 -1201.1493 44.1854 2631.7058
-167.5925 1.3543 -1199.1937 44.2229 2634.0283
-166.3876 1.3319 -1197.2983 44.2604 2636.2744
-165.0220 1.3065 -1195.1356 44.2980 2638.8323
-164.0798 1.2887 -1193.6350 44.3355 2640.6042
-162.6299 1.2610 -1191.3099 44.3731 2643.3445
-161.1699 1.2329 -1188.9464 44.4106 2646.1228
-159.8126 1.2062 -1186.7234 44.4481 2648.7275
-158.8811 1.1877 -1185.1805 44.4857 2650.5298
-157.4855 1.1590 -1182.8367 44.5232 2653.2581
-156.4694 1.1371 -1181.1042 44.5608 2655.2666
-154.8430 1.1030 -1178.2814 44.5983 2658.5247
-153.8375 1.0854 -1176.5065 44.6358 2660.5645
-152.3658 1.0648 -1173.8635 44.6734 2663.5896
-151.0063 1.0473 -1171.3738 44.7109 2666.4265
-150.0172 1.0348 -1169.5266 44.7485 2668.5217
-148.5103 1.0168 -1166.6503 44.7860 2671.7690
-147.4179 1.0055 -1164.5085 44.8236 2674.1733
-146.3516 0.9958 -1162.3701 44.8611 2676.5630
-145.1406 0.9854 -1159.8805 44.8986 2679.3315
-144.3466 0.9787 -1158.2108 44.9362 2681.1804
-143.1237 0.9680 -1155.5758 44.9737 2684.0854
-141.9492 0.9575 -1152.9707 45.0113 2686.9431
-140.9312 0.9483 -1150.6465 45.0488 2689.4805
-140.1267 0.9409 -1148.7650 45.0863 2691.5266
-138.9077 0.9295 -1145.8284 45.1239 2694.7063
-137.8741 0.9197 -1143.2585 45.1614 2697.4763
-136.9849 0.9110 -1140.9758 45.1990 2699.9260
-136.2472 0.9037 -1139.0349 45.2365 2702.0024
-134.9808 0.8911 -1135.5834 45.2740 2705.6792
-134.1981 0.8831 -1133.3677 45.3116 2708.0288
-133.2688 0.8733 -1130.6470 45.3491 2710.9041
-132.6751 0.8670 -1128.8514 45.3867 2712.7952
-131.7271 0.8565 -1125.8784 45.4242 2715.9158
-130.9063 0.8472 -1123.1925 45.4617 2718.7244
-130.1690 0.8385 -1120.6770 45.4993 2721.3457
-129.5918 0.8315 -1118.6349 45.5368 2723.4678
-128.7294 0.8206 -1115.4456 45.5744 2726.7717
-128.0299 0.8114 -1112.7294 45.6119 2729.5764
-127.4339 0.8032 -1110.2997 45.6494 2732.0784
-126.6968 0.7924 -1107.1356 45.6870 2735.3271
-126.1424 0.7839 -1104.6162 45.7245 2737.9067
-125.6427 0.7759 -1102.2300 45.7621 2740.3447
-125.2044 0.7685 -1100.0317 45.7996 2742.5864
-124.7043 0.7595 -1097.3890 45.8372 2745.2759
-124.1225 0.7485 -1094.0875 45.8747 2748.6284
-123.6953 0.7397 -1091.4784 45.9122 2751.2722
-123.2424 0.7297 -1088.4943 45.9498 2754.2905
-122.9731 0.7233 -1086.5902 45.9873 2756.2136
-122.5518 0.7125 -1083.3562 46.0249 2759.4751
-122.3063 0.7056 -1081.3024 46.0624 2761.5435
-121.9341 0.6941 -1077.8456 46.0999 2765.0203
-121.7284 0.6870 -1075.7103 46.1375 2767.1655
-121.4473 0.6759 -1072.3984 46.1750 2770.4893
-121.2372 0.6663 -1069.5055 46.2126 2773.3899
-121.0896 0.6582 -1067.0804 46.2501 2775.8196
-120.9107 0.6460 -1063.4207 46.2876 2779.4839
-120.8171 0.6374 -1060.8188 46.3252 2782.0872
-120.7549 0.6294 -1058.4062 46.3627 2784.5007
-120.7145 0.6209 -1055.8596 46.4003 2787.0476
-120.7006 0.6118 -1053.1030 46.4378 2789.8044
-120.7269 0.6002 -1049.6277 46.4753 2793.2798
-120.7754 0.5921 -1047.1711 46.5129 2795.7368
-120.8504 0.5837 -1044.6552 46.5504 2798.2539
-120.9597 0.5748 -1041.9504 46.5880 2800.9609
-121.1371 0.5636 -1038.5985 46.6255 2804.3176
-121.3166 0.5545 -1035.8486 46.6630 2807.0732
-121.5454 0.5446 -1032.8865 46.7006 2810.0442
-121.7333 0.5375 -1030.7345 46.7381 2812.2046
-122.0757 0.5260 -1027.2852 46.7757 2815.6709
-122.3837 0.5168 -1024.5355 46.8132 2818.4377
-122.7720 0.5064 -1021.4121 46.8507 2821.5852
-123.0381 0.4998 -1019.4434 46.8883 2823.5718
-123.5473 0.4881 -1015.9697 46.9258 2827.0828
-123.9966 0.4786 -1013.1571 46.9634 2829.9312
-124.4990 0.4688 -1010.2462 47.0009 2832.8850
-125.1003 0.4578 -1007.0035 47.0385 2836.1831
-125.5389 0.4503 -1004.7844 47.0760 2838.4451
-126.1337 0.4405 -1001.9248 47.1135 2841.3660
-126.6852 0.4320 -999.4253 47.1511 2843.9255
-127.5484 0.4194 -995.7340 47.1886 2847.7166
-128.2427 0.4097 -992.9417 47.2262 2850.5938
-128.8229 0.4020 -990.7083 47.2637 2852.9014
-129.5397 0.3928 -988.0623 47.3012 2855.6428
-130.2622 0.3840 -985.5040 47.3388 2858.3013
-131.2758 0.3720 -982.0806 47.3763 2861.8716
-131.8899 0.3651 -980.0844 47.4139 2863.9600
-133.0239 0.3528 -976.5481 47.4514 2867.6738
-133.7133 0.3456 -974.4777 47.4889 2869.8560
-134.8969 0.3337 -971.0572 47.5265 2873.4756
-135.8198 0.3247 -968.4880 47.5640 2876.2056
-137.0167 0.3135 -965.2634 47.6016 2879.6450
-137.7235 0.3072 -963.4081 47.6391 2881.6306
-139.0404 0.2960 -960.0419 47.6766 2885.2451
-139.8221 0.2896 -958.0995 47.7142 2887.3389
-141.2759 0.2780 -954.5920 47.7517 2891.1357
-142.1391 0.2714 -952.5601 47.7893 2893.3435
-143.6454 0.2613 -949.0808 47.8268 2897.1350
-144.6744 0.2561 -946.7296 47.8643 2899.7014
-146.0008 0.2532 -943.7093 47.9019 2903.0002
-146.8956 0.2562 -941.6778 47.9394 2905.2200
-148.4201 0.2740 -938.2249 47.9770 2908.9944
-149.2441 0.2851 -936.3557 48.0145 2911.0374
-150.7216 0.3003 -932.9777 48.0520 2914.7244
-151.6695 0.3093 -930.7806 48.0896 2917.1172
-153.0686 0.3238 -927.4826 48.1271 2920.6997
-154.1451 0.3343 -924.8986 48.1647 2923.4990
-155.4670 0.3448 -921.6564 48.2022 2927.0005
-156.3140 0.3506 -919.5350 48.2398 2929.2847
-157.6775 0.3591 -916.0234 48.2773 2933.0518
-158.5292 0.3637 -913.7583 48.3148 2935.4717
-159.6579 0.3690 -910.6503 48.3524 2938.7783
-160.7756 0.3739 -907.4445 48.3899 2942.1733
-161.7205 0.3774 -904.6220 48.4275 2945.1499
-162.4411 0.3802 -902.3925 48.4650 2947.4929
-163.5348 0.3865 -898.8770 48.5025 2951.1746
-164.1236 0.3923 -896.9110 48.5401 2953.2268
-165.1927 0.4045 -893.1973 48.5776 2957.0916
-165.8398 0.4126 -890.8561 48.6152 2959.5205
-166.7233 0.4258 -887.5247 48.6527 2962.9670
-167.2853 0.4359 -885.3224 48.6902 2965.2400
-168.1713 0.4548 -881.6821 48.7278 2968.9866
-168.7671 0.4691 -879.1075 48.7653 2971.6292
-169.5403 0.4892 -875.5812 48.8029 2975.2395
-170.1912 0.5071 -872.4364 48.8404 2978.4509
-170.6949 0.5219 -869.8724 48.8779 2981.0640
-171.1733 0.5368 -867.3212 48.9155 2983.6597
-171.7565 0.5548 -864.0188 48.9530 2987.0134
-172.3163 0.5757 -860.6326 48.9906 2990.4456
-172.6759 0.5917 -858.3168 49.0281 2992.7891
-173.0655 0.6094 -855.6706 49.0656 2995.4639
-173.5263 0.6308 -852.3439 49.1032 2998.8225
-173.8837 0.6497 -849.5992 49.1407 3001.5906
-174.2166 0.6697 -846.9189 49.1783 3004.2915
-174.4523 0.6827 -844.9696 49.2158 3006.2551
-174.7744 0.7011 -842.2868 49.2533 3008.9570
-175.0380 0.7179 -840.0786 49.2909 3011.1812
-175.4253 0.7441 -836.8181 49.3284 3014.4646
-175.6444 0.7587 -834.9998 49.3660 3016.2961
-175.9793 0.7809 -832.3492 49.4035 3018.9678
-176.3243 0.8050 -829.8193 49.4411 3021.5212
-176.5919 0.8272 -827.9575 49.4786 3023.4023
-176.8979 0.8546 -825.9141 49.5161 3025.4688
-177.2941 0.8878 -823.4881 49.5537 3027.9272
-177.6504 0.9144 -821.4847 49.5912 3029.9622
-178.0979 0.9432 -819.1644 49.6288 3032.3254
-178.4506 0.9634 -817.4652 49.6663 3034.0610
-179.0009 0.9899 -815.0248 49.7038 3036.5627
-179.3458 1.0036 -813.6010 49.7414 3038.0278
-180.0037 1.0240 -811.1026 49.7789 3040.6116
-180.4416 1.0337 -809.5595 49.8165 3042.2156
-181.0717 1.0443 -807.4927 49.8540 3044.3765
-181.7415 1.0518 -805.4589 49.8915 3046.5178
-182.4234 1.0561 -803.5358 49.9291 3048.5583
-182.9007 1.0574 -802.2683 49.9666 3049.9126
-183.7673 1.0573 -800.1031 50.0042 3052.2449
-184.4783 1.0555 -798.4392 50.0417 3054.0544
-185.1487 1.0522 -796.9514 50.0792 3055.6863
-185.8140 1.0479 -795.5424 50.1168 3057.2444
-186.7747 1.0400 -793.6224 50.1543 3059.3916
-187.5616 1.0330 -792.1320 50.1919 3061.0769
-188.5377 1.0234 -790.3755 50.2294 3063.0864
-189.2983 1.0153 -789.0712 50.2669 3064.5964
-190.4834 1.0020 -787.1459 50.3045 3066.8572
-191.2119 0.9937 -786.0159 50.3420 3068.2019
-192.5682 0.9808 -784.0224 50.3796 3070.6130
-193.3641 0.9760 -782.9123 50.4171 3071.9790
-194.7166 0.9718 -781.1152 50.4547 3074.2283
-195.7834 0.9706 -779.7664 50.4922 3075.9480
-196.8023 0.9699 -778.5284 50.5297 3077.5515
-197.8678 0.9693 -777.2858 50.5673 3079.1882
-199.3213 0.9692 -775.6670 50.6048 3081.3640
-200.5286 0.9713 -774.3859 50.6424 3083.1243
-201.6385 0.9762 -773.2559 50.6799 3084.7083
-202.7056 0.9824 -772.2068 50.7174 3086.2048
-204.3360 0.9931 -770.6729 50.7550 3088.4434
-205.3181 0.9994 -769.7834 50.7925 3089.7686
-207.0936 1.0086 -768.2421 50.8301 3092.1196
-208.0987 1.0130 -767.4039 50.8676 3093.4285
-209.8739 1.0189 -765.9831 50.9051 3095.7024
-210.9032 1.0214 -765.1905 50.9427 3097.0015
-212.8698 1.0238 -763.7396 50.9802 3099.4453
-213.9701 1.0241 -762.9623 51.0178 3100.7925
-215.8409 1.0221 -761.6945 51.0553 3103.0525
-217.2704 1.0185 -760.7681 51.0928 3104.7561
-218.9819 1.0122 -759.7029 51.1304 3106.7720
-220.1162 1.0065 -759.0210 51.1679 3108.0955
-222.0915 0.9938 -757.8729 51.2055 3110.3804
-223.5886 0.9817 -757.0373 51.2430 3112.0947
-225.0482 0.9681 -756.2500 51.2805 3113.7532
-226.4194 0.9538 -755.5319 51.3181 3115.3013
-228.5269 0.9292 -754.4553 51.3556 3117.6680
-229.7472 0.9137 -753.8375 51.3932 3119.0356
-231.9632 0.8834 -752.7204 51.4307 3121.5176
-233.2419 0.8649 -752.0824 51.4683 3122.9468
-235.3880 0.8336 -751.0173 51.5058 3125.3428
-236.5979 0.8160 -750.4141 51.5433 3126.6948
-238.8569 0.7841 -749.2716 51.5809 3129.2266
-240.1230 0.7666 -748.6153 51.6184 3130.6528
-242.2641 0.7375 -747.4657 51.6560 3133.0833
-243.8574 0.7163 -746.5726 51.6935 3134.9099
-245.7882 0.6913 -745.4420 51.7310 3137.1475
-246.9602 0.6767 -744.7338 51.7686 3138.5168
-249.0417 0.6534 -743.4338 51.8061 3140.9712
-250.6126 0.6426 -742.4056 51.8437 3142.8486
-252.1028 0.6382 -741.3918 51.8812 3144.6511
-253.4809 0.6360 -740.4236 51.9187 3146.3354
-255.4950 0.6317 -738.9540 51.9563 3148.8286
-257.1165 0.6275 -737.7225 51.9938 3150.8647
-258.6208 0.6242 -736.5345 52.0314 3152.7817
-259.9837 0.6246 -735.4180 52.0689 3154.5435
-261.9677 0.6286 -733.7217 52.1064 3157.1538
-263.1054 0.6305 -732.7105 52.1440 3158.6760
-265.1400 0.6343 -730.8233 52.1815 3161.4512
-266.2763 0.6373 -729.7234 52.2191 3163.0327
-268.1534 0.6434 -727.8300 52.2566 3165.6990
-269.2312 0.6471 -726.6981 52.2941 3167.2620
-271.0920 0.6542 -724.6594 52.3317 3170.0222
-272.1028 0.6589 -723.5037 52.3692 3171.5576
-273.8459 0.6693 -721.4257 52.4068 3174.2700
-275.0508 0.6783 -719.9224 52.4443 3176.1968
-276.2481 0.6875 -718.3724 52.4818 3178.1553
-277.3353 0.6960 -716.9136 52.5194 3179.9746
-278.9535 0.7087 -714.6386 52.5569 3182.7666
-279.8712 0.7163 -713.2916 52.5945 3184.3965
-281.4545 0.7300 -710.8547 52.6320 3187.3027
-282.3477 0.7378 -709.4147 52.6696 3188.9973
-283.7046 0.7498 -707.1234 52.7071 3191.6604
-284.4807 0.7567 -705.7519 52.7446 3193.2363
-285.8715 0.7695 -703.1660 52.7822 3196.1726
-286.6571 0.7768 -701.6254 52.8197 3197.9019
-287.8459 0.7880 -699.1703 52.8573 3200.6299
-288.7133 0.7962 -697.2720 52.8948 3202.7168
-289.5277 0.8040 -695.3963 52.9323 3204.7620
-290.4049 0.8127 -693.2572 52.9699 3207.0740
-291.4184 0.8233 -690.6180 53.0074 3209.9011
-292.0574 0.8307 -688.8389 53.0450 3211.7915
-292.7193 0.8390 -686.8926 53.0825 3213.8474
-293.3603 0.8481 -684.8904 53.1200 3215.9497
-294.1596 0.8608 -682.2023 53.1576 3218.7542
-294.7693 0.8713 -679.9852 53.1951 3221.0537
-295.2666 0.8803 -678.0453 53.2327 3223.0564
-295.7884 0.8898 -675.8594 53.2702 3225.3037
-296.4026 0.9013 -673.0413 53.3077 3228.1880
-296.7475 0.9079 -671.3117 53.3453 3229.9517
-297.3027 0.9190 -668.2378 53.3828 3233.0754
-297.5811 0.9248 -666.5212 53.4204 3234.8145
-298.0107 0.9342 -663.5768 53.4579 3237.7900
-298.2585 0.9400 -661.6445 53.4954 3239.7383
-298.5070 0.9461 -659.5135 53.5330 3241.8838
-298.7719 0.9532 -656.9166 53.5705 3244.4941
-299.0154 0.9605 -654.1197 53.6081 3247.3018
-299.1603 0.9652 -652.1428 53.6456 3249.2839
-299.2948 0.9701 -650.0048 53.6831 3251.4260
-299.4128 0.9751 -647.7310 53.7207 3253.7029
-299.5295 0.9823 -644.7223 53.7582 3256.7139
-299.5801 0.9864 -642.8796 53.7958 3258.5574
-299.6292 0.9926 -639.6779 53.8333 3261.7595
-299.6293 0.9959 -637.8486 53.8709 3263.5889
-299.5836 1.0014 -634.7613 53.9084 3266.6765
-299.5262 1.0047 -632.7323 53.9459 3268.7063
-299.4477 1.0079 -630.6531 53.9835 3270.7869
-299.3121 1.0120 -627.8818 54.0210 3273.5615
-299.1463 1.0164 -624.8885 54.0586 3276.5596
-299.0198 1.0196 -622.8361 54.0961 3278.6160
-298.8633 1.0230 -620.5952 54.1336 3280.8621
-298.6808 1.0265 -618.2940 54.1712 3283.1707
-298.3967 1.0310 -615.1568 54.2087 3286.3208
-298.1338 1.0345 -612.5959 54.2463 3288.8950
-297.9098 1.0371 -610.6083 54.2838 3290.8953
-297.5949 1.0402 -608.0349 54.3213 3293.4878
-297.1941 1.0433 -605.0313 54.3589 3296.5181
-296.9252 1.0458 -603.1533 54.3964 3298.4153
-296.4116 1.0501 -599.7962 54.4340 3301.8115
-296.1061 1.0522 -597.9223 54.4715 3303.7100
-295.5580 1.0556 -594.7328 54.5090 3306.9463
-295.1747 1.0579 -592.6249 54.5466 3309.0889
-294.7469 1.0603 -590.3690 54.5841 3311.3850
-294.1740 1.0629 -587.4947 54.6217 3314.3159
-293.6239 1.0643 -584.8689 54.6592 3316.9985
-293.0406 1.0639 -582.2039 54.6967 3319.7268
-292.5810 1.0625 -580.1833 54.7343 3321.7988
-291.9321 1.0603 -577.4362 54.7718 3324.6216
-291.2116 1.0566 -574.5065 54.8094 3327.6387
-290.7317 1.0532 -572.6194 54.8469 3329.5859
-289.8437 1.0453 -569.2461 54.8844 3333.0742
-289.3289 1.0401 -567.3587 54.9220 3335.0305
-288.4498 1.0306 -564.2316 54.9595 3338.2788
-287.8159 1.0239 -562.0449 54.9971 3340.5557
-286.8410 1.0135 -558.7762 55.0346 3343.9666
-286.2483 1.0081 -556.8417 55.0722 3345.9897
-285.6644 1.0030 -554.9686 55.1097 3347.9519
-284.6084 0.9935 -551.6542 55.1472 3351.4304
-283.9030 0.9872 -549.4893 55.1848 3353.7073
-283.0673 0.9801 -546.9749 55.2223 3356.3569
-282.2617 0.9736 -544.5992 55.2599 3358.8655
-281.0960 0.9644 -541.2429 55.2974 3362.4185
-280.3874 0.9589 -539.2442 55.3349 3364.5391
-279.3267 0.9509 -536.3071 55.3725 3367.6619
-278.3006 0.9438 -533.5192 55.4100 3370.6326
-277.5157 0.9387 -531.4077 55.4476 3372.8855
-276.2622 0.9306 -528.0822 55.4851 3376.4395
-275.5189 0.9261 -526.1423 55.5226 3378.5166
-274.3629 0.9194 -523.1601 55.5602 3381.7151
-273.5049 0.9146 -520.9926 55.5977 3384.0464
-272.6023 0.9096 -518.7644 55.6353 3386.4504
-271.3315 0.9028 -515.6995 55.6728 3389.7683
-270.1848 0.8969 -512.9675 55.7103 3392.7312
-269.2097 0.8924 -510.6596 55.7479 3395.2366
-268.3067 0.8884 -508.5278 55.7854 3397.5518
-267.1177 0.8838 -505.7214 55.8230 3400.5996
-265.8703 0.8795 -502.7764 55.8605 3403.7981
-264.9864 0.8768 -500.6913 55.8980 3406.0627
-263.5439 0.8732 -497.2957 55.9356 3409.7520
-262.6756 0.8735 -495.2573 55.9731 3411.9675
-261.4236 0.8801 -492.3232 56.0107 3415.1577
-260.4695 0.8878 -490.0895 56.0482 3417.5867
-259.5654 0.8932 -487.9716 56.0858 3419.8894
-258.2136 0.8980 -484.7992 56.1233 3423.3379
-256.9919 0.9024 -481.9283 56.1608 3426.4580
-255.9736 0.9066 -479.5339 56.1984 3429.0598
-255.0546 0.9099 -477.3717 56.2359 3431.4092
-253.8316 0.9130 -474.4903 56.2735 3434.5396
-252.5599 0.9155 -471.4865 56.3110 3437.8015
-251.3813 0.9175 -468.6911 56.3485 3440.8352
-250.2181 0.9189 -465.9159 56.3861 3443.8442
-249.1412 0.9193 -463.3285 56.4236 3446.6467
-248.1238 0.9189 -460.8705 56.4612 3449.3069
-247.1293 0.9169 -458.4562 56.4987 3451.9180
-246.2321 0.9125 -456.2673 56.5362 3454.2837
-244.8988 0.9026 -452.9816 56.5738 3457.8296
-243.7331 0.8946 -450.0442 56.6113 3460.9900
-242.8331 0.8893 -447.7309 56.6489 3463.4722
-241.4859 0.8816 -444.2296 56.6864 3467.2236
-240.7120 0.8761 -442.1872 56.7239 3469.4077
-239.5720 0.8676 -439.1377 56.7615 3472.6633
-238.6639 0.8610 -436.6697 56.7990 3475.2932
-237.8384 0.8550 -434.3994 56.8366 3477.7090
-236.6146 0.8455 -430.9760 56.8741 3481.3445
-235.8929 0.8396 -428.9208 56.9116 3483.5227
-234.6185 0.8287 -425.2119 56.9492 3487.4446
-233.9294 0.8225 -423.1610 56.9867 3489.6082
-232.7774 0.8117 -419.6491 57.0243 3493.3042
-231.9230 0.8032 -416.9745 57.0618 3496.1118
-230.9605 0.7931 -413.8857 57.0993 3499.3472
-230.3378 0.7864 -411.8419 57.1369 3501.4839
-229.4429 0.7768 -408.8384 57.1744 3504.6179
-228.5184 0.7670 -405.6483 57.2120 3507.9392
-227.7626 0.7588 -402.9683 57.2495 3510.7239
-226.7776 0.7482 -399.3675 57.2871 3514.4570
-226.1842 0.7418 -397.1306 57.3246 3516.7712
