VERSION 0.7
FIELDS x y z time arclength lapdistance
SIZE 4 4 4 4 4 4
TYPE F F F F F F
COUNT 1 1 1 1 1 1
WIDTH 893
HEIGHT 1
VIEWPOINT 0.000 0.000 0.000 1.000 -54.450 0.435 8.008
POINTS 893
DATA ascii
-39.4841 0.4485 437.4932 66.1058 4234.8511 4458.1904
-39.1405 0.4509 438.6451 66.1243 4236.0532 4459.2676
-38.7983 0.4532 439.8129 66.1430 4237.2700 4460.3438
-38.4598 0.4555 440.9898 66.1618 4238.4946 4461.4189
-38.3490 0.4562 441.3800 66.1680 4238.9004 4462.4941
-38.1304 0.4576 442.1577 66.1804 4239.7085 4463.5693
-37.8094 0.4597 443.3182 66.1989 4240.9126 4464.6426
-37.4980 0.4617 444.4670 66.2172 4242.1025 4465.7158
-37.1959 0.4637 445.6048 66.2352 4243.2798 4466.7900
-37.0950 0.4643 445.9901 66.2414 4243.6782 4467.8623
-36.7974 0.4662 447.1430 66.2596 4244.8687 4468.9365
-36.5987 0.4674 447.9270 66.2720 4245.6777 4470.0127
-36.2087 0.4698 449.5026 66.2969 4247.3008 4471.0928
-36.1142 0.4703 449.8921 66.3031 4247.7017 4472.1729
-35.8313 0.4720 451.0769 66.3217 4248.9199 4473.2549
-35.6455 0.4731 451.8714 66.3342 4249.7358 4474.3369
-35.3715 0.4747 453.0689 66.3531 4250.9639 4475.4209
-35.1085 0.4762 454.2493 66.3716 4252.1733 4476.5068
-35.0217 0.4767 454.6463 66.3778 4252.5796 4477.5928
-34.7685 0.4782 455.8253 66.3963 4253.7856 4478.6787
-34.6040 0.4791 456.6091 66.4085 4254.5864 4479.7676
-34.3669 0.4804 457.7671 66.4266 4255.7686 4480.8564
-34.2130 0.4813 458.5373 66.4386 4256.5542 4481.9463
-33.9844 0.4825 459.7105 66.4568 4257.7495 4483.0361
-33.8317 0.4833 460.5153 66.4693 4258.5684 4484.1279
-33.6094 0.4845 461.7200 66.4880 4259.7935 4485.2197
-33.3932 0.4857 462.9334 66.5068 4261.0259 4486.3135
-33.3232 0.4860 463.3351 66.5130 4261.4336 4487.4072
-33.1168 0.4871 464.5507 66.5318 4262.6670 4488.5010
-32.9855 0.4878 465.3484 66.5441 4263.4751 4489.5967
-32.7956 0.4887 466.5400 66.5625 4264.6816 4490.6924
-32.6151 0.4897 467.7185 66.5806 4265.8740 4491.7891
-32.4975 0.4902 468.5130 66.5928 4266.6772 4492.8857
-32.3815 0.4908 469.3194 66.6051 4267.4917 4493.9834
-32.2123 0.4917 470.5413 66.6238 4268.7256 4495.0820
-32.0492 0.4925 471.7764 66.6427 4269.9712 4496.1807
-31.9963 0.4927 472.1911 66.6491 4270.3892 4497.2803
-31.8438 0.4935 473.4267 66.6679 4271.6343 4498.3789
-31.7480 0.4939 474.2384 66.6802 4272.4517 4499.4795
-31.6111 0.4946 475.4533 66.6987 4273.6743 4500.5791
-31.4831 0.4952 476.6568 66.7170 4274.8848 4501.6797
-31.4012 0.4956 477.4670 66.7292 4275.6987 4502.7803
-31.3227 0.4960 478.2774 66.7415 4276.5132 4503.8818
-31.2096 0.4965 479.5137 66.7602 4277.7544 4504.9834
-31.1044 0.4971 480.7514 66.7788 4278.9966 4506.0859
-31.0704 0.4972 481.1728 66.7852 4279.4194 4507.1885
-30.9758 0.4977 482.4117 66.8038 4280.6621 4508.2910
-30.9161 0.4980 483.2531 66.8164 4281.5054 4509.3936
-30.8338 0.4984 484.5098 66.8353 4282.7651 4510.4971
-30.7828 0.4987 485.3604 66.8480 4283.6172 4511.6006
-30.7159 0.4990 486.5838 66.8663 4284.8423 4512.7041
-30.6756 0.4992 487.4007 66.8784 4285.6602 4513.8076
-30.6221 0.4996 488.6119 66.8965 4286.8726 4514.9111
-30.5754 0.4998 489.8439 66.9148 4288.1055 4516.0156
-30.5350 0.5001 491.1296 66.9339 4289.3916 4517.1201
-30.5235 0.5002 491.5565 66.9402 4289.8188 4518.2334
-30.4937 0.5004 492.8745 66.9598 4291.1372 4519.3516
-30.4730 0.5006 494.1760 66.9790 4292.4390 4520.4736
-30.4680 0.5007 494.6047 66.9854 4292.8677 4521.5977
-30.4610 0.5008 495.4536 66.9979 4293.7163 4522.7256
-30.4572 0.5009 496.7278 67.0167 4294.9907 4523.8574
-30.4615 0.5011 497.9872 67.0352 4296.2500 4524.9932
-30.4736 0.5012 499.2440 67.0537 4297.5068 4526.1318
-30.4795 0.5012 499.6663 67.0599 4297.9292 4527.2764
-30.5023 0.5013 500.9307 67.0785 4299.1938 4528.4248
-30.5220 0.5013 501.7774 67.0909 4300.0410 4529.5771
-30.5715 0.5014 503.4536 67.1154 4301.7178 4530.7344
-30.5860 0.5014 503.8735 67.1216 4302.1382 4531.9033
-30.6352 0.5014 505.1431 67.1401 4303.4087 4533.0830
-30.6731 0.5014 506.0050 67.1527 4304.2710 4534.2646
-30.7371 0.5014 507.3058 67.1717 4305.5737 4535.4512
-30.8088 0.5014 508.6002 67.1905 4306.8701 4536.6406
-30.8345 0.5014 509.0315 67.1968 4307.3022 4537.8350
-30.9166 0.5013 510.3210 67.2156 4308.5942 4539.0332
-31.0066 0.5013 511.6117 67.2343 4309.8882 4540.2363
-31.1029 0.5012 512.8813 67.2528 4311.1611 4541.4443
-31.1365 0.5012 513.3033 67.2589 4311.5845 4542.6543
-31.2440 0.5011 514.5862 67.2775 4312.8721 4543.8662
-31.3207 0.5011 515.4507 67.2901 4313.7397 4545.0811
-31.4412 0.5010 516.7369 67.3087 4315.0317 4546.2959
-31.5711 0.5008 518.0406 67.3276 4316.3418 4547.5146
-31.6162 0.5008 518.4749 67.3339 4316.7788 4548.7354
-31.7582 0.5007 519.7949 67.3530 4318.1060 4549.9600
-31.9070 0.5005 521.1063 67.3720 4319.4258 4551.1865
-32.0637 0.5004 522.4186 67.3909 4320.7476 4552.4180
-32.1179 0.5004 522.8581 67.3973 4321.1904 4553.6494
-32.2281 0.5003 523.7319 67.4099 4322.0713 4554.8799
-32.3987 0.5001 525.0345 67.4287 4323.3848 4556.1113
-32.5750 0.5000 526.3254 67.4473 4324.6880 4557.3438
-32.7559 0.4998 527.5985 67.4657 4325.9736 4558.5771
-32.8178 0.4997 528.0229 67.4718 4326.4023 4559.8115
-33.0098 0.4996 529.3082 67.4904 4327.7021 4561.0469
-33.1468 0.4995 530.1972 67.5032 4328.6016 4562.2822
-33.4343 0.4992 531.9985 67.5291 4330.4258 4563.5156
-33.5082 0.4992 532.4476 67.5356 4330.8809 4564.7471
-33.6586 0.4990 533.3475 67.5485 4331.7935 4565.9775
-33.8901 0.4989 534.6956 67.5679 4333.1611 4567.2061
-34.0493 0.4987 535.5986 67.5809 4334.0781 4568.4326
-34.2913 0.4986 536.9369 67.6002 4335.4380 4569.6592
-34.4579 0.4985 537.8361 67.6131 4336.3525 4570.8857
-34.7067 0.4983 539.1478 67.6320 4337.6875 4572.0908
-34.9649 0.4981 540.4732 67.6510 4339.0381 4573.2871
-35.2271 0.4979 541.7844 67.6699 4340.3750 4574.4814
-35.3163 0.4979 542.2233 67.6762 4340.8228 4575.6768
-35.4966 0.4978 543.0994 67.6888 4341.7173 4576.8701
-35.7762 0.4976 544.4311 67.7079 4343.0781 4578.0635
-36.0602 0.4974 545.7526 67.7269 4344.4297 4579.2568
-36.3462 0.4973 547.0537 67.7456 4345.7617 4580.4502
-36.4432 0.4972 547.4888 67.7518 4346.2075 4581.6416
-36.7427 0.4971 548.8132 67.7708 4347.5654 4582.8340
-36.9486 0.4970 549.7081 67.7837 4348.4839 4584.0264
-37.2628 0.4968 551.0504 67.8029 4349.8623 4585.2178
-37.4789 0.4967 551.9583 67.8160 4350.7959 4586.4102
-37.8068 0.4966 553.3136 67.8354 4352.1899 4587.6025
-38.0342 0.4965 554.2385 67.8487 4353.1426 4588.7939
-38.3756 0.4964 555.6058 67.8683 4354.5518 4589.9854
-38.7234 0.4963 556.9738 67.8879 4355.9634 4591.1768
-38.8398 0.4962 557.4261 67.8944 4356.4307 4592.3643
-39.1956 0.4961 558.7934 67.9141 4357.8433 4593.5527
-39.4327 0.4960 559.6917 67.9270 4358.7725 4594.7432
-39.7910 0.4959 561.0314 67.9463 4360.1592 4595.9346
-40.0296 0.4959 561.9123 67.9589 4361.0718 4597.1260
-40.3988 0.4958 563.2578 67.9782 4362.4668 4598.3193
-40.6482 0.4958 564.1557 67.9911 4363.3989 4599.5146
-41.0310 0.4957 565.5172 68.0107 4364.8130 4600.7119
-41.4306 0.4957 566.9179 68.0308 4366.2695 4601.9102
-41.5644 0.4956 567.3826 68.0375 4366.7534 4603.1104
-41.9704 0.4956 568.7795 68.0576 4368.2080 4604.3125
-42.3758 0.4956 570.1558 68.0773 4369.6426 4605.5166
-42.7894 0.4956 571.5419 68.0972 4371.0894 4606.7217
-42.9279 0.4956 572.0023 68.1039 4371.5698 4607.9287
-43.2069 0.4956 572.9236 68.1171 4372.5327 4609.1367
-43.6259 0.4956 574.2936 68.1367 4373.9653 4610.3467
-44.0416 0.4956 575.6375 68.1560 4375.3721 4611.5586
-44.4554 0.4956 576.9604 68.1750 4376.7583 4612.7715
-44.5965 0.4956 577.4085 68.1815 4377.2280 4613.9854
-45.0210 0.4957 578.7468 68.2007 4378.6318 4615.2021
-45.3169 0.4957 579.6714 68.2139 4379.6030 4616.4189
-45.7682 0.4958 581.0701 68.2340 4381.0723 4617.6377
-46.0748 0.4959 582.0121 68.2475 4382.0630 4618.8584
-46.5408 0.4960 583.4322 68.2679 4383.5576 4620.0791
-46.8520 0.4960 584.3730 68.2814 4384.5488 4621.3008
-47.3190 0.4961 585.7742 68.3015 4386.0254 4622.5244
-47.7762 0.4963 587.1335 68.3210 4387.4600 4623.7490
-47.9336 0.4963 587.5991 68.3277 4387.9512 4624.9736
-48.4016 0.4965 588.9750 68.3474 4389.4048 4626.2002
-48.8875 0.4967 590.3922 68.3678 4390.9028 4627.4287
-49.3757 0.4968 591.8047 68.3880 4392.3970 4628.6582
-49.5388 0.4969 592.2742 68.3947 4392.8940 4629.8887
-49.8650 0.4970 593.2095 68.4081 4393.8848 4631.1201
-50.3647 0.4973 594.6339 68.4285 4395.3940 4632.3525
-50.8635 0.4975 596.0452 68.4488 4396.8911 4633.5869
-51.1958 0.4977 596.9804 68.4622 4397.8838 4634.8213
-51.5280 0.4978 597.9112 68.4755 4398.8721 4636.0576
-52.0295 0.4981 599.3087 68.4955 4400.3564 4637.2949
-52.3624 0.4983 600.2318 68.5087 4401.3379 4638.5332
-52.8561 0.4986 601.5942 68.5282 4402.7871 4639.7725
-53.1890 0.4988 602.5087 68.5412 4403.7603 4641.0127
-53.6956 0.4991 603.8937 68.5610 4405.2349 4642.2549
-54.0429 0.4993 604.8394 68.5745 4406.2427 4643.4980
-54.5665 0.4997 606.2588 68.5948 4407.7554 4644.7422
-55.0937 0.5000 607.6809 68.6151 4409.2720 4645.9873
-55.2719 0.5002 608.1599 68.6219 4409.7832 4647.2334
-55.8032 0.5006 609.5844 68.6422 4411.3037 4648.4814
-56.1557 0.5008 610.5262 68.6556 4412.3091 4649.7295
-56.6796 0.5013 611.9207 68.6755 4413.7988 4650.9795
-57.0284 0.5015 612.8463 68.6887 4414.7881 4652.2295
-57.5565 0.5020 614.2435 68.7086 4416.2817 4653.4814
-57.9154 0.5023 615.1901 68.7220 4417.2939 4654.7344
-58.4545 0.5028 616.6082 68.7422 4418.8110 4655.9873
-59.0070 0.5033 618.0568 68.7628 4420.3613 4657.2422
-59.1888 0.5034 618.5326 68.7696 4420.8706 4658.4971
-59.7448 0.5040 619.9846 68.7902 4422.4258 4659.7549
-60.1073 0.5043 620.9294 68.8036 4423.4375 4661.0127
-60.6553 0.5049 622.3546 68.8238 4424.9644 4662.2705
-61.1961 0.5054 623.7579 68.8437 4426.4683 4663.5303
-61.5575 0.5058 624.6940 68.8569 4427.4717 4664.7910
-61.9255 0.5062 625.6459 68.8704 4428.4922 4666.0527
-62.4860 0.5069 627.0939 68.8909 4430.0449 4667.3154
-63.0477 0.5075 628.5427 68.9113 4431.5991 4668.5791
-63.2378 0.5077 629.0325 68.9182 4432.1245 4669.8447
-63.7956 0.5084 630.4687 68.9385 4433.6650 4671.1104
-64.1759 0.5088 631.4469 68.9523 4434.7144 4672.3779
-64.7329 0.5095 632.8785 68.9725 4436.2510 4673.6455
-65.2817 0.5102 634.2882 68.9923 4437.7637 4674.9150
-65.8336 0.5109 635.7051 69.0122 4439.2842 4676.1846
-66.0164 0.5112 636.1741 69.0188 4439.7876 4677.4561
-66.5703 0.5119 637.5955 69.0388 4441.3130 4678.7295
-66.9421 0.5124 638.5494 69.0522 4442.3369 4680.0029
-67.6983 0.5135 640.4901 69.0794 4444.4194 4681.2773
-67.8894 0.5137 640.9807 69.0863 4444.9458 4682.5537
-68.4656 0.5146 642.4601 69.1070 4446.5337 4683.8301
-68.8445 0.5151 643.4334 69.1206 4447.5781 4685.1084
-69.4073 0.5160 644.8802 69.1408 4449.1304 4686.3877
-69.9644 0.5168 646.3135 69.1608 4450.6685 4687.6670
-70.1521 0.5171 646.7968 69.1675 4451.1870 4688.9482
-70.7131 0.5180 648.2424 69.1877 4452.7373 4690.2314
-71.0927 0.5186 649.2217 69.2013 4453.7876 4691.5146
-71.6599 0.5195 650.6869 69.2217 4455.3589 4692.7988
-72.0444 0.5202 651.6815 69.2355 4456.4253 4694.0840
-72.6145 0.5211 653.1586 69.2560 4458.0088 4695.3701
-72.9893 0.5218 654.1313 69.2695 4459.0508 4696.6582
-73.5515 0.5228 655.5930 69.2898 4460.6172 4697.9463
-74.1122 0.5238 657.0543 69.3100 4462.1821 4699.2354
-74.3013 0.5241 657.5477 69.3168 4462.7104 4700.5264
-74.8598 0.5251 659.0083 69.3370 4464.2744 4701.8174
-75.2328 0.5258 659.9860 69.3505 4465.3208 4703.1084
-75.7861 0.5269 661.4398 69.3706 4466.8765 4704.4014
-76.3402 0.5279 662.9000 69.3907 4468.4380 4705.6963
-76.8856 0.5290 664.3420 69.4106 4469.9800 4706.9902
-77.0688 0.5294 664.8276 69.4172 4470.4990 4708.2861
-77.6193 0.5305 666.2899 69.4373 4472.0615 4709.5830
-77.9936 0.5313 667.2874 69.4510 4473.1265 4710.8799
-78.7449 0.5328 669.2971 69.4786 4475.2725 4712.1787
-78.9307 0.5332 669.7960 69.4854 4475.8047 4713.4805
-79.4904 0.5344 671.3027 69.5060 4477.4121 4714.7822
-79.8624 0.5353 672.3079 69.5197 4478.4839 4716.0850
-80.4110 0.5365 673.7957 69.5401 4480.0693 4717.3896
-80.9507 0.5377 675.2664 69.5601 4481.6362 4718.6934
-81.1325 0.5381 675.7634 69.5669 4482.1655 4719.9990
-81.6668 0.5394 677.2289 69.5868 4483.7251 4721.3057
-82.0260 0.5402 678.2181 69.6003 4484.7773 4722.6123
-82.5557 0.5415 679.6834 69.6202 4486.3354 4723.9209
-83.0848 0.5428 681.1551 69.6402 4487.8994 4725.2295
-83.6089 0.5441 682.6208 69.6600 4489.4561 4726.5391
-83.7839 0.5445 683.1120 69.6667 4489.9775 4727.8506
-84.3113 0.5459 684.5983 69.6868 4491.5547 4729.1611
-84.6740 0.5468 685.6256 69.7006 4492.6440 4730.4746
-85.2099 0.5482 687.1514 69.7212 4494.2612 4731.7900
-85.5699 0.5492 688.1822 69.7351 4495.3530 4733.1084
-86.0991 0.5506 689.7057 69.7556 4496.9658 4734.4277
-86.4519 0.5516 690.7275 69.7693 4498.0469 4735.7480
-86.9743 0.5530 692.2487 69.7898 4499.6553 4737.0693
-87.4882 0.5545 693.7560 69.8100 4501.2480 4738.3906
-87.6596 0.5550 694.2612 69.8167 4501.7812 4739.7139
-88.1656 0.5564 695.7598 69.8368 4503.3633 4741.0371
-88.5060 0.5574 696.7744 69.8503 4504.4331 4742.3613
-89.0044 0.5589 698.2693 69.8703 4506.0093 4743.6865
-89.4936 0.5604 699.7479 69.8900 4507.5664 4745.0137
-89.9788 0.5619 701.2261 69.9097 4509.1226 4746.3408
-90.1425 0.5624 701.7277 69.9164 4509.6499 4747.6699
-90.6382 0.5640 703.2543 69.9366 4511.2549 4749.0000
-90.9718 0.5651 704.2891 69.9504 4512.3423 4750.3311
-91.6368 0.5673 706.3708 69.9780 4514.5273 4751.6641
-91.8034 0.5678 706.8964 69.9849 4515.0791 4752.9971
-92.2977 0.5695 708.4653 70.0056 4516.7241 4754.3311
-92.6230 0.5706 709.5059 70.0194 4517.8140 4755.6650
-93.0999 0.5723 711.0436 70.0396 4519.4243 4757.0010
-93.5688 0.5739 712.5706 70.0597 4521.0215 4758.3369
-93.7261 0.5745 713.0862 70.0665 4521.5605 4759.6748
-94.1914 0.5762 714.6215 70.0867 4523.1650 4761.0137
-94.5043 0.5774 715.6628 70.1003 4524.2520 4762.3535
-95.1236 0.5797 717.7455 70.1276 4526.4248 4763.6953
-95.2776 0.5803 718.2679 70.1344 4526.9697 4765.0381
-95.7290 0.5820 719.8110 70.1545 4528.5771 4766.3818
-96.0318 0.5832 720.8554 70.1681 4529.6646 4767.7275
-96.4731 0.5850 722.3923 70.1881 4531.2637 4769.0752
-96.9051 0.5867 723.9135 70.2079 4532.8452 4770.4229
-97.3356 0.5885 725.4471 70.2277 4534.4380 4771.7734
-97.4797 0.5891 725.9645 70.2344 4534.9751 4773.1250
-97.7706 0.5904 727.0152 70.2480 4536.0654 4774.4775
-98.2027 0.5922 728.5923 70.2684 4537.7007 4775.8301
-98.6236 0.5941 730.1478 70.2884 4539.3120 4777.1846
-98.9011 0.5953 731.1843 70.3018 4540.3848 4778.5391
-99.1833 0.5966 732.2475 70.3154 4541.4849 4779.8955
-99.5949 0.5985 733.8156 70.3356 4543.1060 4781.2520
-99.8659 0.5997 734.8597 70.3490 4544.1851 4782.6104
-100.2547 0.6016 736.3744 70.3683 4545.7485 4783.9697
-100.6432 0.6035 737.9084 70.3879 4547.3311 4785.3291
-100.9054 0.6048 738.9557 70.4013 4548.4106 4786.6914
-101.1702 0.6061 740.0238 70.4149 4549.5112 4788.0547
-101.5607 0.6081 741.6187 70.4352 4551.1533 4789.4189
-101.9407 0.6100 743.1941 70.4552 4552.7739 4790.7852
-102.0665 0.6107 743.7208 70.4619 4553.3154 4792.1523
-102.4385 0.6127 745.2950 70.4819 4554.9326 4793.5186
-102.6827 0.6140 746.3419 70.4952 4556.0078 4794.8838
-103.0509 0.6160 747.9415 70.5155 4557.6494 4796.2480
-103.2944 0.6174 749.0141 70.5290 4558.7490 4797.6162
-103.6497 0.6194 750.6012 70.5491 4560.3755 4798.9844
-103.8822 0.6208 751.6543 70.5624 4561.4541 4800.3535
-104.2212 0.6228 753.2121 70.5820 4563.0483 4801.7236
-104.5591 0.6248 754.7917 70.6019 4564.6636 4803.0947
-104.8904 0.6269 756.3683 70.6217 4566.2744 4804.4658
-105.0000 0.6275 756.8962 70.6283 4566.8140 4805.8389
-105.3208 0.6296 758.4605 70.6479 4568.4106 4807.2139
-105.5350 0.6310 759.5214 70.6612 4569.4932 4808.5889
-105.8447 0.6330 761.0800 70.6807 4571.0820 4809.9658
-106.1516 0.6351 762.6545 70.7004 4572.6860 4811.3438
-106.4554 0.6372 764.2449 70.7202 4574.3052 4812.7217
-106.5563 0.6379 764.7802 70.7269 4574.8501 4814.1006
-106.7563 0.6393 765.8525 70.7402 4575.9409 4815.4805
-107.0539 0.6415 767.4773 70.7604 4577.5928 4816.8604
-107.2514 0.6430 768.5754 70.7741 4578.7085 4818.2412
-107.5417 0.6452 770.2208 70.7945 4580.3794 4819.6230
-107.7315 0.6466 771.3171 70.8081 4581.4917 4821.0059
-108.0036 0.6488 772.9205 70.8279 4583.1182 4822.3887
-108.2711 0.6510 774.5338 70.8478 4584.7534 4823.7725
-108.3569 0.6517 775.0602 70.8543 4585.2871 4825.1582
-108.6136 0.6538 776.6598 70.8741 4586.9067 4826.5439
-108.7800 0.6553 777.7189 70.8871 4587.9790 4827.9307
-109.0246 0.6574 779.3086 70.9067 4589.5874 4829.3193
-109.2615 0.6596 780.8888 70.9261 4591.1851 4830.7090
-109.4944 0.6618 782.4848 70.9457 4592.7983 4832.0986
-109.5709 0.6625 783.0183 70.9522 4593.3374 4833.4893
-109.7986 0.6647 784.6379 70.9721 4594.9727 4834.8818
-109.9465 0.6662 785.7160 70.9853 4596.0610 4836.2734
-110.1629 0.6684 787.3329 71.0050 4597.6924 4837.6650
-110.3718 0.6706 788.9426 71.0247 4599.3154 4839.0586
-110.5734 0.6728 790.5463 71.0443 4600.9316 4840.4521
-110.6400 0.6735 791.0868 71.0508 4601.4761 4841.8467
-110.8329 0.6757 792.6896 71.0704 4603.0908 4843.2422
-110.9584 0.6772 793.7620 71.0834 4604.1704 4844.6387
-111.1395 0.6794 795.3558 71.1028 4605.7744 4846.0361
-111.3139 0.6816 796.9470 71.1221 4607.3750 4847.4336
-111.4835 0.6838 798.5527 71.1416 4608.9897 4848.8330
-111.5387 0.6845 799.0891 71.1481 4609.5288 4850.2324
-111.6993 0.6867 800.6914 71.1675 4611.1392 4851.6338
-111.8036 0.6882 801.7675 71.1805 4612.2207 4853.0352
-112.0051 0.6912 803.9396 71.2068 4614.4019 4854.4365
-112.0541 0.6919 804.4881 71.2134 4614.9526 4855.8389
-112.1994 0.6942 806.1674 71.2337 4616.6382 4857.2422
-112.2912 0.6957 807.2728 71.2470 4617.7476 4858.6455
-112.4206 0.6980 808.8986 71.2666 4619.3784 4860.0498
-112.5407 0.7001 810.4886 71.2857 4620.9731 4861.4541
-112.5799 0.7009 811.0274 71.2922 4621.5132 4862.8584
-112.6931 0.7031 812.6407 71.3116 4623.1304 4864.2646
-112.7660 0.7046 813.7327 71.3247 4624.2251 4865.6709
-112.8697 0.7068 815.3696 71.3444 4625.8652 4867.0791
-112.9663 0.7090 817.0013 71.3639 4627.4995 4868.4873
-113.0569 0.7112 818.6448 71.3836 4629.1455 4869.8965
-113.0855 0.7120 819.1912 71.3902 4629.6929 4871.3066
-113.1660 0.7142 820.8124 71.4096 4631.3159 4872.7178
-113.2165 0.7156 821.9061 71.4227 4632.4106 4874.1279
-113.2853 0.7178 823.5114 71.4419 4634.0176 4875.5400
-113.3285 0.7193 824.6045 71.4549 4635.1113 4876.9521
-113.3871 0.7214 826.2270 71.4743 4636.7349 4878.3643
-113.4230 0.7229 827.3247 71.4874 4637.8335 4879.7773
-113.4704 0.7251 828.9434 71.5067 4639.4526 4881.1904
-113.5113 0.7272 830.5627 71.5260 4641.0728 4882.6045
-113.5458 0.7294 832.1902 71.5453 4642.7002 4884.0195
-113.5558 0.7301 832.7324 71.5518 4643.2427 4885.4346
-113.5816 0.7322 834.3605 71.5712 4644.8711 4886.8516
-113.5950 0.7336 835.4418 71.5840 4645.9526 4888.2686
-113.6098 0.7358 837.0709 71.6034 4647.5815 4889.6865
-113.6181 0.7379 838.7117 71.6228 4649.2227 4891.1055
-113.6193 0.7386 839.2584 71.6293 4649.7690 4892.5254
-113.6187 0.7407 840.8912 71.6487 4651.4019 4893.9453
-113.6146 0.7421 841.9825 71.6616 4652.4932 4895.3652
-113.6032 0.7442 843.5963 71.6807 4654.1069 4896.7861
-113.5852 0.7462 845.2142 71.6999 4655.7251 4898.2061
-113.5606 0.7483 846.8474 71.7192 4657.3584 4899.6270
-113.5509 0.7490 847.3923 71.7257 4657.9033 4901.0479
-113.5172 0.7511 849.0396 71.7451 4659.5513 4902.4697
-113.4906 0.7524 850.1545 71.7583 4660.6665 4903.8916
-113.4459 0.7545 851.7950 71.7777 4662.3076 4905.3145
-113.3954 0.7565 853.4136 71.7968 4663.9268 4906.7373
-113.3374 0.7585 855.0596 71.8162 4665.5737 4908.1611
-113.3167 0.7592 855.6063 71.8227 4666.1211 4909.5869
-113.2492 0.7612 857.2688 71.8423 4667.7847 4911.0107
-113.2010 0.7625 858.3661 71.8552 4668.8833 4912.4375
-113.1236 0.7645 860.0043 71.8745 4670.5229 4913.8643
-113.0688 0.7657 861.0870 71.8873 4671.6074 4915.2900
-112.9810 0.7677 862.7167 71.9065 4673.2393 4916.7158
-112.9178 0.7690 863.8207 71.9195 4674.3452 4918.1416
-112.8183 0.7709 865.4655 71.9388 4675.9932 4919.5684
-112.7118 0.7728 867.1168 71.9582 4677.6475 4920.9951
-112.6006 0.7746 868.7407 71.9773 4679.2754 4922.4209
-112.5619 0.7752 869.2854 71.9837 4679.8213 4923.8477
-112.4425 0.7771 870.9070 72.0028 4681.4473 4925.2744
-112.3577 0.7783 872.0088 72.0157 4682.5527 4926.7021
-112.2258 0.7801 873.6528 72.0351 4684.2017 4928.1289
-112.0869 0.7819 875.3018 72.0544 4685.8564 4929.5566
-112.0388 0.7825 875.8564 72.0609 4686.4136 4930.9854
-111.8892 0.7843 877.5277 72.0806 4688.0913 4932.4131
-111.7865 0.7855 878.6345 72.0935 4689.2026 4933.8428
-111.6289 0.7872 880.2747 72.1129 4690.8506 4935.2676
-111.4662 0.7889 881.9023 72.1322 4692.4863 4936.6768
-111.3543 0.7900 882.9866 72.1451 4693.5762 4938.0771
-111.2365 0.7911 884.1005 72.1584 4694.6968 4939.4775
-111.0575 0.7928 885.7416 72.1780 4696.3472 4940.8770
-110.9338 0.7939 886.8430 72.1912 4697.4556 4942.2754
-110.7487 0.7955 888.4454 72.2104 4699.0688 4943.6729
-110.5579 0.7970 890.0451 72.2295 4700.6797 4945.0693
-110.4266 0.7980 891.1177 72.2424 4701.7603 4946.4619
-110.2885 0.7991 892.2224 72.2558 4702.8735 4947.8467
-110.0728 0.8007 893.9034 72.2761 4704.5684 4949.2305
-109.8466 0.8022 895.6140 72.2968 4706.2939 4950.6123
-109.7702 0.8027 896.1803 72.3037 4706.8652 4951.9941
-109.5373 0.8043 897.8731 72.3243 4708.5742 4953.3721
-109.3813 0.8052 898.9808 72.3379 4709.6929 4954.7412
-109.1439 0.8067 900.6285 72.3581 4711.3574 4956.1084
-108.9038 0.8080 902.2523 72.3781 4712.9990 4957.4736
-108.7407 0.8089 903.3322 72.3914 4714.0908 4958.8389
-108.5745 0.8098 904.4143 72.4047 4715.1860 4960.2041
-108.3190 0.8112 906.0447 72.4248 4716.8364 4961.5674
-108.1449 0.8120 907.1339 72.4383 4717.9395 4962.9287
-107.8856 0.8133 908.7253 72.4579 4719.5518 4964.2900
-107.6188 0.8145 910.3263 72.4777 4721.1748 4965.6533
-107.4359 0.8153 911.4036 72.4911 4722.2676 4967.0166
-107.2446 0.8161 912.5142 72.5048 4723.3945 4968.3799
-106.9571 0.8173 914.1525 72.5251 4725.0576 4969.7432
-106.7622 0.8181 915.2440 72.5387 4726.1665 4971.1064
-106.3652 0.8196 917.4214 72.5657 4728.3799 4972.4697
-106.2634 0.8200 917.9699 72.5725 4728.9375 4973.8311
-105.9520 0.8211 919.6263 72.5931 4730.6230 4975.1943
-105.7379 0.8218 920.7463 72.6071 4731.7632 4976.5557
-105.4134 0.8229 922.4154 72.6279 4733.4639 4977.9170
-105.0864 0.8239 924.0654 72.6485 4735.1460 4979.2793
-104.9775 0.8242 924.6083 72.6552 4735.6997 4980.6406
-104.6437 0.8252 926.2514 72.6758 4737.3760 4982.0020
-104.4183 0.8258 927.3441 72.6894 4738.4917 4983.3633
-104.0788 0.8267 928.9652 72.7097 4740.1479 4984.7246
-103.7349 0.8275 930.5796 72.7299 4741.7988 4986.0850
-103.5022 0.8281 931.6564 72.7434 4742.9004 4987.4463
-103.2639 0.8287 932.7464 72.7570 4744.0161 4988.8076
-102.9031 0.8295 934.3742 72.7775 4745.6836 4990.1689
-102.6611 0.8300 935.4512 72.7910 4746.7871 4991.5283
-102.2974 0.8307 937.0484 72.8111 4748.4253 4992.8896
-102.0476 0.8312 938.1309 72.8247 4749.5361 4994.2510
-101.6693 0.8319 939.7491 72.8450 4751.1982 4995.6113
-101.4136 0.8323 940.8284 72.8586 4752.3071 4996.9717
-101.0284 0.8329 942.4344 72.8788 4753.9590 4998.3330
-100.7694 0.8333 943.5006 72.8923 4755.0562 4999.6943
-100.2383 0.8341 945.6555 72.9194 4757.2754 5001.0547
-100.1050 0.8343 946.1894 72.9262 4757.8257 5002.4160
-99.6917 0.8348 947.8300 72.9469 4759.5176 5003.7773
-99.4092 0.8352 948.9375 72.9609 4760.6606 5005.1387
-98.9858 0.8357 950.5780 72.9816 4762.3550 5006.5010
-98.5630 0.8361 952.1932 73.0020 4764.0244 5007.8623
-98.4213 0.8362 952.7298 73.0088 4764.5796 5009.2236
-97.9900 0.8366 954.3477 73.0293 4766.2539 5010.5869
-97.6946 0.8369 955.4434 73.0432 4767.3887 5011.9492
-97.2502 0.8373 957.0734 73.0639 4769.0781 5013.3115
-96.7950 0.8376 958.7209 73.0848 4770.7876 5014.6748
-96.4945 0.8378 959.7968 73.0984 4771.9043 5016.0381
-96.1849 0.8380 960.8956 73.1124 4773.0459 5017.4014
-95.7219 0.8382 962.5216 73.1330 4774.7368 5018.7666
-95.2550 0.8384 964.1407 73.1536 4776.4219 5020.1299
-94.7835 0.8386 965.7553 73.1741 4778.1040 5021.4951
-94.6284 0.8387 966.2823 73.1808 4778.6533 5022.8604
-94.1530 0.8388 967.8849 73.2012 4780.3247 5024.2256
-93.8304 0.8389 968.9612 73.2149 4781.4482 5025.5898
-93.3477 0.8390 970.5562 73.2353 4783.1147 5026.9521
-92.8641 0.8390 972.1357 73.2554 4784.7666 5028.3154
-92.3750 0.8391 973.7156 73.2755 4786.4209 5029.6797
-92.2106 0.8391 974.2425 73.2823 4786.9727 5031.0439
-91.7056 0.8391 975.8492 73.3028 4788.6567 5032.4092
-91.3646 0.8390 976.9239 73.3165 4789.7842 5033.7744
-90.8462 0.8390 978.5424 73.3372 4791.4839 5035.1396
-90.3299 0.8389 980.1370 73.3575 4793.1597 5036.5068
-90.1545 0.8389 980.6748 73.3644 4793.7256 5037.8740
-89.6283 0.8388 982.2766 73.3849 4795.4116 5039.2432
-89.2693 0.8387 983.3597 73.3987 4796.5527 5040.6113
-88.7276 0.8385 984.9794 73.4195 4798.2603 5041.9805
-88.1788 0.8383 986.6029 73.4403 4799.9741 5043.3506
-87.6258 0.8381 988.2218 73.4610 4801.6851 5044.7217
-87.4439 0.8380 988.7507 73.4678 4802.2441 5046.0928
-86.8841 0.8378 990.3671 73.4885 4803.9551 5047.4658
-86.3185 0.8375 991.9837 73.5093 4805.6675 5048.8389
-85.7531 0.8372 993.5836 73.5298 4807.3643 5050.2119
-85.5623 0.8371 994.1199 73.5367 4807.9336 5051.5869
-84.9968 0.8367 995.6992 73.5570 4809.6108 5052.9619
-84.6122 0.8365 996.7647 73.5707 4810.7441 5054.3389
-84.0386 0.8361 998.3411 73.5910 4812.4214 5055.7158
-83.4577 0.8357 999.9225 73.6113 4814.1060 5057.0928
-82.8698 0.8353 1001.5077 73.6317 4815.7969 5058.4717
-82.6699 0.8351 1002.0435 73.6386 4816.3687 5059.8506
-82.0729 0.8347 1003.6334 73.6591 4818.0669 5061.2295
-81.6715 0.8344 1004.6943 73.6728 4819.2012 5062.6084
-81.0687 0.8339 1006.2753 73.6932 4820.8936 5063.9893
-80.4557 0.8334 1007.8683 73.7138 4822.6001 5065.3711
-80.2517 0.8332 1008.3956 73.7206 4823.1655 5066.7529
-79.6361 0.8326 1009.9764 73.7410 4824.8623 5068.1357
-79.2238 0.8323 1011.0273 73.7546 4825.9912 5069.5186
-78.6102 0.8317 1012.5801 73.7747 4827.6606 5070.9033
-77.9913 0.8311 1014.1329 73.7948 4829.3320 5072.2881
-77.3670 0.8305 1015.6860 73.8150 4831.0059 5073.6729
-76.7179 0.8299 1017.2870 73.8357 4832.7339 5075.0596
-76.4999 0.8296 1017.8217 73.8427 4833.3110 5076.4463
-76.0612 0.8292 1018.8929 73.8566 4834.4688 5077.8340
-75.4043 0.8285 1020.4857 73.8773 4836.1914 5079.2217
-74.7532 0.8278 1022.0511 73.8976 4837.8867 5080.6113
-74.3119 0.8274 1023.1048 73.9113 4839.0293 5082.0010
-73.8608 0.8269 1024.1759 73.9253 4840.1914 5083.3916
-73.1774 0.8261 1025.7875 73.9463 4841.9419 5084.7832
-72.4939 0.8254 1027.3860 73.9671 4843.6807 5086.1748
-71.8166 0.8246 1028.9572 73.9876 4845.3916 5087.5674
-71.5871 0.8243 1029.4866 73.9945 4845.9688 5088.9609
-70.8996 0.8235 1031.0645 74.0151 4847.6899 5090.3545
-70.4315 0.8230 1032.1316 74.0291 4848.8550 5091.7490
-69.7310 0.8222 1033.7183 74.0498 4850.5894 5093.1426
-69.0275 0.8213 1035.2990 74.0705 4852.3193 5094.5381
-68.7925 0.8211 1035.8243 74.0774 4852.8950 5095.9326
-68.0872 0.8202 1037.3928 74.0980 4854.6147 5097.3291
-67.6154 0.8197 1038.4354 74.1116 4855.7593 5098.7256
-66.9075 0.8188 1039.9900 74.1320 4857.4673 5100.1230
-66.1953 0.8179 1041.5421 74.1524 4859.1753 5101.5205
-65.4833 0.8170 1043.0825 74.1727 4860.8721 5102.9199
-65.2419 0.8168 1043.6024 74.1795 4861.4453 5104.3193
-64.5230 0.8159 1045.1423 74.1998 4863.1450 5105.7197
-64.0392 0.8153 1046.1726 74.2134 4864.2832 5107.1201
-63.3132 0.8144 1047.7095 74.2336 4865.9829 5108.5225
-62.5656 0.8134 1049.2803 74.2544 4867.7222 5109.9248
-61.8166 0.8125 1050.8429 74.2750 4869.4551 5111.3281
-61.5626 0.8122 1051.3701 74.2820 4870.0405 5112.7324
-60.8192 0.8112 1052.9062 74.3023 4871.7471 5114.1377
-60.3174 0.8106 1053.9371 74.3159 4872.8936 5115.5430
-59.5622 0.8096 1055.4794 74.3364 4874.6108 5116.9502
-58.7965 0.8086 1057.0321 74.3569 4876.3418 5118.3564
-58.2840 0.8080 1058.0654 74.3707 4877.4956 5119.7646
-57.7677 0.8073 1059.1017 74.3844 4878.6533 5121.1729
-56.9964 0.8063 1060.6407 74.4049 4880.3750 5122.5811
-56.4790 0.8057 1061.6674 74.4185 4881.5244 5123.9893
-55.7083 0.8047 1063.1880 74.4388 4883.2290 5125.3994
-55.1882 0.8040 1064.2085 74.4523 4884.3745 5126.8096
-54.4064 0.8030 1065.7339 74.4727 4886.0889 5128.2197
-53.8746 0.8024 1066.7657 74.4865 4887.2495 5129.6309
-53.0755 0.8014 1068.3077 74.5070 4888.9863 5131.0420
-52.2694 0.8003 1069.8529 74.5277 4890.7290 5132.4551
-51.4586 0.7993 1071.3967 74.5484 4892.4727 5133.8682
-51.1898 0.7990 1071.9065 74.5552 4893.0488 5135.2812
-50.3741 0.7979 1073.4462 74.5758 4894.7915 5136.6963
-49.8294 0.7972 1074.4688 74.5895 4895.9502 5138.1104
-49.0098 0.7962 1075.9991 74.6101 4897.6860 5139.5264
-48.1970 0.7952 1077.5073 74.6303 4899.3994 5140.9424
-47.3685 0.7942 1079.0349 74.6509 4901.1372 5142.3604
-47.0896 0.7938 1079.5469 74.6578 4901.7202 5143.7783
-46.5278 0.7931 1080.5750 74.6716 4902.8916 5145.1973
-45.6947 0.7921 1082.0917 74.6921 4904.6221 5146.6172
-44.8648 0.7911 1083.5930 74.7123 4906.3379 5148.0381
-44.0223 0.7900 1085.1080 74.7328 4908.0713 5149.4580
-43.7361 0.7897 1085.6205 74.7397 4908.6582 5150.8799
-42.8650 0.7886 1087.1738 74.7607 4910.4390 5152.3018
-42.2725 0.7879 1088.2247 74.7750 4911.6455 5153.7246
-41.3982 0.7869 1089.7675 74.7959 4913.4189 5155.1475
-40.5417 0.7858 1091.2697 74.8163 4915.1479 5156.5713
-39.6755 0.7848 1092.7795 74.8368 4916.8887 5157.9961
-39.3838 0.7845 1093.2859 74.8437 4917.4731 5159.4209
-38.4932 0.7834 1094.8258 74.8646 4919.2520 5160.8467
-37.5955 0.7824 1096.3688 74.8856 4921.0371 5162.2744
-36.7092 0.7813 1097.8827 74.9062 4922.7915 5163.7002
-36.4167 0.7810 1098.3805 74.9130 4923.3687 5165.1279
-35.7910 0.7803 1099.4419 74.9275 4924.6011 5166.5576
-34.8877 0.7792 1100.9663 74.9483 4926.3726 5167.9873
-33.9937 0.7782 1102.4663 74.9689 4928.1191 5169.4170
-33.0797 0.7772 1103.9910 74.9898 4929.8965 5170.8467
-32.7731 0.7769 1104.5004 74.9967 4930.4912 5172.2783
-31.8428 0.7758 1106.0398 75.0179 4932.2900 5173.7100
-30.9135 0.7748 1107.5685 75.0388 4934.0786 5175.1436
-29.9764 0.7738 1109.1012 75.0599 4935.8755 5176.5752
-29.6606 0.7734 1109.6155 75.0670 4936.4790 5178.0088
-29.0214 0.7728 1110.6537 75.0813 4937.6978 5179.4424
-28.0732 0.7717 1112.1863 75.1024 4939.5000 5180.8760
-27.1290 0.7707 1113.7035 75.1234 4941.2871 5182.3096
-26.5002 0.7701 1114.7091 75.1373 4942.4731 5183.7441
-25.8666 0.7694 1115.7185 75.1512 4943.6650 5185.1787
-24.9237 0.7684 1117.2136 75.1719 4945.4326 5186.6133
-23.9765 0.7675 1118.7069 75.1926 4947.2012 5188.0479
-23.0317 0.7665 1120.1885 75.2132 4948.9580 5189.4834
-22.7189 0.7662 1120.6770 75.2200 4949.5381 5190.9189
-21.7737 0.7653 1122.1482 75.2404 4951.2871 5192.3555
-21.1318 0.7646 1123.1427 75.2542 4952.4707 5193.7920
-20.1621 0.7637 1124.6379 75.2751 4954.2529 5195.2295
-19.1942 0.7628 1126.1224 75.2958 4956.0249 5196.6660
-18.8723 0.7624 1126.6143 75.3027 4956.6128 5198.1035
-17.9040 0.7615 1128.0884 75.3232 4958.3765 5199.5420
-17.2577 0.7609 1129.0679 75.3369 4959.5498 5200.9795
-16.2886 0.7600 1130.5300 75.3574 4961.3042 5202.4189
-15.3162 0.7591 1131.9893 75.3779 4963.0576 5203.8574
-14.3622 0.7582 1133.4132 75.3979 4964.7715 5205.2979
-13.3902 0.7574 1134.8564 75.4181 4966.5117 5206.7373
-13.0634 0.7571 1135.3401 75.4249 4967.0952 5208.1787
-12.0552 0.7562 1136.8264 75.4459 4968.8911 5209.6182
-11.3839 0.7556 1137.8118 75.4597 4970.0835 5211.0596
-10.3674 0.7547 1139.2970 75.4807 4971.8833 5212.5020
-9.3636 0.7539 1140.7557 75.5013 4973.6543 5213.9443
-9.0246 0.7536 1141.2467 75.5082 4974.2510 5215.3857
-8.0193 0.7527 1142.6974 75.5287 4976.0156 5216.8291
-7.3319 0.7522 1143.6849 75.5427 4977.2192 5218.2725
-5.9346 0.7510 1145.6816 75.5710 4979.6562 5219.7158
-5.5872 0.7507 1146.1759 75.5780 4980.2603 5221.1602
-4.5447 0.7499 1147.6537 75.5990 4982.0688 5222.6045
-3.8537 0.7494 1148.6288 75.6128 4983.2637 5224.0498
-2.8170 0.7485 1150.0854 75.6336 4985.0518 5225.4951
-1.7765 0.7477 1151.5399 75.6543 4986.8398 5226.9404
-1.4262 0.7475 1152.0280 75.6612 4987.4409 5228.3877
-0.3907 0.7467 1153.4652 75.6818 4989.2124 5229.8340
0.3138 0.7462 1154.4391 75.6957 4990.4141 5231.2812
1.3469 0.7454 1155.8608 75.7160 4992.1714 5232.7295
2.3725 0.7447 1157.2651 75.7362 4993.9106 5234.1777
3.4104 0.7439 1158.6793 75.7565 4995.6646 5235.6260
3.7575 0.7437 1159.1506 75.7632 4996.2500 5237.0762
4.8252 0.7429 1160.5955 75.7840 4998.0464 5238.5254
5.5431 0.7424 1161.5629 75.7979 4999.2515 5239.9756
6.6057 0.7417 1162.9886 75.8185 5001.0293 5241.4248
7.6704 0.7410 1164.4100 75.8390 5002.8052 5242.8760
8.7403 0.7403 1165.8312 75.8595 5004.5845 5244.3262
9.1048 0.7400 1166.3137 75.8665 5005.1890 5245.7764
10.1999 0.7393 1167.7587 75.8874 5007.0020 5247.2285
10.9367 0.7388 1168.7267 75.9015 5008.2188 5248.6797
12.0159 0.7382 1170.1385 75.9220 5009.9956 5250.1318
12.7378 0.7377 1171.0791 75.9357 5011.1812 5251.5840
13.8129 0.7370 1172.4741 75.9560 5012.9424 5253.0361
14.5445 0.7366 1173.4194 75.9697 5014.1377 5254.4893
15.6486 0.7359 1174.8402 75.9905 5015.9370 5255.9424
16.7462 0.7353 1176.2456 76.0110 5017.7207 5257.3965
17.4598 0.7349 1177.1556 76.0243 5018.8770 5258.8506
18.1882 0.7344 1178.0817 76.0379 5020.0552 5260.3057
19.2845 0.7338 1179.4695 76.0583 5021.8237 5261.7607
20.0351 0.7334 1180.4159 76.0722 5023.0317 5263.2178
21.1538 0.7328 1181.8207 76.0928 5024.8276 5264.6738
22.2986 0.7322 1183.2512 76.1139 5026.6597 5266.1318
22.6759 0.7320 1183.7211 76.1208 5027.2622 5267.5889
23.8169 0.7313 1185.1373 76.1417 5029.0811 5269.0469
24.5630 0.7310 1186.0597 76.1553 5030.2671 5270.5049
25.6925 0.7304 1187.4504 76.1759 5032.0591 5271.9629
26.8252 0.7298 1188.8384 76.1965 5033.8501 5273.4209
27.9465 0.7292 1190.2057 76.2168 5035.6187 5274.8789
28.3224 0.7290 1190.6627 76.2236 5036.2104 5276.3379
29.4504 0.7285 1192.0295 76.2439 5037.9824 5277.7959
30.2182 0.7281 1192.9562 76.2578 5039.1860 5279.2559
31.3504 0.7276 1194.3174 76.2781 5040.9565 5280.7158
32.1104 0.7272 1195.2274 76.2917 5042.1421 5282.1748
33.2572 0.7267 1196.5951 76.3121 5043.9272 5283.6348
34.0309 0.7263 1197.5143 76.3259 5045.1284 5285.0947
35.1722 0.7258 1198.8649 76.3462 5046.8970 5286.5557
35.9300 0.7255 1199.7581 76.3596 5048.0684 5288.0166
37.0559 0.7250 1201.0802 76.3795 5049.8047 5289.4775
37.8238 0.7246 1201.9784 76.3930 5050.9863 5290.9404
38.9833 0.7241 1203.3295 76.4134 5052.7666 5292.4014
39.7649 0.7238 1204.2366 76.4271 5053.9644 5293.8643
40.9070 0.7233 1205.5570 76.4471 5055.7100 5295.3271
41.6731 0.7230 1206.4393 76.4605 5056.8784 5296.7900
42.8124 0.7225 1207.7467 76.4803 5058.6128 5298.2529
43.5974 0.7222 1208.6439 76.4939 5059.8047 5299.7158
44.7784 0.7218 1209.9886 76.5144 5061.5942 5301.1777
45.5877 0.7214 1210.9065 76.5284 5062.8184 5302.6396
46.7865 0.7210 1212.2607 76.5491 5064.6270 5304.1025
47.9852 0.7205 1213.6088 76.5697 5066.4307 5305.5654
48.3791 0.7204 1214.0503 76.5765 5067.0225 5307.0283
49.5786 0.7199 1215.3907 76.5970 5068.8213 5308.4912
50.3859 0.7196 1216.2894 76.6108 5070.0293 5309.9541
51.5868 0.7192 1217.6212 76.6313 5071.8223 5311.4180
52.3996 0.7189 1218.5190 76.6451 5073.0337 5312.8818
53.9878 0.7183 1220.2654 76.6721 5075.3940 5314.3447
54.3775 0.7182 1220.6923 76.6787 5075.9722 5315.8096
55.5274 0.7178 1221.9482 76.6981 5077.6748 5317.2725
56.3136 0.7175 1222.8038 76.7114 5078.8369 5318.7373
57.5169 0.7171 1224.1084 76.7316 5080.6118 5320.2021
58.3318 0.7168 1224.9886 76.7453 5081.8110 5321.6670
59.5633 0.7164 1226.3137 76.7660 5083.6201 5323.1328
60.3870 0.7161 1227.1965 76.7797 5084.8276 5324.5986
61.6230 0.7157 1228.5164 76.8003 5086.6357 5326.0645
62.8465 0.7153 1229.8167 76.8207 5088.4214 5327.5303
63.2541 0.7152 1230.2487 76.8275 5089.0151 5328.9971
64.4572 0.7148 1231.5197 76.8474 5090.7656 5330.4629
65.2634 0.7145 1232.3683 76.8607 5091.9360 5331.9287
66.4604 0.7142 1233.6237 76.8805 5093.6704 5333.3955
67.6674 0.7138 1234.8839 76.9003 5095.4155 5334.8613
68.8733 0.7134 1236.1375 76.9202 5097.1548 5336.3271
69.2803 0.7133 1236.5593 76.9268 5097.7412 5337.7939
70.4894 0.7129 1237.8088 76.9466 5099.4800 5339.2598
71.3049 0.7127 1238.6486 76.9599 5100.6504 5340.7266
72.5111 0.7123 1239.8859 76.9796 5102.3784 5342.1924
73.7159 0.7119 1241.1166 76.9992 5104.1006 5343.6592
74.9305 0.7115 1242.3518 77.0189 5105.8330 5345.1260
75.3317 0.7114 1242.7585 77.0254 5106.4043 5346.5928
76.5631 0.7111 1244.0035 77.0453 5108.1553 5348.0596
77.3928 0.7108 1244.8394 77.0587 5109.3330 5349.5273
78.6301 0.7104 1246.0812 77.0786 5111.0859 5350.9951
79.8491 0.7101 1247.2992 77.0981 5112.8091 5352.4629
81.0927 0.7097 1248.5363 77.1181 5114.5635 5353.9307
81.5081 0.7096 1248.9482 77.1247 5115.1484 5355.3994
82.7597 0.7092 1250.1860 77.1447 5116.9087 5356.8662
83.5841 0.7090 1250.9984 77.1578 5118.0659 5358.3350
84.8048 0.7086 1252.1967 77.1773 5119.7769 5359.8018
85.6209 0.7083 1252.9951 77.1902 5120.9185 5361.2705
86.8516 0.7080 1254.1945 77.2097 5122.6367 5362.7373
87.6856 0.7077 1255.0044 77.2229 5123.7993 5364.2051
88.9458 0.7073 1256.2236 77.2428 5125.5527 5365.6729
90.2228 0.7070 1257.4535 77.2629 5127.3257 5367.1396
90.6470 0.7068 1257.8610 77.2696 5127.9141 5368.6074
91.9052 0.7064 1259.0656 77.2893 5129.6558 5370.0752
92.7413 0.7062 1259.8630 77.3024 5130.8115 5371.5430
93.9648 0.7058 1261.0260 77.3215 5132.4995 5373.0107
95.1682 0.7054 1262.1648 77.3403 5134.1562 5374.4785
96.3814 0.7051 1263.3080 77.3592 5135.8232 5375.9463
96.7915 0.7049 1263.6934 77.3656 5136.3857 5377.4150
98.0476 0.7045 1264.8701 77.3851 5138.1069 5378.8838
98.8833 0.7043 1265.6503 77.3980 5139.2505 5380.3516
100.1352 0.7039 1266.8145 77.4174 5140.9600 5381.8203
101.3816 0.7035 1267.9685 77.4366 5142.6587 5383.2881
102.2148 0.7032 1268.7372 77.4494 5143.7920 5384.7568
103.0585 0.7029 1269.5131 77.4624 5144.9385 5386.2256
104.3174 0.7025 1270.6666 77.4817 5146.6460 5387.6934
105.5726 0.7021 1271.8118 77.5010 5148.3447 5389.1611
106.8164 0.7017 1272.9414 77.5200 5150.0249 5390.6299
107.2334 0.7015 1273.3191 77.5263 5150.5879 5392.0986
108.4789 0.7011 1274.4435 77.5453 5152.2656 5393.5664
109.3204 0.7008 1275.2004 77.5581 5153.3975 5395.0342
110.5786 0.7004 1276.3280 77.5772 5155.0869 5396.5029
111.8337 0.6999 1277.4478 77.5962 5156.7690 5397.9717
112.2514 0.6998 1277.8192 77.6025 5157.3281 5399.4404
113.5031 0.6993 1278.9292 77.6214 5159.0010 5400.9082
114.3322 0.6990 1279.6617 77.6339 5160.1074 5402.3770
115.5793 0.6986 1280.7593 77.6527 5161.7686 5403.8457
116.4088 0.6982 1281.4867 77.6652 5162.8721 5405.3145
117.6491 0.6978 1282.5702 77.6838 5164.5190 5406.7832
118.4760 0.6974 1283.2898 77.6961 5165.6152 5408.2549
119.7039 0.6970 1284.3545 77.7145 5167.2402 5409.7295
120.5157 0.6966 1285.0558 77.7266 5168.3130 5411.2041
121.7179 0.6962 1286.0903 77.7445 5169.8989 5412.6787
122.9397 0.6957 1287.1372 77.7626 5171.5078 5414.1543
123.7640 0.6953 1287.8408 77.7749 5172.5918 5415.6299
124.6056 0.6950 1288.5569 77.7873 5173.6968 5417.1064
125.8521 0.6944 1289.6134 77.8058 5175.3306 5418.5830
127.0918 0.6939 1290.6593 77.8241 5176.9526 5420.0596
128.3283 0.6933 1291.6978 77.8423 5178.5674 5421.5361
128.7393 0.6932 1292.0417 77.8483 5179.1035 5423.0127
129.9862 0.6926 1293.0823 77.8666 5180.7275 5424.4912
130.8253 0.6922 1293.7797 77.8789 5181.8184 5425.9688
132.0614 0.6916 1294.8030 77.8970 5183.4233 5427.4473
133.2597 0.6911 1295.7904 77.9145 5184.9761 5428.9258
133.6622 0.6909 1296.1211 77.9203 5185.4971 5430.4043
134.8696 0.6903 1297.1099 77.9379 5187.0576 5431.8838
135.6860 0.6899 1297.7756 77.9498 5188.1108 5433.3623
136.9220 0.6893 1298.7798 77.9677 5189.7036 5434.8428
138.1378 0.6886 1299.7626 77.9853 5191.2666 5436.3213
139.3342 0.6880 1300.7251 78.0026 5192.8022 5437.8008
139.7393 0.6878 1301.0499 78.0085 5193.3218 5439.2783
140.9653 0.6872 1302.0299 78.0262 5194.8911 5440.7480
141.7901 0.6867 1302.6864 78.0382 5195.9453 5442.2119
143.0218 0.6860 1303.6627 78.0562 5197.5171 5443.6680
143.8387 0.6856 1304.3074 78.0681 5198.5576 5445.1172
145.0594 0.6849 1305.2667 78.0861 5200.1104 5446.5596
145.8719 0.6844 1305.9026 78.0980 5201.1421 5447.9941
147.0760 0.6837 1306.8408 78.1158 5202.6685 5449.4229
148.2768 0.6830 1307.7717 78.1336 5204.1880 5450.8438
149.4733 0.6823 1308.6946 78.1514 5205.6987 5452.2588
149.8686 0.6820 1308.9984 78.1573 5206.1973 5453.6660
151.0610 0.6813 1309.9116 78.1751 5207.6992 5455.0664
151.8580 0.6808 1310.5194 78.1871 5208.7017 5456.4600
153.0280 0.6801 1311.4076 78.2047 5210.1704 5457.8467
153.7979 0.6796 1311.9895 78.2163 5211.1357 5459.2275
155.3637 0.6785 1313.1669 78.2401 5213.0947 5460.6006
155.7574 0.6783 1313.4615 78.2461 5213.5864 5461.9678
156.9453 0.6775 1314.3474 78.2642 5215.0684 5463.3271
157.7287 0.6769 1314.9290 78.2762 5216.0439 5464.6807
158.9064 0.6761 1315.7991 78.2943 5217.5083 5466.0283
160.0766 0.6753 1316.6589 78.3123 5218.9604 5467.3701
161.2562 0.6744 1317.5206 78.3306 5220.4214 5468.7051
161.6510 0.6741 1317.8080 78.3367 5220.9097 5470.0342
162.4538 0.6735 1318.3904 78.3492 5221.9014 5471.3564
163.6427 0.6727 1319.2488 78.3678 5223.3677 5472.6709
164.4250 0.6721 1319.8108 78.3800 5224.3311 5473.9795
165.5829 0.6712 1320.6384 78.3982 5225.7544 5475.2822
166.3632 0.6706 1321.1934 78.4105 5226.7119 5476.5791
167.5303 0.6696 1322.0192 78.4290 5228.1416 5477.8682
168.6912 0.6687 1322.8354 78.4474 5229.5605 5479.1514
169.8347 0.6678 1323.6346 78.4657 5230.9556 5480.4287
170.2125 0.6675 1323.8975 78.4717 5231.4160 5481.6992
171.3470 0.6665 1324.6837 78.4899 5232.7964 5482.9629
172.1076 0.6659 1325.2080 78.5021 5233.7202 5484.2207
173.2420 0.6649 1325.9857 78.5204 5235.0952 5485.4717
174.3727 0.6639 1326.7559 78.5387 5236.4634 5486.7168
175.4946 0.6629 1327.5149 78.5570 5237.8179 5487.9561
175.8680 0.6626 1327.7665 78.5630 5238.2681 5489.1885
176.9813 0.6616 1328.5131 78.5812 5239.6089 5490.4170
177.7242 0.6609 1329.0084 78.5934 5240.5015 5491.6387
178.8320 0.6599 1329.7428 78.6116 5241.8306 5492.8545
179.9359 0.6589 1330.4695 78.6299 5243.1523 5494.0605
181.0307 0.6578 1331.1852 78.6481 5244.4604 5495.2559
181.4001 0.6575 1331.4255 78.6543 5244.9009 5496.4404
182.1408 0.6568 1331.9056 78.6668 5245.7837 5497.6143
183.2283 0.6557 1332.6062 78.6854 5247.0776 5498.7783
184.2961 0.6546 1333.2891 78.7037 5248.3447 5499.9307
185.3912 0.6535 1333.9841 78.7226 5249.6421 5501.0723
186.5042 0.6524 1334.6849 78.7419 5250.9570 5502.2041
186.8756 0.6520 1334.9176 78.7484 5251.3955 5503.3271
187.6143 0.6513 1335.3784 78.7614 5252.2661 5504.4434
188.7190 0.6501 1336.0629 78.7810 5253.5654 5505.5498
189.4420 0.6493 1336.5078 78.7938 5254.4146 5506.6455
190.5188 0.6482 1337.1658 78.8132 5255.6763 5507.7324
191.2392 0.6474 1337.6028 78.8262 5256.5190 5508.8086
192.3132 0.6462 1338.2499 78.8458 5257.7729 5509.8750
193.3889 0.6451 1338.8922 78.8655 5259.0259 5510.9307
193.7433 0.6447 1339.1025 78.8721 5259.4380 5511.9775
194.7904 0.6435 1339.7205 78.8916 5260.6538 5513.0146
195.4888 0.6427 1340.1295 78.9047 5261.4634 5514.0410
196.5267 0.6415 1340.7328 78.9243 5262.6636 5515.0576
197.5590 0.6403 1341.3274 78.9440 5263.8550 5516.0654
198.5899 0.6391 1341.9155 78.9637 5265.0420 5517.0635
198.9317 0.6387 1342.1093 78.9703 5265.4346 5518.0518
199.9616 0.6375 1342.6893 78.9904 5266.6167 5519.0303
200.6466 0.6366 1343.0719 79.0038 5267.4014 5519.9990
201.6661 0.6354 1343.6365 79.0240 5268.5669 5520.9580
202.6815 0.6342 1344.1931 79.0442 5269.7246 5521.9092
203.6851 0.6329 1344.7375 79.0643 5270.8662 5522.8496
204.0203 0.6325 1344.9181 79.0711 5271.2471 5523.7803
205.0166 0.6312 1345.4509 79.0914 5272.3770 5524.7021
205.6768 0.6304 1345.8008 79.1050 5273.1240 5525.6084
206.6671 0.6292 1346.3207 79.1255 5274.2427 5526.4951
207.6659 0.6279 1346.8391 79.1464 5275.3682 5527.3721
208.6506 0.6266 1347.3444 79.1671 5276.4746 5528.2412
208.9872 0.6262 1347.5155 79.1742 5276.8525 5529.1025
209.9776 0.6249 1348.0155 79.1954 5277.9619 5529.9541
210.6349 0.6240 1348.3439 79.2095 5278.6968 5530.7998
211.5916 0.6227 1348.8168 79.2303 5279.7637 5531.6367
212.5505 0.6214 1349.2849 79.2513 5280.8306 5532.4658
213.1876 0.6206 1349.5925 79.2653 5281.5381 5533.2881
213.8383 0.6197 1349.9039 79.2798 5282.2598 5534.1025
214.7850 0.6184 1350.3518 79.3010 5283.3071 5534.9092
215.4198 0.6175 1350.6487 79.3153 5284.0078 5535.7090
216.6785 0.6158 1351.2290 79.3439 5285.3936 5536.5010
216.9922 0.6153 1351.3719 79.3511 5285.7383 5537.2861
217.9276 0.6140 1351.7938 79.3727 5286.7646 5538.0625
218.5539 0.6132 1352.0728 79.3872 5287.4502 5538.8330
219.4783 0.6119 1352.4791 79.4089 5288.4600 5539.5957
220.3861 0.6106 1352.8721 79.4303 5289.4492 5540.3525
221.2887 0.6093 1353.2565 79.4517 5290.4302 5541.1025
221.5934 0.6089 1353.3848 79.4589 5290.7607 5541.8467
222.5156 0.6075 1353.7688 79.4811 5291.7598 5542.5840
223.1339 0.6066 1354.0225 79.4961 5292.4282 5543.3154
224.0542 0.6053 1354.3944 79.5185 5293.4209 5544.0400
224.6620 0.6044 1354.6362 79.5334 5294.0747 5544.7568
225.2652 0.6036 1354.8733 79.5483 5294.7231 5545.4688
226.1619 0.6023 1355.2200 79.5706 5295.6846 5546.1748
227.0536 0.6010 1355.5579 79.5929 5296.6382 5546.8779
227.9343 0.5997 1355.8848 79.6150 5297.5776 5547.5732
228.2226 0.5992 1355.9904 79.6223 5297.8848 5548.2627
229.0814 0.5980 1356.3004 79.6441 5298.7974 5548.9463
229.6454 0.5972 1356.5004 79.6585 5299.3960 5549.6279
230.4937 0.5959 1356.7957 79.6803 5300.2939 5550.3086
231.3468 0.5946 1357.0858 79.7023 5301.1953 5550.9893
232.1935 0.5934 1357.3671 79.7242 5302.0874 5551.6699
232.4752 0.5930 1357.4590 79.7315 5302.3838 5552.3467
233.3081 0.5917 1357.7266 79.7534 5303.2588 5553.0205
233.8676 0.5909 1357.9023 79.7681 5303.8452 5553.6924
234.6892 0.5897 1358.1548 79.7900 5304.7046 5554.3604
235.5108 0.5885 1358.4004 79.8120 5305.5620 5555.0283
236.3236 0.5873 1358.6364 79.8340 5306.4087 5555.6924
236.5957 0.5869 1358.7139 79.8414 5306.6914 5556.3564
237.3986 0.5857 1358.9376 79.8633 5307.5249 5557.0205
237.9347 0.5849 1359.0833 79.8780 5308.0806 5557.6846
238.7299 0.5838 1359.2933 79.9000 5308.9028 5558.3477
239.5248 0.5826 1359.4961 79.9221 5309.7231 5559.0107
240.3062 0.5815 1359.6884 79.9440 5310.5278 5559.6523
240.5688 0.5811 1359.7515 79.9513 5310.7979 5560.2842
241.3367 0.5800 1359.9310 79.9730 5311.5864 5560.9131
241.8608 0.5792 1360.0496 79.9878 5312.1240 5561.5420
242.6367 0.5781 1360.2189 80.0099 5312.9180 5562.1699
243.4045 0.5770 1360.3789 80.0318 5313.7026 5562.7939
243.6639 0.5766 1360.4314 80.0393 5313.9673 5563.4150
244.4284 0.5755 1360.5808 80.0615 5314.7461 5564.0342
244.9367 0.5748 1360.6759 80.0763 5315.2632 5564.6514
245.6885 0.5738 1360.8104 80.0984 5316.0269 5565.2666
246.1879 0.5731 1360.8955 80.1132 5316.5337 5565.8818
246.9320 0.5720 1361.0159 80.1353 5317.2876 5566.4951
247.4226 0.5714 1361.0911 80.1500 5317.7837 5567.1084
248.1519 0.5704 1361.1964 80.1719 5318.5205 5567.7236
248.6310 0.5697 1361.2615 80.1863 5319.0039 5568.3389
249.3375 0.5688 1361.3512 80.2076 5319.7163 5568.9580
250.0394 0.5679 1361.4329 80.2289 5320.4229 5569.5645
250.7420 0.5669 1361.5071 80.2502 5321.1294 5570.1475
250.9788 0.5666 1361.5304 80.2573 5321.3672 5570.7305
251.6800 0.5657 1361.5941 80.2787 5322.0713 5571.3115
252.1455 0.5651 1361.6320 80.2929 5322.5386 5571.8936
252.8248 0.5643 1361.6809 80.3136 5323.2197 5572.4736
253.2843 0.5637 1361.7096 80.3277 5323.6797 5573.0557
253.9719 0.5629 1361.7458 80.3487 5324.3687 5573.6367
254.4329 0.5623 1361.7655 80.3629 5324.8301 5574.2197
255.1063 0.5615 1361.7875 80.3835 5325.5039 5574.8037
255.7707 0.5608 1361.8010 80.4040 5326.1685 5575.3887
256.4332 0.5600 1361.8065 80.4243 5326.8306 5575.9756
256.6543 0.5598 1361.8065 80.4312 5327.0518 5576.5635
257.0970 0.5593 1361.8036 80.4448 5327.4946 5577.1533
257.7571 0.5586 1361.7921 80.4653 5328.1548 5577.7432
258.1944 0.5581 1361.7798 80.4790 5328.5923 5578.3340
258.8408 0.5574 1361.7545 80.4992 5329.2393 5578.9258
259.2673 0.5570 1361.7330 80.5127 5329.6660 5579.5117
259.8940 0.5564 1361.6945 80.5325 5330.2939 5580.0820
260.5134 0.5558 1361.6479 80.5522 5330.9150 5580.6504
261.1263 0.5552 1361.5936 80.5718 5331.5308 5581.2168
261.3293 0.5550 1361.5737 80.5783 5331.7344 5581.7812
261.9302 0.5545 1361.5093 80.5977 5332.3389 5582.3447
262.3376 0.5541 1361.4608 80.6109 5332.7490 5582.9072
262.9286 0.5536 1361.3833 80.6302 5333.3452 5583.4688
263.3145 0.5533 1361.3281 80.6429 5333.7349 5584.0303
264.0742 0.5528 1361.2085 80.6679 5334.5039 5584.5908
264.2656 0.5526 1361.1760 80.6743 5334.6982 5585.1523
264.8560 0.5522 1361.0697 80.6939 5335.2983 5585.7090
265.2458 0.5519 1360.9944 80.7069 5335.6953 5586.2607
265.8143 0.5516 1360.8772 80.7261 5336.2754 5586.8105
