VERSION 0.7
FIELDS x y z time arclength lapdistance
SIZE 4 4 4 4 4 4
TYPE F F F F F F
COUNT 1 1 1 1 1 1
WIDTH 857
HEIGHT 1
VIEWPOINT 0.000 0.000 0.000 1.000 -54.771 0.441 6.905
POINTS 857
DATA ascii
-201.0254 0.4696 -632.7180 28.0324 1603.7734 1636.4199
-200.4783 0.4529 -633.5004 28.0491 1604.7281 1637.4336
-199.9244 0.4362 -634.2776 28.0657 1605.6829 1638.4478
-199.3636 0.4196 -635.0497 28.0824 1606.6372 1639.4634
-198.7960 0.4031 -635.8167 28.0991 1607.5916 1640.4805
-198.2216 0.3866 -636.5784 28.1157 1608.5457 1641.4990
-197.6405 0.3702 -637.3348 28.1324 1609.4998 1642.5195
-197.0525 0.3539 -638.0859 28.1491 1610.4537 1643.5425
-196.4579 0.3377 -638.8316 28.1657 1611.4076 1644.5659
-195.8566 0.3215 -639.5719 28.1824 1612.3615 1645.5889
-195.2487 0.3055 -640.3067 28.1991 1613.3153 1646.6104
-194.6341 0.2896 -641.0359 28.2157 1614.2690 1647.6323
-194.0128 0.2738 -641.7596 28.2324 1615.2230 1648.6543
-193.3850 0.2581 -642.4777 28.2491 1616.1770 1649.6768
-192.7506 0.2425 -643.1901 28.2657 1617.1310 1650.7002
-192.1096 0.2270 -643.8967 28.2824 1618.0852 1651.7241
-191.4621 0.2116 -644.5975 28.2991 1619.0394 1652.7500
-190.8082 0.1964 -645.2924 28.3157 1619.9938 1653.7773
-190.1477 0.1812 -645.9813 28.3324 1620.9482 1654.8032
-189.4808 0.1663 -646.6642 28.3491 1621.9030 1655.8276
-188.8074 0.1514 -647.3411 28.3657 1622.8578 1656.8506
-188.1277 0.1366 -648.0119 28.3824 1623.8129 1657.8730
-187.4416 0.1221 -648.6765 28.3991 1624.7683 1658.8950
-186.7492 0.1076 -649.3349 28.4157 1625.7239 1659.9165
-186.0505 0.0933 -649.9869 28.4324 1626.6796 1660.9385
-185.3456 0.0792 -650.6327 28.4491 1627.6357 1661.9609
-184.6345 0.0653 -651.2720 28.4657 1628.5920 1662.9839
-183.9172 0.0516 -651.9050 28.4824 1629.5488 1664.0059
-183.1937 0.0381 -652.5316 28.4990 1630.5060 1665.0254
-182.4643 0.0248 -653.1517 28.5157 1631.4635 1666.0430
-181.7287 0.0118 -653.7654 28.5324 1632.4215 1667.0586
-180.9873 -0.0009 -654.3727 28.5490 1633.3800 1668.0732
-180.2399 -0.0134 -654.9735 28.5657 1634.3390 1669.0864
-179.4867 -0.0256 -655.5680 28.5824 1635.2986 1670.0986
-178.7277 -0.0375 -656.1561 28.5990 1636.2589 1671.1113
-177.9631 -0.0491 -656.7379 28.6157 1637.2197 1672.1230
-177.1927 -0.0603 -657.3134 28.6324 1638.1814 1673.1357
-176.4168 -0.0713 -657.8827 28.6490 1639.1439 1674.1484
-175.6354 -0.0820 -658.4460 28.6657 1640.1072 1675.1587
-174.8483 -0.0925 -659.0035 28.6823 1641.0718 1676.1660
-174.0557 -0.1027 -659.5552 28.6990 1642.0376 1677.1719
-173.2576 -0.1128 -660.1013 28.7157 1643.0046 1678.1758
-172.4543 -0.1228 -660.6419 28.7323 1643.9730 1679.1782
-171.6457 -0.1328 -661.1772 28.7490 1644.9427 1680.1797
-170.8320 -0.1427 -661.7074 28.7657 1645.9141 1681.1802
-170.0134 -0.1526 -662.2326 28.7823 1646.8867 1682.1802
-169.1900 -0.1626 -662.7530 28.7990 1647.8608 1683.1802
-168.3618 -0.1727 -663.2690 28.8157 1648.8365 1684.1611
-167.5290 -0.1830 -663.7808 28.8323 1649.8142 1685.1406
-166.6917 -0.1934 -664.2888 28.8490 1650.7936 1686.1206
-165.8500 -0.2041 -664.7932 28.8657 1651.7749 1687.1006
-165.0041 -0.2149 -665.2945 28.8823 1652.7583 1688.0811
-164.1540 -0.2261 -665.7930 28.8990 1653.7438 1689.0615
-163.3000 -0.2375 -666.2891 28.9157 1654.7314 1690.0420
-162.4424 -0.2491 -666.7830 28.9324 1655.7213 1691.0234
-161.5812 -0.2611 -667.2751 28.9490 1656.7133 1692.0049
-160.7166 -0.2734 -667.7658 28.9657 1657.7074 1692.9868
-159.8491 -0.2860 -668.2556 28.9824 1658.7037 1693.9668
-158.9786 -0.2988 -668.7448 28.9991 1659.7024 1694.9482
-158.1055 -0.3120 -669.2339 29.0157 1660.7032 1695.9326
-157.2301 -0.3255 -669.7235 29.0324 1661.7063 1696.9189
-156.3525 -0.3393 -670.2141 29.0491 1662.7118 1697.9072
-155.4731 -0.3534 -670.7061 29.0658 1663.7195 1698.8975
-154.5925 -0.3678 -671.2000 29.0824 1664.7294 1699.8892
-153.7109 -0.3824 -671.6962 29.0991 1665.7411 1700.8818
-152.8287 -0.3974 -672.1954 29.1158 1666.7549 1701.8750
-151.9461 -0.4126 -672.6980 29.1325 1667.7706 1702.8691
-151.0634 -0.4282 -673.2046 29.1491 1668.7886 1703.8755
-150.1806 -0.4440 -673.7158 29.1658 1669.8087 1704.8906
-149.2982 -0.4600 -674.2319 29.1825 1670.8311 1705.9092
-148.4165 -0.4763 -674.7534 29.1992 1671.8556 1706.9321
-147.5360 -0.4928 -675.2808 29.2158 1672.8821 1707.9580
-146.6569 -0.5095 -675.8143 29.2325 1673.9105 1708.9873
-145.7799 -0.5264 -676.3544 29.2492 1674.9407 1710.0190
-144.9051 -0.5433 -676.9013 29.2658 1675.9725 1711.0547
-144.0330 -0.5603 -677.4555 29.2825 1677.0060 1712.0928
-143.1638 -0.5772 -678.0173 29.2992 1678.0411 1713.1343
-142.2979 -0.5940 -678.5870 29.3158 1679.0778 1714.2061
-141.4355 -0.6107 -679.1650 29.3325 1680.1160 1715.2881
-140.5771 -0.6270 -679.7513 29.3492 1681.1556 1716.3740
-139.7232 -0.6430 -680.3461 29.3658 1682.1964 1717.4644
-138.8745 -0.6585 -680.9492 29.3825 1683.2377 1718.5591
-138.0317 -0.6736 -681.5603 29.3992 1684.2789 1719.6572
-137.1952 -0.6880 -682.1796 29.4158 1685.3198 1720.7598
-136.3651 -0.7018 -682.8070 29.4325 1686.3605 1721.8740
-135.5414 -0.7150 -683.4427 29.4491 1687.4009 1722.9951
-134.7245 -0.7276 -684.0866 29.4658 1688.4412 1724.1157
-133.9143 -0.7395 -684.7388 29.4825 1689.4813 1725.2373
-133.1109 -0.7507 -685.3992 29.4991 1690.5215 1726.3604
-132.3144 -0.7614 -686.0679 29.5158 1691.5615 1727.4854
-131.5248 -0.7715 -686.7447 29.5324 1692.6014 1728.6128
-130.7423 -0.7809 -687.4296 29.5491 1693.6415 1729.7432
-129.9668 -0.7899 -688.1225 29.5658 1694.6814 1730.8774
-129.1984 -0.7983 -688.8233 29.5824 1695.7214 1732.0156
-128.4372 -0.8063 -689.5319 29.5991 1696.7615 1733.1582
-127.6832 -0.8138 -690.2482 29.6158 1697.8015 1734.2949
-126.9363 -0.8210 -690.9723 29.6324 1698.8418 1735.4297
-126.1966 -0.8279 -691.7039 29.6491 1699.8822 1736.5635
-125.4639 -0.8345 -692.4432 29.6658 1700.9231 1737.6973
-124.7385 -0.8409 -693.1899 29.6824 1701.9642 1738.8315
-124.0206 -0.8472 -693.9439 29.6991 1703.0054 1739.9663
-123.3102 -0.8532 -694.7050 29.7158 1704.0465 1741.1021
-122.6074 -0.8591 -695.4732 29.7324 1705.0876 1742.2393
-121.9124 -0.8647 -696.2484 29.7491 1706.1289 1743.3784
-121.2252 -0.8701 -697.0305 29.7658 1707.1699 1744.5205
-120.5459 -0.8753 -697.8193 29.7824 1708.2109 1745.6587
-119.8747 -0.8801 -698.6149 29.7991 1709.2518 1746.7935
-119.2116 -0.8845 -699.4173 29.8158 1710.2928 1747.9253
-118.5569 -0.8885 -700.2260 29.8324 1711.3333 1749.0542
-117.9109 -0.8920 -701.0405 29.8491 1712.3728 1750.1807
-117.2738 -0.8950 -701.8608 29.8658 1713.4116 1751.3047
-116.6455 -0.8974 -702.6868 29.8824 1714.4495 1752.4268
-116.0258 -0.8993 -703.5186 29.8991 1715.4867 1753.5488
-115.4146 -0.9006 -704.3562 29.9157 1716.5236 1754.6699
-114.8121 -0.9014 -705.1995 29.9324 1717.5599 1755.7910
-114.2180 -0.9016 -706.0484 29.9491 1718.5961 1756.9082
-113.6325 -0.9014 -706.9028 29.9657 1719.6318 1758.0200
-113.0554 -0.9007 -707.7626 29.9824 1720.6675 1759.1274
-112.4869 -0.8995 -708.6277 29.9991 1721.7026 1760.2305
-111.9268 -0.8979 -709.4981 30.0157 1722.7377 1761.3306
-111.3751 -0.8959 -710.3737 30.0324 1723.7725 1762.4277
-110.8319 -0.8934 -711.2542 30.0491 1724.8071 1763.5190
-110.2970 -0.8905 -712.1398 30.0657 1725.8418 1764.5918
-109.7706 -0.8872 -713.0303 30.0824 1726.8762 1765.6602
-109.2526 -0.8836 -713.9257 30.0991 1727.9106 1766.7236
-108.7430 -0.8796 -714.8257 30.1157 1728.9449 1767.7827
-108.2418 -0.8753 -715.7305 30.1324 1729.9794 1768.8384
-107.7489 -0.8706 -716.6401 30.1491 1731.0138 1769.8911
-107.2645 -0.8657 -717.5541 30.1657 1732.0483 1770.9409
-106.7884 -0.8605 -718.4726 30.1824 1733.0829 1771.9883
-106.3208 -0.8550 -719.3955 30.1991 1734.1176 1773.0342
-105.8616 -0.8494 -720.3228 30.2157 1735.1523 1774.0698
-105.4108 -0.8435 -721.2545 30.2324 1736.1874 1775.0986
-104.9685 -0.8374 -722.1904 30.2491 1737.2225 1776.1211
-104.5346 -0.8312 -723.1305 30.2657 1738.2579 1777.1396
-104.1091 -0.8248 -724.0748 30.2824 1739.2937 1778.1528
-103.6920 -0.8184 -725.0231 30.2991 1740.3297 1779.1616
-103.2833 -0.8118 -725.9755 30.3157 1741.3661 1780.1665
-102.8831 -0.8052 -726.9318 30.3324 1742.4027 1781.1680
-102.4912 -0.7986 -727.8918 30.3491 1743.4398 1782.1650
-102.1078 -0.7919 -728.8558 30.3657 1744.4772 1783.1592
-101.7327 -0.7853 -729.8234 30.3824 1745.5150 1784.1509
-101.3658 -0.7787 -730.7948 30.3991 1746.5533 1785.1392
-101.0072 -0.7722 -731.7698 30.4157 1747.5923 1786.1255
-100.6568 -0.7658 -732.7485 30.4324 1748.6318 1787.1094
-100.3145 -0.7596 -733.7308 30.4491 1749.6720 1788.1187
-99.9801 -0.7535 -734.7166 30.4657 1750.7131 1789.1357
-99.6537 -0.7475 -735.7059 30.4824 1751.7549 1790.1572
-99.3352 -0.7417 -736.6986 30.4991 1752.7975 1791.1831
-99.0244 -0.7361 -737.6946 30.5157 1753.8408 1792.2129
-98.7212 -0.7307 -738.6938 30.5324 1754.8850 1793.2461
-98.4256 -0.7254 -739.6963 30.5491 1755.9302 1794.2832
-98.1372 -0.7203 -740.7020 30.5657 1756.9764 1795.3247
-97.8561 -0.7154 -741.7107 30.5824 1758.0236 1796.3691
-97.5819 -0.7106 -742.7225 30.5991 1759.0719 1797.4170
-97.3144 -0.7060 -743.7373 30.6157 1760.1213 1798.4683
-97.0535 -0.7014 -744.7552 30.6324 1761.1722 1799.5229
-96.7988 -0.6969 -745.7762 30.6491 1762.2245 1800.5811
-96.5502 -0.6926 -746.8002 30.6657 1763.2783 1801.6416
-96.3072 -0.6882 -747.8271 30.6824 1764.3335 1802.7061
-96.0698 -0.6839 -748.8568 30.6991 1765.3903 1803.7729
-95.8374 -0.6797 -749.8891 30.7157 1766.4484 1804.8428
-95.6099 -0.6755 -750.9241 30.7324 1767.5082 1805.9160
-95.3869 -0.6714 -751.9619 30.7491 1768.5696 1806.9912
-95.1679 -0.6674 -753.0023 30.7657 1769.6328 1808.0728
-94.9525 -0.6635 -754.0452 30.7824 1770.6978 1809.1572
-94.7405 -0.6597 -755.0905 30.7991 1771.7643 1810.2437
-94.5315 -0.6563 -756.1381 30.8158 1772.8326 1811.3320
-94.3250 -0.6531 -757.1881 30.8324 1773.9027 1812.4229
-94.1206 -0.6501 -758.2405 30.8491 1774.9747 1813.5156
-93.9182 -0.6475 -759.2951 30.8658 1776.0486 1814.6108
-93.7173 -0.6452 -760.3517 30.8824 1777.1241 1815.7075
-93.5177 -0.6432 -761.4105 30.8991 1778.2015 1816.8066
-93.3190 -0.6414 -762.4714 30.9158 1779.2810 1817.9077
-93.1211 -0.6399 -763.5343 30.9325 1780.3621 1819.0107
-92.9237 -0.6386 -764.5991 30.9491 1781.4451 1820.1152
-92.7265 -0.6374 -765.6658 30.9658 1782.5298 1821.2222
-92.5294 -0.6365 -766.7343 30.9825 1783.6163 1822.3311
-92.3322 -0.6357 -767.8045 30.9991 1784.7046 1823.4414
-92.1347 -0.6351 -768.8765 31.0158 1785.7946 1824.5537
-91.9366 -0.6347 -769.9501 31.0325 1786.8864 1825.6680
-91.7380 -0.6345 -771.0254 31.0491 1787.9799 1826.7842
-91.5385 -0.6344 -772.1024 31.0658 1789.0751 1827.9023
-91.3382 -0.6346 -773.1810 31.0825 1790.1722 1829.0225
-91.1368 -0.6349 -774.2612 31.0991 1791.2710 1830.1440
-90.9343 -0.6355 -775.3430 31.1158 1792.3716 1831.2681
-90.7306 -0.6362 -776.4263 31.1325 1793.4739 1832.3936
-90.5256 -0.6371 -777.5111 31.1492 1794.5779 1833.5200
-90.3192 -0.6383 -778.5975 31.1658 1795.6837 1834.6475
-90.1114 -0.6396 -779.6853 31.1825 1796.7911 1835.7769
-89.9020 -0.6410 -780.7745 31.1992 1797.9003 1836.9067
-89.6909 -0.6425 -781.8651 31.2158 1799.0111 1838.0381
-89.4782 -0.6440 -782.9570 31.2325 1800.1237 1839.1709
-89.2637 -0.6455 -784.0505 31.2492 1801.2379 1840.3047
-89.0473 -0.6468 -785.1453 31.2658 1802.3540 1841.4395
-88.8289 -0.6480 -786.2415 31.2825 1803.4717 1842.5762
-88.6085 -0.6489 -787.3390 31.2992 1804.5911 1843.7139
-88.3860 -0.6496 -788.4377 31.3158 1805.7122 1844.8525
-88.1613 -0.6500 -789.5377 31.3325 1806.8348 1845.9927
-87.9345 -0.6501 -790.6389 31.3492 1807.9591 1847.1343
-87.7053 -0.6499 -791.7414 31.3658 1809.0852 1848.2769
-87.4739 -0.6495 -792.8448 31.3825 1810.2126 1849.4209
-87.2401 -0.6489 -793.9496 31.3992 1811.3418 1850.5664
-87.0040 -0.6481 -795.0554 31.4158 1812.4727 1851.7134
-86.7657 -0.6471 -796.1624 31.4325 1813.6049 1852.8613
-86.5253 -0.6460 -797.2704 31.4492 1814.7388 1854.0112
-86.2827 -0.6448 -798.3798 31.4659 1815.8743 1855.1621
-86.0382 -0.6434 -799.4903 31.4825 1817.0114 1856.3120
-85.7919 -0.6420 -800.6021 31.4992 1818.1501 1857.4629
-85.5438 -0.6404 -801.7150 31.5159 1819.2904 1858.6143
-85.2942 -0.6388 -802.8293 31.5325 1820.4323 1859.7661
-85.0432 -0.6371 -803.9448 31.5492 1821.5757 1860.9189
-84.7910 -0.6354 -805.0617 31.5659 1822.7207 1862.0723
-84.5377 -0.6336 -806.1799 31.5825 1823.8673 1863.2261
-84.2834 -0.6318 -807.2995 31.5992 1825.0154 1864.3809
-84.0282 -0.6299 -808.4205 31.6159 1826.1650 1865.5361
-83.7724 -0.6280 -809.5428 31.6325 1827.3162 1866.6924
-83.5159 -0.6260 -810.6667 31.6492 1828.4689 1867.8486
-83.2589 -0.6241 -811.7919 31.6659 1829.6232 1869.0059
-83.0014 -0.6221 -812.9186 31.6825 1830.7789 1870.1636
-82.7435 -0.6201 -814.0468 31.6992 1831.9362 1871.3218
-82.4852 -0.6180 -815.1765 31.7159 1833.0950 1872.4805
-82.2266 -0.6160 -816.3075 31.7326 1834.2552 1873.6396
-81.9676 -0.6139 -817.4401 31.7492 1835.4171 1874.7998
-81.7083 -0.6119 -818.5741 31.7659 1836.5803 1875.9600
-81.4488 -0.6098 -819.7095 31.7826 1837.7450 1877.1211
-81.1891 -0.6078 -820.8464 31.7992 1838.9113 1878.2822
-80.9292 -0.6058 -821.9847 31.8159 1840.0789 1879.4424
-80.6692 -0.6039 -823.1246 31.8326 1841.2479 1880.5947
-80.4092 -0.6020 -824.2659 31.8492 1842.4186 1881.7490
-80.1492 -0.6001 -825.4087 31.8659 1843.5905 1882.9053
-79.8894 -0.5983 -826.5529 31.8826 1844.7639 1884.0640
-79.6299 -0.5966 -827.6987 31.8992 1845.9387 1885.2246
-79.3707 -0.5949 -828.8461 31.9159 1847.1150 1886.3867
-79.1121 -0.5932 -829.9950 31.9326 1848.2926 1887.5518
-78.8541 -0.5915 -831.1455 31.9492 1849.4717 1888.7183
-78.5970 -0.5899 -832.2977 31.9659 1850.6522 1889.8867
-78.3409 -0.5882 -833.4514 31.9826 1851.8340 1891.0576
-78.0859 -0.5865 -834.6069 31.9992 1853.0173 1892.2305
-77.8321 -0.5848 -835.7640 32.0159 1854.2019 1893.4048
-77.5797 -0.5830 -836.9227 32.0326 1855.3878 1894.5811
-77.3286 -0.5811 -838.0830 32.0492 1856.5750 1895.7588
-77.0790 -0.5791 -839.2447 32.0659 1857.7632 1896.9375
-76.8307 -0.5770 -840.4081 32.0826 1858.9528 1898.1182
-76.5836 -0.5748 -841.5731 32.0993 1860.1437 1899.3003
-76.3377 -0.5725 -842.7396 32.1159 1861.3358 1900.4849
-76.0928 -0.5700 -843.9077 32.1326 1862.5293 1901.6709
-75.8487 -0.5674 -845.0772 32.1493 1863.7241 1902.8599
-75.6054 -0.5646 -846.2483 32.1659 1864.9202 1904.0586
-75.3626 -0.5617 -847.4208 32.1826 1866.1176 1905.2642
-75.1204 -0.5586 -848.5948 32.1993 1867.3163 1906.4722
-74.8787 -0.5554 -849.7690 32.2159 1868.5150 1907.6812
-74.6378 -0.5521 -850.9418 32.2326 1869.7124 1908.8896
-74.3972 -0.5486 -852.1154 32.2493 1870.9104 1910.1006
-74.1562 -0.5449 -853.2929 32.2659 1872.1123 1911.3164
-73.9154 -0.5411 -854.4712 32.2826 1873.3149 1912.5342
-73.6746 -0.5372 -855.6505 32.2993 1874.5186 1913.7544
-73.4338 -0.5331 -856.8310 32.3159 1875.7234 1914.9771
-73.1930 -0.5290 -858.0128 32.3326 1876.9294 1916.2021
-72.9521 -0.5247 -859.1957 32.3493 1878.1367 1917.4292
-72.7112 -0.5204 -860.3799 32.3659 1879.3452 1918.6592
-72.4702 -0.5159 -861.5654 32.3826 1880.5548 1919.8916
-72.2293 -0.5115 -862.7520 32.3993 1881.7657 1921.1260
-71.9885 -0.5069 -863.9399 32.4159 1882.9778 1922.3638
-71.7479 -0.5024 -865.1290 32.4326 1884.1909 1923.6040
-71.5078 -0.4978 -866.3193 32.4493 1885.4053 1924.8467
-71.2684 -0.4933 -867.5110 32.4660 1886.6207 1926.0918
-71.0300 -0.4887 -868.7039 32.4826 1887.8373 1927.3389
-70.7928 -0.4842 -869.8982 32.4993 1889.0549 1928.5864
-70.5572 -0.4796 -871.0939 32.5160 1890.2737 1929.8350
-70.3236 -0.4752 -872.2910 32.5326 1891.4933 1931.0835
-70.0921 -0.4707 -873.4897 32.5493 1892.7142 1932.3330
-69.8632 -0.4664 -874.6900 32.5660 1893.9362 1933.5830
-69.6370 -0.4621 -875.8920 32.5826 1895.1592 1934.8345
-69.4139 -0.4578 -877.0957 32.5993 1896.3834 1936.0864
-69.1940 -0.4537 -878.3011 32.6160 1897.6086 1937.3389
-68.9776 -0.4496 -879.5081 32.6326 1898.8350 1938.5928
-68.7649 -0.4456 -880.7169 32.6493 1900.0624 1939.8477
-68.5560 -0.4416 -881.9274 32.6660 1901.2908 1941.1035
-68.3509 -0.4378 -883.1397 32.6826 1902.5203 1942.3604
-68.1498 -0.4341 -884.3536 32.6993 1903.7509 1943.6182
-67.9527 -0.4305 -885.5693 32.7160 1904.9823 1944.8770
-67.7596 -0.4270 -886.7867 32.7326 1906.2150 1946.1377
-67.5706 -0.4236 -888.0058 32.7493 1907.4486 1947.3994
-67.3856 -0.4204 -889.2266 32.7660 1908.6833 1948.6621
-67.2045 -0.4173 -890.4490 32.7826 1909.9191 1949.9268
-67.0274 -0.4143 -891.6731 32.7993 1911.1560 1951.1929
-66.8542 -0.4115 -892.8989 32.8160 1912.3939 1952.4390
-66.6848 -0.4089 -894.1262 32.8326 1913.6328 1953.6846
-66.5192 -0.4065 -895.3550 32.8493 1914.8728 1954.9316
-66.3573 -0.4042 -896.5853 32.8660 1916.1136 1956.1792
-66.1990 -0.4021 -897.8172 32.8826 1917.3557 1957.4282
-66.0443 -0.4002 -899.0506 32.8993 1918.5988 1958.6777
-65.8930 -0.3985 -900.2855 32.9160 1919.8429 1959.9287
-65.7450 -0.3970 -901.5219 32.9326 1921.0881 1961.1807
-65.6004 -0.3957 -902.7598 32.9493 1922.3345 1962.4336
-65.4590 -0.3946 -903.9990 32.9660 1923.5818 1963.6875
-65.3208 -0.3936 -905.2397 32.9826 1924.8301 1964.9429
-65.1857 -0.3929 -906.4818 32.9993 1926.0796 1966.1987
-65.0537 -0.3923 -907.7253 33.0160 1927.3300 1967.4561
-64.9247 -0.3919 -908.9702 33.0326 1928.5815 1968.7139
-64.7987 -0.3917 -910.2164 33.0493 1929.8341 1969.9736
-64.6757 -0.3917 -911.4640 33.0660 1931.0878 1971.2339
-64.5557 -0.3918 -912.7130 33.0827 1932.3424 1972.4951
-64.4386 -0.3920 -913.9631 33.0993 1933.5981 1973.7578
-64.3244 -0.3924 -915.2147 33.1160 1934.8549 1975.0215
-64.2130 -0.3929 -916.4675 33.1327 1936.1127 1976.2861
-64.1044 -0.3935 -917.7215 33.1493 1937.3713 1977.5518
-63.9985 -0.3942 -918.9768 33.1660 1938.6311 1978.8184
-63.8952 -0.3949 -920.2335 33.1827 1939.8920 1980.0859
-63.7945 -0.3957 -921.4913 33.1993 1941.1539 1981.3545
-63.6962 -0.3965 -922.7505 33.2160 1942.4169 1982.6240
-63.6002 -0.3974 -924.0107 33.2327 1943.6808 1983.8945
-63.5065 -0.3983 -925.2723 33.2493 1944.9458 1985.1665
-63.4151 -0.3992 -926.5350 33.2660 1946.2119 1986.4390
-63.3257 -0.4000 -927.7990 33.2827 1947.4790 1987.7129
-63.2384 -0.4009 -929.0640 33.2993 1948.7471 1988.9873
-63.1530 -0.4018 -930.3303 33.3160 1950.0162 1990.2637
-63.0695 -0.4027 -931.5978 33.3327 1951.2864 1991.5400
-62.9878 -0.4035 -932.8664 33.3493 1952.5576 1992.8184
-62.9078 -0.4044 -934.1361 33.3660 1953.8298 1994.0972
-62.8296 -0.4052 -935.4069 33.3827 1955.1030 1995.3770
-62.7530 -0.4060 -936.6788 33.3993 1956.3773 1996.6582
-62.6781 -0.4069 -937.9518 33.4160 1957.6525 1997.9404
-62.6048 -0.4077 -939.2259 33.4327 1958.9287 1999.2231
-62.5330 -0.4085 -940.5010 33.4493 1960.2058 2000.5073
-62.4627 -0.4093 -941.7773 33.4660 1961.4840 2001.7925
-62.3938 -0.4100 -943.0547 33.4827 1962.7633 2003.0781
-62.3263 -0.4108 -944.3331 33.4993 1964.0436 2004.3652
-62.2600 -0.4115 -945.6127 33.5160 1965.3248 2005.6533
-62.1949 -0.4123 -946.8931 33.5327 1966.6069 2006.9424
-62.1307 -0.4130 -948.1747 33.5494 1967.8900 2008.2319
-62.0675 -0.4136 -949.4573 33.5660 1969.1742 2009.5225
-62.0050 -0.4143 -950.7407 33.5827 1970.4592 2010.8145
-61.9430 -0.4149 -952.0253 33.5994 1971.7452 2012.1064
-61.8814 -0.4155 -953.3108 33.6160 1973.0322 2013.4004
-61.8200 -0.4161 -954.5972 33.6327 1974.3201 2014.6943
-61.7587 -0.4166 -955.8846 33.6494 1975.6090 2015.9897
-61.6973 -0.4171 -957.1730 33.6660 1976.8988 2017.2861
-61.6359 -0.4175 -958.4622 33.6827 1978.1895 2018.5830
-61.5744 -0.4179 -959.7524 33.6994 1979.4811 2019.8809
-61.5128 -0.4182 -961.0435 33.7160 1980.7737 2021.1797
-61.4511 -0.4185 -962.3355 33.7327 1982.0671 2022.4795
-61.3896 -0.4187 -963.6284 33.7494 1983.3616 2023.7803
-61.3284 -0.4189 -964.9223 33.7660 1984.6569 2025.0820
-61.2675 -0.4191 -966.2170 33.7827 1985.9530 2026.3838
-61.2072 -0.4192 -967.5128 33.7994 1987.2501 2027.6865
-61.1477 -0.4193 -968.8094 33.8160 1988.5482 2028.9902
-61.0889 -0.4194 -970.1069 33.8327 1989.8470 2030.2949
-61.0311 -0.4195 -971.4055 33.8494 1991.1469 2031.5996
-60.9743 -0.4195 -972.7048 33.8660 1992.4475 2032.9053
-60.9186 -0.4196 -974.0052 33.8827 1993.7490 2034.2119
-60.8640 -0.4196 -975.3063 33.8994 1995.0513 2035.5195
-60.8104 -0.4196 -976.6085 33.9160 1996.3545 2036.8281
-60.7579 -0.4196 -977.9114 33.9327 1997.6586 2038.1377
-60.7062 -0.4196 -979.2154 33.9494 1998.9635 2039.4473
-60.6554 -0.4196 -980.5201 33.9660 2000.2693 2040.7578
-60.6053 -0.4195 -981.8259 33.9827 2001.5759 2042.0693
-60.5559 -0.4194 -983.1324 33.9994 2002.8834 2043.3809
-60.5070 -0.4193 -984.4398 34.0160 2004.1918 2044.6934
-60.4587 -0.4191 -985.7480 34.0327 2005.5009 2046.0068
-60.4109 -0.4189 -987.0571 34.0494 2006.8108 2047.3213
-60.3634 -0.4187 -988.3671 34.0660 2008.1217 2048.6357
-60.3163 -0.4184 -989.6779 34.0827 2009.4332 2049.9521
-60.2696 -0.4180 -990.9896 34.0994 2010.7458 2051.2676
-60.2232 -0.4176 -992.3021 34.1160 2012.0592 2052.5850
-60.1771 -0.4172 -993.6155 34.1327 2013.3733 2053.9014
-60.1312 -0.4168 -994.9297 34.1494 2014.6885 2055.2197
-60.0856 -0.4163 -996.2448 34.1660 2016.0043 2056.5381
-60.0403 -0.4157 -997.5607 34.1827 2017.3209 2057.8574
-59.9952 -0.4152 -998.8775 34.1994 2018.6385 2059.1777
-59.9504 -0.4146 -1000.1951 34.2161 2019.9568 2060.4980
-59.9059 -0.4139 -1001.5134 34.2327 2021.2760 2061.8193
-59.8618 -0.4132 -1002.8326 34.2494 2022.5959 2063.1396
-59.8182 -0.4125 -1004.1528 34.2661 2023.9167 2064.4619
-59.7751 -0.4117 -1005.4737 34.2827 2025.2384 2065.7852
-59.7326 -0.4109 -1006.7954 34.2994 2026.5608 2067.1084
-59.6908 -0.4101 -1008.1180 34.3161 2027.8840 2068.4326
-59.6500 -0.4092 -1009.4413 34.3327 2029.2080 2069.7568
-59.6102 -0.4083 -1010.7656 34.3494 2030.5328 2071.0820
-59.5717 -0.4074 -1012.0906 34.3661 2031.8584 2072.4062
-59.5345 -0.4065 -1013.4164 34.3827 2033.1847 2073.7305
-59.4988 -0.4056 -1014.7430 34.3994 2034.5118 2075.0557
-59.4647 -0.4047 -1016.0705 34.4161 2035.8397 2076.3818
-59.4324 -0.4038 -1017.3987 34.4327 2037.1683 2077.7090
-59.4020 -0.4028 -1018.7278 34.4494 2038.4978 2079.0361
-59.3734 -0.4019 -1020.0576 34.4661 2039.8280 2080.3652
-59.3469 -0.4010 -1021.3883 34.4827 2041.1588 2081.6943
-59.3222 -0.4001 -1022.7197 34.4994 2042.4906 2083.0244
-59.2996 -0.3992 -1024.0519 34.5161 2043.8230 2084.3545
-59.2788 -0.3983 -1025.3849 34.5327 2045.1561 2085.6865
-59.2599 -0.3975 -1026.7188 34.5494 2046.4901 2087.0186
-59.2428 -0.3967 -1028.0533 34.5661 2047.8247 2088.3506
-59.2274 -0.3959 -1029.3887 34.5827 2049.1602 2089.6846
-59.2137 -0.3951 -1030.7247 34.5994 2050.4963 2091.0186
-59.2015 -0.3944 -1032.0616 34.6161 2051.8333 2092.3535
-59.1909 -0.3937 -1033.3993 34.6327 2053.1709 2093.6895
-59.1817 -0.3930 -1034.7377 34.6494 2054.5093 2095.0264
-59.1739 -0.3923 -1036.0768 34.6661 2055.8484 2096.3623
-59.1675 -0.3917 -1037.4166 34.6827 2057.1882 2097.7002
-59.1625 -0.3911 -1038.7571 34.6994 2058.5288 2099.0391
-59.1589 -0.3905 -1040.0984 34.7161 2059.8701 2100.3779
-59.1567 -0.3900 -1041.4404 34.7327 2061.2122 2101.7188
-59.1560 -0.3895 -1042.7831 34.7494 2062.5549 2103.0596
-59.1569 -0.3891 -1044.1265 34.7661 2063.8982 2104.4014
-59.1594 -0.3887 -1045.4706 34.7827 2065.2424 2105.7432
-59.1635 -0.3883 -1046.8153 34.7994 2066.5872 2107.0869
-59.1694 -0.3879 -1048.1608 34.8161 2067.9326 2108.4307
-59.1771 -0.3876 -1049.5070 34.8327 2069.2788 2109.7754
-59.1867 -0.3873 -1050.8539 34.8494 2070.6257 2111.1201
-59.1982 -0.3870 -1052.2014 34.8661 2071.9731 2112.4668
-59.2116 -0.3868 -1053.5494 34.8828 2073.3215 2113.8135
-59.2271 -0.3866 -1054.8982 34.8994 2074.6702 2115.1611
-59.2445 -0.3865 -1056.2476 34.9161 2076.0198 2116.5098
-59.2638 -0.3863 -1057.5975 34.9328 2077.3699 2117.8584
-59.2850 -0.3863 -1058.9481 34.9494 2078.7207 2119.2090
-59.3078 -0.3862 -1060.2993 34.9661 2080.0720 2120.5596
-59.3322 -0.3862 -1061.6512 34.9828 2081.4241 2121.9111
-59.3581 -0.3862 -1063.0037 34.9994 2082.7769 2123.2627
-59.3852 -0.3863 -1064.3556 35.0161 2084.1289 2124.6143
-59.4135 -0.3863 -1065.7057 35.0328 2085.4792 2125.9639
-59.4427 -0.3864 -1067.0560 35.0494 2086.8301 2127.3145
-59.4729 -0.3865 -1068.4091 35.0661 2088.1833 2128.6670
-59.5038 -0.3866 -1069.7618 35.0828 2089.5366 2130.0195
-59.5354 -0.3866 -1071.1154 35.0994 2090.8904 2131.3730
-59.5676 -0.3868 -1072.4694 35.1161 2092.2449 2132.7266
-59.6003 -0.3869 -1073.8240 35.1328 2093.5999 2134.0811
-59.6335 -0.3870 -1075.1791 35.1494 2094.9553 2135.4365
-59.6671 -0.3871 -1076.5348 35.1661 2096.3115 2136.7920
-59.7010 -0.3873 -1077.8912 35.1828 2097.6685 2138.1484
-59.7354 -0.3875 -1079.2482 35.1994 2099.0256 2139.5049
-59.7700 -0.3876 -1080.6056 35.2161 2100.3835 2140.8623
-59.8050 -0.3879 -1081.9636 35.2328 2101.7419 2142.2207
-59.8403 -0.3881 -1083.3223 35.2494 2103.1011 2143.5791
-59.8760 -0.3884 -1084.6815 35.2661 2104.4609 2144.9385
-59.9119 -0.3886 -1086.0414 35.2828 2105.8213 2146.2979
-59.9482 -0.3889 -1087.4017 35.2994 2107.1821 2147.6592
-59.9848 -0.3892 -1088.7627 35.3161 2108.5435 2149.0195
-60.0217 -0.3895 -1090.1243 35.3328 2109.9055 2150.3818
-60.0590 -0.3897 -1091.4865 35.3494 2111.2683 2151.7432
-60.0965 -0.3900 -1092.8492 35.3661 2112.6316 2153.1064
-60.1343 -0.3902 -1094.2125 35.3828 2113.9954 2154.4697
-60.1724 -0.3905 -1095.5764 35.3994 2115.3599 2155.8340
-60.2108 -0.3908 -1096.9409 35.4161 2116.7249 2157.1992
-60.2494 -0.3910 -1098.3060 35.4328 2118.0906 2158.5645
-60.2882 -0.3913 -1099.6716 35.4494 2119.4565 2159.9307
-60.3273 -0.3916 -1101.0378 35.4661 2120.8235 2161.2969
-60.3665 -0.3919 -1102.4045 35.4828 2122.1907 2162.6631
-60.4060 -0.3921 -1103.7720 35.4994 2123.5586 2164.0312
-60.4456 -0.3924 -1105.1400 35.5161 2124.9272 2165.3994
-60.4855 -0.3927 -1106.5087 35.5328 2126.2964 2166.7686
-60.5255 -0.3930 -1107.8777 35.5494 2127.6660 2168.1377
-60.5657 -0.3933 -1109.2473 35.5661 2129.0364 2169.5078
-60.6062 -0.3936 -1110.6177 35.5828 2130.4072 2170.8779
-60.6469 -0.3939 -1111.9885 35.5994 2131.7788 2172.2490
-60.6880 -0.3942 -1113.3599 35.6161 2133.1506 2173.6211
-60.7295 -0.3946 -1114.7317 35.6328 2134.5232 2174.9932
-60.7715 -0.3949 -1116.1042 35.6494 2135.8962 2176.3662
-60.8141 -0.3952 -1117.4773 35.6661 2137.2700 2177.7393
-60.8574 -0.3956 -1118.8508 35.6828 2138.6443 2179.1133
-60.9015 -0.3960 -1120.2250 35.6994 2140.0190 2180.4873
-60.9467 -0.3964 -1121.5996 35.7161 2141.3945 2181.8633
-60.9929 -0.3968 -1122.9749 35.7328 2142.7705 2183.2393
-61.0403 -0.3972 -1124.3505 35.7494 2144.1470 2184.6143
-61.0890 -0.3977 -1125.7266 35.7661 2145.5239 2185.9912
-61.1388 -0.3982 -1127.1030 35.7828 2146.9014 2187.3691
-61.1898 -0.3987 -1128.4801 35.7994 2148.2793 2188.7471
-61.2418 -0.3992 -1129.8575 35.8161 2149.6577 2190.1250
-61.2946 -0.3998 -1131.2354 35.8328 2151.0366 2191.5039
-61.3478 -0.4004 -1132.6139 35.8495 2152.4160 2192.8838
-61.4012 -0.4009 -1133.9927 35.8661 2153.7959 2194.2627
-61.4544 -0.4015 -1135.3719 35.8828 2155.1763 2195.6436
-61.5071 -0.4020 -1136.7517 35.8995 2156.5569 2197.0244
-61.5591 -0.4025 -1138.1318 35.9161 2157.9380 2198.4053
-61.6102 -0.4030 -1139.5126 35.9328 2159.3198 2199.7861
-61.6603 -0.4035 -1140.8938 35.9495 2160.7019 2201.1680
-61.7093 -0.4040 -1142.2758 35.9661 2162.0847 2202.5508
-61.7572 -0.4044 -1143.6581 35.9828 2163.4680 2203.9336
-61.8041 -0.4049 -1145.0410 35.9995 2164.8516 2205.3174
-61.8501 -0.4052 -1146.4244 36.0161 2166.2358 2206.7012
-61.8953 -0.4056 -1147.8087 36.0328 2167.6208 2208.0859
-61.9398 -0.4060 -1149.1934 36.0495 2169.0061 2209.4707
-61.9838 -0.4063 -1150.5786 36.0661 2170.3921 2210.8564
-62.0275 -0.4067 -1151.9642 36.0828 2171.7786 2212.2422
-62.0712 -0.4070 -1153.3506 36.0995 2173.1655 2213.6289
-62.1148 -0.4073 -1154.7374 36.1161 2174.5530 2215.0166
-62.1585 -0.4076 -1156.1246 36.1328 2175.9409 2216.4043
-62.2026 -0.4080 -1157.5126 36.1495 2177.3296 2217.7920
-62.2469 -0.4083 -1158.9010 36.1661 2178.7188 2219.1816
-62.2917 -0.4087 -1160.2897 36.1828 2180.1082 2220.5703
-62.3368 -0.4090 -1161.6791 36.1995 2181.4983 2221.9609
-62.3824 -0.4094 -1163.0688 36.2161 2182.8889 2223.3506
-62.4284 -0.4099 -1164.4591 36.2328 2184.2798 2224.7422
-62.4749 -0.4103 -1165.8500 36.2495 2185.6714 2226.1338
-62.5217 -0.4108 -1167.2413 36.2661 2187.0635 2227.5254
-62.5689 -0.4113 -1168.6331 36.2828 2188.4561 2228.9180
-62.6165 -0.4118 -1170.0254 36.2995 2189.8491 2230.3105
-62.6644 -0.4123 -1171.4182 36.3161 2191.2429 2231.7041
-62.7125 -0.4127 -1172.8115 36.3328 2192.6370 2233.0986
-62.7610 -0.4132 -1174.2053 36.3495 2194.0317 2234.4932
-62.8096 -0.4137 -1175.5997 36.3661 2195.4270 2235.8877
-62.8585 -0.4142 -1176.9945 36.3828 2196.8225 2237.2832
-62.9075 -0.4146 -1178.3898 36.3995 2198.2188 2238.6787
-62.9568 -0.4151 -1179.7858 36.4161 2199.6155 2240.0762
-63.0062 -0.4156 -1181.1821 36.4328 2201.0127 2241.4727
-63.0558 -0.4161 -1182.5789 36.4495 2202.4104 2242.8701
-63.1055 -0.4165 -1183.9763 36.4661 2203.8088 2244.2686
-63.1554 -0.4170 -1185.3741 36.4828 2205.2075 2245.6670
-63.2055 -0.4175 -1186.7723 36.4995 2206.6064 2247.0654
-63.2557 -0.4180 -1188.1713 36.5161 2208.0063 2248.4648
-63.3060 -0.4185 -1189.5706 36.5328 2209.4065 2249.8643
-63.3565 -0.4190 -1190.9702 36.5495 2210.8071 2251.2646
-63.4071 -0.4195 -1192.3706 36.5661 2212.2085 2252.6660
-63.4579 -0.4200 -1193.7714 36.5828 2213.6101 2254.0674
-63.5088 -0.4205 -1195.1725 36.5995 2215.0122 2255.4688
-63.5598 -0.4210 -1196.5743 36.6161 2216.4150 2256.8711
-63.6111 -0.4215 -1197.9766 36.6328 2217.8181 2258.2744
-63.6624 -0.4220 -1199.3792 36.6495 2219.2217 2259.6777
-63.7140 -0.4225 -1200.7825 36.6661 2220.6260 2261.0811
-63.7657 -0.4230 -1202.1862 36.6828 2222.0305 2262.4854
-63.8176 -0.4235 -1203.5902 36.6995 2223.4355 2263.8906
-63.8697 -0.4240 -1204.9950 36.7161 2224.8413 2265.2959
-63.9220 -0.4246 -1206.4001 36.7328 2226.2473 2266.7021
-63.9744 -0.4251 -1207.8057 36.7495 2227.6538 2268.1084
-64.0271 -0.4256 -1209.2118 36.7661 2229.0610 2269.5146
-64.0800 -0.4261 -1210.6183 36.7828 2230.4685 2270.9229
-64.1331 -0.4267 -1212.0253 36.7995 2231.8765 2272.3301
-64.1864 -0.4272 -1213.4327 36.8161 2233.2849 2273.7393
-64.2399 -0.4278 -1214.8406 36.8328 2234.6938 2275.1475
-64.2936 -0.4283 -1216.2490 36.8495 2236.1033 2276.5566
-64.3476 -0.4288 -1217.6580 36.8661 2237.5132 2277.9668
-64.4017 -0.4294 -1219.0671 36.8828 2238.9236 2279.3770
-64.4561 -0.4300 -1220.4771 36.8995 2240.3345 2280.7871
-64.5106 -0.4306 -1221.8872 36.9161 2241.7456 2282.1982
-64.5654 -0.4311 -1223.2979 36.9328 2243.1575 2283.6104
-64.6204 -0.4318 -1224.7091 36.9495 2244.5698 2285.0225
-64.6757 -0.4324 -1226.1206 36.9661 2245.9822 2286.4346
-64.7311 -0.4331 -1227.5327 36.9828 2247.3955 2287.8477
-64.7868 -0.4337 -1228.9452 36.9995 2248.8091 2289.2617
-64.8427 -0.4345 -1230.3580 37.0161 2250.2229 2290.6758
-64.8989 -0.4352 -1231.7716 37.0328 2251.6377 2292.0908
-64.9554 -0.4360 -1233.1854 37.0495 2253.0527 2293.5049
-65.0121 -0.4368 -1234.5997 37.0662 2254.4680 2294.9209
-65.0692 -0.4376 -1236.0145 37.0828 2255.8840 2296.3369
-65.1265 -0.4385 -1237.4296 37.0995 2257.3003 2297.7529
-65.1842 -0.4393 -1238.8453 37.1162 2258.7170 2299.1709
-65.2421 -0.4401 -1240.2614 37.1328 2260.1343 2300.5879
-65.3004 -0.4409 -1241.6779 37.1495 2261.5520 2302.0059
-65.3590 -0.4415 -1243.0948 37.1662 2262.9702 2303.4238
-65.4179 -0.4420 -1244.5121 37.1828 2264.3887 2304.8428
-65.4772 -0.4423 -1245.9299 37.1995 2265.8079 2306.2617
-65.5368 -0.4423 -1247.3480 37.2162 2267.2273 2307.6816
-65.5967 -0.4419 -1248.7667 37.2328 2268.6472 2309.1016
-65.6569 -0.4410 -1250.1830 37.2495 2270.0647 2310.5195
-65.7171 -0.4396 -1251.5914 37.2662 2271.4744 2311.9287
-65.7772 -0.4376 -1252.9910 37.2828 2272.8752 2313.3301
-65.8374 -0.4350 -1254.3829 37.2995 2274.2686 2314.7236
-65.8977 -0.4318 -1255.7677 37.3161 2275.6545 2316.1094
-65.9582 -0.4280 -1257.1454 37.3328 2277.0334 2317.4883
-66.0189 -0.4236 -1258.5162 37.3494 2278.4058 2318.8604
-66.0798 -0.4188 -1259.8794 37.3661 2279.7703 2320.2256
-66.1409 -0.4136 -1261.2341 37.3828 2281.1265 2321.5811
-66.2023 -0.4081 -1262.5789 37.3994 2282.4727 2322.9268
-66.2642 -0.4024 -1263.9146 37.4161 2283.8098 2324.2646
-66.3265 -0.3966 -1265.2417 37.4327 2285.1382 2325.5928
-66.3895 -0.3908 -1266.5588 37.4494 2286.4570 2326.9111
-66.4533 -0.3849 -1267.8656 37.4660 2287.7654 2328.2197
-66.5179 -0.3791 -1269.1613 37.4827 2289.0627 2329.5166
-66.5835 -0.3733 -1270.4457 37.4994 2290.3486 2330.8027
-66.6505 -0.3677 -1271.7188 37.5160 2291.6235 2332.0771
-66.7189 -0.3621 -1272.9808 37.5327 2292.8875 2333.3408
-66.7891 -0.3568 -1274.2316 37.5493 2294.1404 2334.5938
-66.8612 -0.3516 -1275.4713 37.5660 2295.3821 2335.8359
-66.9355 -0.3467 -1276.7001 37.5826 2296.6130 2337.0664
-67.0124 -0.3420 -1277.9189 37.5993 2297.8345 2338.2881
-67.0922 -0.3376 -1279.1295 37.6160 2299.0476 2339.5000
-67.1751 -0.3334 -1280.3303 37.6326 2300.2512 2340.7031
-67.2612 -0.3295 -1281.5199 37.6493 2301.4438 2341.8955
-67.3508 -0.3260 -1282.6980 37.6659 2302.6255 2343.0771
-67.4443 -0.3228 -1283.8667 37.6826 2303.7979 2344.2490
-67.5419 -0.3199 -1285.0256 37.6992 2304.9609 2345.4111
-67.6437 -0.3174 -1286.1737 37.7159 2306.1135 2346.5625
-67.7499 -0.3153 -1287.3108 37.7325 2307.2556 2347.7031
-67.8608 -0.3135 -1288.4385 37.7492 2308.3887 2348.8350
-67.9766 -0.3121 -1289.5562 37.7659 2309.5125 2349.9570
-68.0971 -0.3111 -1290.6626 37.7825 2310.6255 2351.0684
-68.2226 -0.3105 -1291.7582 37.7992 2311.7280 2352.1689
-68.3532 -0.3103 -1292.8435 37.8158 2312.8213 2353.2588
-68.4888 -0.3105 -1293.9182 37.8325 2313.9045 2354.3389
-68.6295 -0.3112 -1294.9824 37.8491 2314.9780 2355.4092
-68.7754 -0.3122 -1296.0361 37.8658 2316.0417 2356.4697
-68.9263 -0.3138 -1297.0797 37.8824 2317.0962 2357.5186
-69.0825 -0.3158 -1298.1134 37.8991 2318.1416 2358.5596
-69.2439 -0.3184 -1299.1377 37.9157 2319.1785 2359.5898
-69.4106 -0.3214 -1300.1533 37.9324 2320.2078 2360.6123
-69.5823 -0.3249 -1301.1588 37.9491 2321.2278 2361.6201
-69.7588 -0.3289 -1302.1527 37.9657 2322.2373 2362.6064
-69.9402 -0.3335 -1303.1368 37.9824 2323.2380 2363.5850
-70.1268 -0.3385 -1304.1121 37.9990 2324.2310 2364.5557
-70.3185 -0.3441 -1305.0782 38.0157 2325.2161 2365.5195
-70.5152 -0.3501 -1306.0353 38.0323 2326.1931 2366.4756
-70.7170 -0.3567 -1306.9838 38.0490 2327.1626 2367.4248
-70.9240 -0.3637 -1307.9238 38.0656 2328.1252 2368.3682
-71.1363 -0.3711 -1308.8560 38.0823 2329.0813 2369.3047
-71.3539 -0.3789 -1309.7805 38.0990 2330.0312 2370.2363
-71.5772 -0.3871 -1310.6986 38.1156 2330.9761 2371.1641
-71.8057 -0.3955 -1311.6080 38.1323 2331.9138 2372.0850
-72.0391 -0.4041 -1312.5081 38.1489 2332.8438 2372.9990
-72.2774 -0.4127 -1313.3987 38.1656 2333.7659 2373.9053
-72.5209 -0.4214 -1314.2811 38.1822 2334.6812 2374.8057
-72.7702 -0.4300 -1315.1571 38.1989 2335.5920 2375.7021
-73.0252 -0.4385 -1316.0264 38.2156 2336.4978 2376.5947
-73.2853 -0.4467 -1316.8871 38.2322 2337.3972 2377.4805
-73.5504 -0.4546 -1317.7389 38.2489 2338.2893 2378.3604
-73.8204 -0.4622 -1318.5813 38.2655 2339.1738 2379.2334
-74.0952 -0.4693 -1319.4149 38.2822 2340.0518 2380.1006
-74.3753 -0.4760 -1320.2405 38.2989 2340.9236 2380.9629
-74.6606 -0.4822 -1321.0581 38.3155 2341.7896 2381.8203
-74.9509 -0.4878 -1321.8674 38.3322 2342.6494 2382.6729
-75.2460 -0.4930 -1322.6676 38.3488 2343.5022 2383.5215
-75.5456 -0.4977 -1323.4583 38.3655 2344.3477 2384.3643
-75.8499 -0.5018 -1324.2399 38.3822 2345.1865 2385.2021
-76.1590 -0.5054 -1325.0133 38.3988 2346.0193 2386.0361
-76.4739 -0.5085 -1325.7803 38.4155 2346.8486 2386.8701
-76.7946 -0.5112 -1326.5415 38.4321 2347.6746 2387.7031
-77.1209 -0.5134 -1327.2959 38.4488 2348.4966 2388.5361
-77.4529 -0.5151 -1328.0437 38.4655 2349.3147 2389.3682
-77.7902 -0.5163 -1328.7842 38.4821 2350.1284 2390.1963
-78.1328 -0.5171 -1329.5171 38.4988 2350.9375 2391.0205
-78.4812 -0.5175 -1330.2433 38.5154 2351.7429 2391.8418
-78.8352 -0.5175 -1330.9628 38.5321 2352.5447 2392.6602
-79.1945 -0.5171 -1331.6746 38.5488 2353.3420 2393.4736
-79.5592 -0.5164 -1332.3789 38.5654 2354.1353 2394.2842
-79.9295 -0.5153 -1333.0762 38.5821 2354.9248 2395.0928
-80.3057 -0.5138 -1333.7667 38.5987 2355.7112 2395.8994
-80.6875 -0.5120 -1334.4502 38.6154 2356.4939 2396.7041
-81.0752 -0.5099 -1335.1267 38.6320 2357.2737 2397.5078
-81.4685 -0.5076 -1335.7960 38.6487 2358.0500 2398.3096
-81.8670 -0.5049 -1336.4575 38.6653 2358.8223 2399.1104
-82.2709 -0.5020 -1337.1112 38.6820 2359.5908 2399.9072
-82.6800 -0.4989 -1337.7572 38.6986 2360.3555 2400.7002
-83.0946 -0.4956 -1338.3958 38.7153 2361.1167 2401.4893
-83.5145 -0.4920 -1339.0267 38.7319 2361.8748 2402.2744
-83.9396 -0.4883 -1339.6500 38.7486 2362.6292 2403.0557
-84.3701 -0.4844 -1340.2661 38.7652 2363.3809 2403.8350
-84.8059 -0.4804 -1340.8746 38.7819 2364.1292 2404.6113
-85.2464 -0.4762 -1341.4750 38.7986 2364.8740 2405.3838
-85.6918 -0.4720 -1342.0675 38.8152 2365.6152 2406.1553
-86.1422 -0.4676 -1342.6525 38.8319 2366.3535 2406.9238
-86.5975 -0.4632 -1343.2300 38.8485 2367.0889 2407.6904
-87.0578 -0.4586 -1343.8000 38.8652 2367.8215 2408.4570
-87.5234 -0.4540 -1344.3633 38.8818 2368.5522 2409.2227
-87.9940 -0.4494 -1344.9192 38.8985 2369.2808 2409.9873
-88.4691 -0.4447 -1345.4675 38.9151 2370.0063 2410.7490
-88.9488 -0.4399 -1346.0082 38.9318 2370.7292 2411.5059
-89.4327 -0.4351 -1346.5414 38.9485 2371.4492 2412.2607
-89.9205 -0.4303 -1347.0663 38.9651 2372.1658 2413.0107
-90.4121 -0.4254 -1347.5834 38.9818 2372.8794 2413.7588
-90.9079 -0.4205 -1348.0930 38.9984 2373.5903 2414.5039
-91.4078 -0.4155 -1348.5952 39.0151 2374.2988 2415.2471
-91.9119 -0.4105 -1349.0903 39.0318 2375.0056 2415.9893
-92.4202 -0.4055 -1349.5784 39.0484 2375.7102 2416.7295
-92.9327 -0.4004 -1350.0592 39.0651 2376.4128 2417.4697
-93.4489 -0.3953 -1350.5327 39.0817 2377.1135 2418.2090
-93.9691 -0.3901 -1350.9991 39.0984 2377.8123 2418.9473
-94.4935 -0.3849 -1351.4587 39.1151 2378.5095 2419.6855
-95.0218 -0.3796 -1351.9113 39.1317 2379.2051 2420.4209
-95.5542 -0.3744 -1352.3571 39.1484 2379.8997 2421.1553
-96.0905 -0.3690 -1352.7960 39.1651 2380.5925 2421.8857
-96.6305 -0.3637 -1353.2278 39.1817 2381.2842 2422.6162
-97.1743 -0.3583 -1353.6526 39.1984 2381.9741 2423.3438
-97.7217 -0.3528 -1354.0706 39.2151 2382.6628 2424.0703
-98.2727 -0.3473 -1354.4814 39.2317 2383.3503 2424.7959
-98.8271 -0.3418 -1354.8853 39.2484 2384.0361 2425.5195
-99.3848 -0.3363 -1355.2820 39.2651 2384.7207 2426.2432
-99.9460 -0.3307 -1355.6716 39.2817 2385.4038 2426.9658
-100.5106 -0.3251 -1356.0544 39.2984 2386.0859 2427.6885
-101.0786 -0.3195 -1356.4302 39.3150 2386.7671 2428.4121
-101.6499 -0.3139 -1356.7990 39.3317 2387.4470 2429.1357
-102.2245 -0.3082 -1357.1608 39.3484 2388.1262 2429.8584
-102.8023 -0.3025 -1357.5155 39.3650 2388.8042 2430.5781
-103.3832 -0.2967 -1357.8632 39.3817 2389.4812 2431.2969
-103.9670 -0.2910 -1358.2035 39.3984 2390.1570 2432.0127
-104.5537 -0.2852 -1358.5367 39.4150 2390.8318 2432.7285
-105.1432 -0.2794 -1358.8628 39.4317 2391.5054 2433.4424
-105.7355 -0.2736 -1359.1815 39.4484 2392.1780 2434.1553
-106.3303 -0.2677 -1359.4930 39.4650 2392.8496 2434.8662
-106.9278 -0.2619 -1359.7971 39.4817 2393.5200 2435.5771
-107.5278 -0.2560 -1360.0940 39.4983 2394.1895 2436.2881
-108.1307 -0.2501 -1360.3837 39.5150 2394.8584 2436.9990
-108.7364 -0.2442 -1360.6661 39.5317 2395.5266 2437.7100
-109.3449 -0.2382 -1360.9414 39.5483 2396.1946 2438.4219
-109.9562 -0.2323 -1361.2095 39.5650 2396.8621 2439.1348
-110.5702 -0.2263 -1361.4703 39.5817 2397.5293 2439.8477
-111.1870 -0.2203 -1361.7239 39.5983 2398.1963 2440.5586
-111.8064 -0.2143 -1361.9702 39.6150 2398.8628 2441.2686
-112.4284 -0.2083 -1362.2092 39.6317 2399.5291 2441.9766
-113.0529 -0.2022 -1362.4409 39.6483 2400.1953 2442.6846
-113.6797 -0.1962 -1362.6652 39.6650 2400.8611 2443.3926
-114.3090 -0.1901 -1362.8821 39.6816 2401.5266 2444.0996
-114.9407 -0.1840 -1363.0916 39.6983 2402.1921 2444.8076
-115.5747 -0.1780 -1363.2937 39.7150 2402.8577 2445.5146
-116.2111 -0.1719 -1363.4884 39.7316 2403.5232 2446.2227
-116.8497 -0.1658 -1363.6757 39.7483 2404.1887 2446.9316
-117.4905 -0.1596 -1363.8555 39.7650 2404.8545 2447.6416
-118.1334 -0.1535 -1364.0277 39.7816 2405.5200 2448.3525
-118.7784 -0.1474 -1364.1925 39.7983 2406.1858 2449.0645
-119.4253 -0.1413 -1364.3499 39.8150 2406.8516 2449.7793
-120.0742 -0.1352 -1364.4996 39.8316 2407.5176 2450.4941
-120.7249 -0.1290 -1364.6417 39.8483 2408.1836 2451.2080
-121.3773 -0.1229 -1364.7764 39.8649 2408.8499 2451.9219
-122.0314 -0.1167 -1364.9033 39.8816 2409.5161 2452.6348
-122.6870 -0.1106 -1365.0228 39.8983 2410.1826 2453.3467
-123.3443 -0.1044 -1365.1346 39.9149 2410.8494 2454.0605
-124.0031 -0.0982 -1365.2388 39.9316 2411.5164 2454.7734
-124.6634 -0.0920 -1365.3354 39.9483 2412.1836 2455.4873
-125.3252 -0.0857 -1365.4243 39.9649 2412.8516 2456.2021
-125.9884 -0.0795 -1365.5057 39.9816 2413.5195 2456.9189
-126.6529 -0.0732 -1365.5795 39.9983 2414.1882 2457.6367
-127.3188 -0.0669 -1365.6456 40.0149 2414.8574 2458.3564
-127.9860 -0.0606 -1365.7041 40.0316 2415.5273 2459.0771
-128.6544 -0.0542 -1365.7549 40.0483 2416.1978 2459.7969
-129.3240 -0.0478 -1365.7981 40.0649 2416.8687 2460.5146
-129.9947 -0.0414 -1365.8337 40.0816 2417.5403 2461.2334
-130.6665 -0.0349 -1365.8616 40.0983 2418.2129 2461.9521
-131.3393 -0.0284 -1365.8818 40.1149 2418.8860 2462.6709
-132.0130 -0.0218 -1365.8944 40.1316 2419.5598 2463.3906
-132.6876 -0.0152 -1365.8994 40.1483 2420.2344 2464.1113
-133.3631 -0.0086 -1365.8966 40.1649 2420.9099 2464.8330
-134.0392 -0.0019 -1365.8862 40.1816 2421.5862 2465.5566
-134.7161 0.0049 -1365.8680 40.1983 2422.2634 2466.2812
-135.3936 0.0116 -1365.8423 40.2149 2422.9414 2467.0078
-136.0716 0.0185 -1365.8087 40.2316 2423.6204 2467.7383
-136.7502 0.0254 -1365.7675 40.2483 2424.3000 2468.4697
-137.4293 0.0323 -1365.7185 40.2649 2424.9810 2469.2021
-138.1087 0.0394 -1365.6619 40.2816 2425.6628 2469.9336
-138.7885 0.0464 -1365.5974 40.2983 2426.3457 2470.6650
-139.4686 0.0536 -1365.5253 40.3150 2427.0295 2471.3984
-140.1488 0.0608 -1365.4453 40.3316 2427.7146 2472.1318
-140.8293 0.0680 -1365.3575 40.3483 2428.4006 2472.8672
-141.5097 0.0754 -1365.2621 40.3650 2429.0879 2473.6035
-142.1902 0.0828 -1365.1587 40.3816 2429.7764 2474.3408
-142.8706 0.0902 -1365.0475 40.3983 2430.4658 2475.0811
-143.5509 0.0978 -1364.9285 40.4150 2431.1562 2475.8232
-144.2309 0.1054 -1364.8016 40.4317 2431.8481 2476.5674
-144.9107 0.1131 -1364.6669 40.4483 2432.5413 2477.3135
-145.5899 0.1209 -1364.5242 40.4650 2433.2354 2478.0625
-146.2681 0.1287 -1364.3737 40.4817 2433.9302 2478.8105
-146.9450 0.1367 -1364.2153 40.4983 2434.6252 2479.5586
-147.6206 0.1446 -1364.0493 40.5150 2435.3210 2480.3057
-148.2949 0.1527 -1363.8755 40.5317 2436.0173 2481.0518
-148.9676 0.1608 -1363.6938 40.5483 2436.7144 2481.7998
-149.6389 0.1690 -1363.5044 40.5650 2437.4119 2482.5469
-150.3086 0.1773 -1363.3071 40.5817 2438.1101 2483.2949
-150.9768 0.1856 -1363.1019 40.5983 2438.8091 2484.0439
-151.6432 0.1940 -1362.8890 40.6150 2439.5088 2484.7939
-152.3081 0.2025 -1362.6682 40.6317 2440.2095 2485.5459
-152.9712 0.2110 -1362.4395 40.6483 2440.9109 2486.2998
-153.6325 0.2197 -1362.2030 40.6650 2441.6133 2487.0557
-154.2920 0.2283 -1361.9586 40.6817 2442.3167 2487.8125
-154.9496 0.2371 -1361.7063 40.6983 2443.0210 2488.5693
-155.6053 0.2460 -1361.4462 40.7150 2443.7266 2489.3252
-156.2591 0.2549 -1361.1782 40.7317 2444.4331 2490.0820
-156.9109 0.2639 -1360.9023 40.7483 2445.1411 2490.8389
-157.5605 0.2729 -1360.6187 40.7650 2445.8499 2491.5957
-158.2080 0.2821 -1360.3271 40.7816 2446.5601 2492.3545
-158.8533 0.2914 -1360.0278 40.7983 2447.2715 2493.1123
-159.4963 0.3007 -1359.7207 40.8150 2447.9841 2493.8730
-160.1370 0.3101 -1359.4059 40.8316 2448.6980 2494.6348
-160.7752 0.3197 -1359.0833 40.8483 2449.4133 2495.3984
-161.4111 0.3293 -1358.7529 40.8650 2450.1299 2496.1641
-162.0447 0.3391 -1358.4148 40.8816 2450.8481 2496.9326
-162.6759 0.3489 -1358.0688 40.8983 2451.5679 2497.7031
-163.3048 0.3589 -1357.7151 40.9150 2452.2896 2498.4736
-163.9312 0.3690 -1357.3535 40.9317 2453.0129 2499.2451
-164.5553 0.3793 -1356.9841 40.9483 2453.7383 2500.0166
-165.1769 0.3896 -1356.6069 40.9650 2454.4653 2500.7891
-165.7959 0.4001 -1356.2220 40.9817 2455.1943 2501.5615
-166.4123 0.4108 -1355.8295 40.9983 2455.9253 2502.3369
-167.0262 0.4216 -1355.4290 41.0150 2456.6584 2503.1123
-167.6373 0.4325 -1355.0208 41.0317 2457.3933 2503.8906
-168.2456 0.4436 -1354.6049 41.0483 2458.1304 2504.6709
-168.8511 0.4549 -1354.1813 41.0650 2458.8694 2505.4521
-169.4537 0.4662 -1353.7499 41.0817 2459.6106 2506.2373
-170.0534 0.4778 -1353.3108 41.0984 2460.3540 2507.0254
-170.6502 0.4895 -1352.8640 41.1150 2461.0994 2507.8135
-171.2438 0.5014 -1352.4095 41.1317 2461.8472 2508.6016
-171.8344 0.5135 -1351.9474 41.1484 2462.5972 2509.3896
-172.4218 0.5257 -1351.4775 41.1651 2463.3496 2510.1787
-173.0060 0.5382 -1351.0000 41.1817 2464.1042 2510.9678
-173.5871 0.5508 -1350.5145 41.1984 2464.8616 2511.7588
-174.1648 0.5636 -1350.0215 41.2151 2465.6211 2512.5518
-174.7392 0.5766 -1349.5206 41.2318 2466.3833 2513.3457
-175.3101 0.5898 -1349.0122 41.2484 2467.1479 2514.1416
-175.8775 0.6032 -1348.4960 41.2651 2467.9153 2514.9404
-176.4412 0.6168 -1347.9720 41.2818 2468.6848 2515.7412
-177.0013 0.6306 -1347.4403 41.2984 2469.4573 2516.5459
-177.5573 0.6446 -1346.9011 41.3151 2470.2319 2517.3525
-178.1092 0.6589 -1346.3544 41.3318 2471.0090 2518.1621
-178.6571 0.6733 -1345.7998 41.3484 2471.7886 2518.9707
-179.2006 0.6880 -1345.2379 41.3651 2472.5706 2519.7793
-179.7393 0.7028 -1344.6687 41.3818 2473.3545 2520.5879
-180.2733 0.7179 -1344.0922 41.3985 2474.1404 2521.3955
-180.8025 0.7332 -1343.5083 41.4151 2474.9285 2522.2041
-181.3267 0.7487 -1342.9170 41.4318 2475.7190 2523.0127
-181.8461 0.7644 -1342.3181 41.4485 2476.5117 2523.8223
-182.3603 0.7804 -1341.7122 41.4651 2477.3066 2524.6318
-182.8689 0.7965 -1341.0992 41.4818 2478.1033 2525.4434
-183.3724 0.8128 -1340.4788 41.4985 2478.9026 2526.2568
-183.8705 0.8294 -1339.8511 41.5151 2479.7041 2527.0713
-184.3631 0.8461 -1339.2162 41.5318 2480.5078 2527.8867
-184.8499 0.8630 -1338.5743 41.5485 2481.3135 2528.7002
-185.3307 0.8802 -1337.9257 41.5651 2482.1211 2529.5137
-185.8056 0.8975 -1337.2701 41.5818 2482.9309 2530.3271
-186.2746 0.9149 -1336.6077 41.5985 2483.7427 2531.1396
-186.7374 0.9326 -1335.9386 41.6151 2484.5564 2531.9531
-187.1942 0.9504 -1335.2627 41.6318 2485.3723 2532.7666
-187.6448 0.9683 -1334.5802 41.6485 2486.1904 2533.5801
-188.0892 0.9863 -1333.8911 41.6651 2487.0105 2534.3945
-188.5273 1.0044 -1333.1956 41.6818 2487.8328 2535.2100
-188.9593 1.0226 -1332.4933 41.6985 2488.6575 2536.0283
-189.3851 1.0409 -1331.7844 41.7152 2489.4846 2536.8467
-189.8043 1.0591 -1331.0695 41.7318 2490.3137 2537.6670
-190.2171 1.0774 -1330.3484 41.7485 2491.1448 2538.4854
-190.6237 1.0956 -1329.6206 41.7652 2491.9785 2539.3057
-191.0240 1.1138 -1328.8865 41.7818 2492.8149 2540.1279
-191.4178 1.1319 -1328.1464 41.7985 2493.6536 2540.9502
-191.8051 1.1498 -1327.4001 41.8152 2494.4944 2541.7744
-192.1858 1.1677 -1326.6479 41.8319 2495.3376 2542.6006
-192.5598 1.1853 -1325.8900 41.8485 2496.1831 2543.4268
-192.9273 1.2028 -1325.1261 41.8652 2497.0310 2544.2559
-193.2879 1.2200 -1324.3566 41.8819 2497.8811 2545.0859
-193.6416 1.2370 -1323.5814 41.8986 2498.7332 2545.9180
-193.9885 1.2538 -1322.8008 41.9152 2499.5876 2546.7520
-194.3283 1.2702 -1322.0148 41.9319 2500.4441 2547.5889
-194.6609 1.2864 -1321.2238 41.9486 2501.3022 2548.4268
-194.9862 1.3024 -1320.4279 41.9652 2502.1624 2549.2666
-195.3042 1.3180 -1319.6266 41.9819 2503.0244 2550.1084
-195.6148 1.3333 -1318.8201 41.9986 2503.8889 2550.9512
-195.9178 1.3484 -1318.0085 42.0153 2504.7551 2551.7959
-196.2133 1.3632 -1317.1923 42.0319 2505.6235 2552.6416
-196.5009 1.3777 -1316.3710 42.0486 2506.4939 2553.4893
-196.7806 1.3918 -1315.5452 42.0653 2507.3657 2554.3389
-197.0524 1.4057 -1314.7144 42.0819 2508.2402 2555.1904
-197.3158 1.4193 -1313.8801 42.0986 2509.1150 2556.0430
-197.5698 1.4326 -1313.0452 42.1153 2509.9880 2556.8936
-197.8151 1.4455 -1312.2078 42.1319 2510.8606 2557.7432
-198.0524 1.4581 -1311.3651 42.1486 2511.7361 2558.5957
-198.2814 1.4704 -1310.5178 42.1653 2512.6138 2559.4492
-198.5019 1.4824 -1309.6670 42.1819 2513.4929 2560.3037
-198.7133 1.4941 -1308.8140 42.1986 2514.3718 2561.1582
-198.9158 1.5054 -1307.9589 42.2153 2515.2505 2562.0127
-199.1093 1.5164 -1307.1019 42.2319 2516.1292 2562.8662
-199.2939 1.5271 -1306.2429 42.2486 2517.0078 2563.7197
-199.4695 1.5374 -1305.3822 42.2652 2517.8865 2564.5723
-199.6362 1.5474 -1304.5194 42.2819 2518.7651 2565.4258
-199.7941 1.5571 -1303.6549 42.2986 2519.6440 2566.2803
