VERSION 0.7
FIELDS x y z i j k w r ib_distance ob_distance
SIZE 4 4 4 4 4 4 4 4 4 4
TYPE F F F F F F F F F F
COUNT 1 1 1 1 1 1 1 1 1 1
WIDTH 573
HEIGHT 1
VIEWPOINT -0.415 0.570 0.582 0.406 167.637 1.022 805.483
POINTS 573
DATA ascii
-103.2656 0.0750 -1362.7266 -0.1844 0.6757 0.6882 0.1891 2430.0000 -5.4308 5.4400
-105.4445 0.1015 -1363.9370 -0.1654 0.6811 0.6928 0.1699 2432.5000 -5.4975 5.5004
-107.6896 0.1249 -1365.0226 -0.1464 0.6859 0.6967 0.1505 2435.0000 -5.5263 5.5273
-109.9926 0.1460 -1365.9884 -0.1289 0.6898 0.6999 0.1328 2437.5000 -5.5236 5.5264
-112.3431 0.1656 -1366.8435 -0.1130 0.6930 0.7024 0.1169 2440.0000 -5.5013 5.5061
-114.7309 0.1847 -1367.5969 -0.0985 0.6954 0.7043 0.1027 2442.5000 -5.4696 5.4749
-117.1455 0.2043 -1368.2574 -0.0855 0.6974 0.7058 0.0902 2445.0000 -5.4371 5.4412
-119.5793 0.2249 -1368.8311 -0.0729 0.6991 0.7070 0.0781 2447.5000 -5.4075 5.4104
-122.0301 0.2467 -1369.3184 -0.0602 0.7005 0.7080 0.0659 2450.0000 -5.3795 5.3812
-124.4962 0.2698 -1369.7188 -0.0475 0.7018 0.7088 0.0538 2452.5000 -5.3512 5.3520
-126.9761 0.2942 -1370.0321 -0.0348 0.7028 0.7093 0.0416 2455.0000 -5.3212 5.3211
-129.4682 0.3198 -1370.2578 -0.0220 0.7037 0.7096 0.0292 2457.5000 -5.2879 5.2867
-131.9687 0.3464 -1370.3907 -0.0080 0.7044 0.7096 0.0154 2460.0000 -5.2508 5.2492
-134.4710 0.3729 -1370.4194 -0.0076 -0.7049 -0.7093 0.0002 2462.5000 -5.2107 5.2095
-136.9683 0.3984 -1370.3318 -0.0247 -0.7050 -0.7086 0.0177 2465.0000 -5.1682 5.1684
-139.4539 0.4218 -1370.1158 -0.0436 -0.7046 -0.7073 0.0371 2467.5000 -5.1236 5.1261
-141.9210 0.4422 -1369.7604 -0.0634 -0.7036 -0.7054 0.0579 2470.0000 -5.0772 5.0823
-144.3665 0.4600 -1369.2700 -0.0811 -0.7022 -0.7032 0.0761 2472.5000 -5.0336 5.0395
-146.7905 0.4765 -1368.6637 -0.0962 -0.7007 -0.7010 0.0914 2475.0000 -4.9973 5.0021
-149.1929 0.4935 -1367.9607 -0.1088 -0.6992 -0.6989 0.1039 2477.5000 -4.9715 4.9742
-151.5738 0.5123 -1367.1804 -0.1191 -0.6979 -0.6970 0.1134 2480.0000 -4.9585 4.9590
-153.9329 0.5344 -1366.3401 -0.1279 -0.6968 -0.6953 0.1213 2482.5000 -4.9588 4.9587
-156.2669 0.5597 -1365.4408 -0.1378 -0.6953 -0.6932 0.1306 2485.0000 -4.9697 4.9703
-158.5710 0.5875 -1364.4738 -0.1490 -0.6934 -0.6906 0.1413 2487.5000 -4.9876 4.9892
-160.8401 0.6169 -1363.4307 -0.1614 -0.6911 -0.6876 0.1535 2490.0000 -5.0086 5.0105
-163.0694 0.6472 -1362.3027 -0.1749 -0.6882 -0.6840 0.1671 2492.5000 -5.0281 5.0296
-165.2530 0.6776 -1361.0822 -0.1895 -0.6847 -0.6798 0.1820 2495.0000 -5.0417 5.0421
-167.3806 0.7073 -1359.7646 -0.2050 -0.6806 -0.6749 0.1981 2497.5000 -5.0454 5.0444
-169.4406 0.7355 -1358.3467 -0.2215 -0.6756 -0.6693 0.2155 2500.0000 -5.0350 5.0332
-171.4214 0.7615 -1356.8252 -0.2391 -0.6698 -0.6629 0.2342 2502.5000 -5.0054 5.0044
-173.3113 0.7845 -1355.1967 -0.2577 -0.6629 -0.6554 0.2541 2505.0000 -4.9506 4.9538
-175.1031 0.8042 -1353.4619 -0.2755 -0.6557 -0.6478 0.2731 2507.5000 -4.8709 4.8803
-176.8027 0.8216 -1351.6329 -0.2911 -0.6489 -0.6406 0.2896 2510.0000 -4.7819 4.7944
-178.4186 0.8381 -1349.7241 -0.3047 -0.6427 -0.6339 0.3037 2512.5000 -4.6994 4.7106
-179.9590 0.8550 -1347.7499 -0.3163 -0.6373 -0.6280 0.3154 2515.0000 -4.6376 4.6439
-181.4323 0.8735 -1345.7244 -0.3262 -0.6326 -0.6227 0.3250 2517.5000 -4.6084 4.6095
-182.8427 0.8944 -1343.6569 -0.3358 -0.6279 -0.6173 0.3344 2520.0000 -4.6141 4.6136
-184.1868 0.9175 -1341.5485 -0.3458 -0.6228 -0.6116 0.3442 2522.5000 -4.6452 4.6457
-185.4607 0.9426 -1339.3990 -0.3560 -0.6173 -0.6055 0.3544 2525.0000 -4.6913 4.6934
-186.6602 0.9695 -1337.2085 -0.3666 -0.6113 -0.5989 0.3649 2527.5000 -4.7417 4.7446
-187.7816 0.9979 -1334.9772 -0.3773 -0.6050 -0.5921 0.3757 2530.0000 -4.7857 4.7883
-188.8250 1.0273 -1332.7072 -0.3872 -0.5987 -0.5854 0.3858 2532.5000 -4.8179 4.8199
-189.7945 1.0573 -1330.4033 -0.3963 -0.5928 -0.5791 0.3952 2535.0000 -4.8395 4.8407
-190.6944 1.0874 -1328.0701 -0.4045 -0.5871 -0.5732 0.4039 2537.5000 -4.8516 4.8521
-191.5291 1.1170 -1325.7124 -0.4120 -0.5816 -0.5677 0.4118 2540.0000 -4.8553 4.8551
-192.3028 1.1457 -1323.3346 -0.4188 -0.5765 -0.5626 0.4192 2542.5000 -4.8518 4.8511
-193.0182 1.1733 -1320.9393 -0.4254 -0.5715 -0.5575 0.4262 2545.0000 -4.8439 4.8433
-193.6774 1.2002 -1318.5283 -0.4316 -0.5666 -0.5526 0.4329 2547.5000 -4.8361 4.8356
-194.2825 1.2266 -1316.1030 -0.4375 -0.5618 -0.5478 0.4391 2550.0000 -4.8324 4.8323
-194.8354 1.2526 -1313.6650 -0.4432 -0.5572 -0.5431 0.4451 2552.5000 -4.8372 4.8375
-195.3375 1.2785 -1311.2158 -0.4488 -0.5526 -0.5385 0.4509 2555.0000 -4.8536 4.8543
-195.7874 1.3041 -1308.7565 -0.4545 -0.5476 -0.5335 0.4571 2557.5000 -4.8778 4.8787
-196.1821 1.3288 -1306.2880 -0.4604 -0.5423 -0.5283 0.4634 2560.0000 -4.9037 4.9042
-196.5191 1.3524 -1303.8112 -0.4665 -0.5367 -0.5229 0.4701 2562.5000 -4.9247 4.9249
-196.7957 1.3745 -1301.3273 -0.4727 -0.5307 -0.5171 0.4769 2565.0000 -4.9343 4.9344
-197.0103 1.3948 -1298.8370 -0.4788 -0.5247 -0.5114 0.4836 2567.5000 -4.9287 4.9292
-197.1655 1.4135 -1296.3422 -0.4845 -0.5190 -0.5059 0.4899 2570.0000 -4.9127 4.9136
-197.2643 1.4309 -1293.8441 -0.4898 -0.5135 -0.5007 0.4957 2572.5000 -4.8926 4.8936
-197.3101 1.4471 -1291.3442 -0.4948 -0.5083 -0.4957 0.5011 2575.0000 -4.8745 4.8753
-197.3059 1.4625 -1288.8442 -0.4995 -0.5034 -0.4909 0.5061 2577.5000 -4.8645 4.8646
-197.2543 1.4771 -1286.3450 -0.5040 -0.4986 -0.4863 0.5109 2580.0000 -4.8642 4.8640
-197.1570 1.4911 -1283.8473 -0.5082 -0.4939 -0.4817 0.5154 2582.5000 -4.8686 4.8685
-197.0152 1.5044 -1281.3516 -0.5123 -0.4894 -0.4773 0.5198 2585.0000 -4.8720 4.8720
-196.8305 1.5171 -1278.8582 -0.5163 -0.4849 -0.4730 0.5240 2587.5000 -4.8684 4.8687
-196.6040 1.5293 -1276.3677 -0.5201 -0.4805 -0.4687 0.5281 2590.0000 -4.8525 4.8528
-196.3341 1.5407 -1273.8813 -0.5243 -0.4755 -0.4640 0.5326 2592.5000 -4.8243 4.8244
-196.0156 1.5512 -1271.4011 -0.5290 -0.4699 -0.4586 0.5376 2595.0000 -4.7897 4.7899
-195.6434 1.5605 -1268.9294 -0.5341 -0.4636 -0.4527 0.5431 2597.5000 -4.7553 4.7557
-195.2121 1.5685 -1266.4681 -0.5395 -0.4566 -0.4461 0.5490 2600.0000 -4.7277 4.7283
-194.7173 1.5748 -1264.0194 -0.5451 -0.4492 -0.4392 0.5551 2602.5000 -4.7130 4.7133
-194.1625 1.5797 -1261.5830 -0.5500 -0.4428 -0.4331 0.5603 2605.0000 -4.7111 4.7109
-193.5566 1.5835 -1259.1577 -0.5540 -0.4373 -0.4279 0.5646 2607.5000 -4.7179 4.7173
-192.9085 1.5865 -1256.7423 -0.5572 -0.4328 -0.4236 0.5680 2610.0000 -4.7290 4.7285
-192.2272 1.5892 -1254.3356 -0.5597 -0.4294 -0.4203 0.5706 2612.5000 -4.7400 4.7400
-191.5199 1.5918 -1251.9364 -0.5620 -0.4264 -0.4173 0.5729 2615.0000 -4.7474 4.7476
-190.7839 1.5941 -1249.5466 -0.5647 -0.4224 -0.4136 0.5758 2617.5000 -4.7503 4.7504
-190.0126 1.5959 -1247.1687 -0.5680 -0.4176 -0.4090 0.5793 2620.0000 -4.7490 4.7488
-189.1995 1.5967 -1244.8055 -0.5718 -0.4120 -0.4037 0.5834 2622.5000 -4.7438 4.7433
-188.3381 1.5964 -1242.4595 -0.5761 -0.4054 -0.3976 0.5880 2625.0000 -4.7346 4.7338
-187.4230 1.5946 -1240.1332 -0.5806 -0.3983 -0.3910 0.5928 2627.5000 -4.7215 4.7206
-186.4531 1.5913 -1237.8287 -0.5851 -0.3910 -0.3842 0.5976 2630.0000 -4.7057 4.7048
-185.4280 1.5867 -1235.5483 -0.5897 -0.3836 -0.3772 0.6024 2632.5000 -4.6883 4.6876
-184.3473 1.5807 -1233.2941 -0.5942 -0.3759 -0.3701 0.6072 2635.0000 -4.6707 4.6705
-183.2107 1.5735 -1231.0681 -0.5988 -0.3681 -0.3627 0.6119 2637.5000 -4.6543 4.6546
-182.0206 1.5652 -1228.8706 -0.6028 -0.3609 -0.3560 0.6161 2640.0000 -4.6408 4.6417
-180.7844 1.5557 -1226.6981 -0.6061 -0.3549 -0.3504 0.6196 2642.5000 -4.6326 4.6336
-179.5103 1.5450 -1224.5469 -0.6088 -0.3498 -0.3458 0.6224 2645.0000 -4.6318 4.6324
-178.2061 1.5332 -1222.4132 -0.6108 -0.3459 -0.3422 0.6246 2647.5000 -4.6403 4.6400
-176.8799 1.5202 -1220.2932 -0.6122 -0.3430 -0.3397 0.6262 2650.0000 -4.6595 4.6582
-175.5375 1.5062 -1218.1841 -0.6134 -0.3407 -0.3377 0.6274 2652.5000 -4.6880 4.6859
-174.1820 1.4913 -1216.0836 -0.6142 -0.3389 -0.3361 0.6284 2655.0000 -4.7214 4.7189
-172.8166 1.4755 -1213.9896 -0.6149 -0.3375 -0.3350 0.6291 2657.5000 -4.7551 4.7528
-171.4444 1.4592 -1211.9001 -0.6153 -0.3367 -0.3343 0.6296 2660.0000 -4.7847 4.7830
-170.0685 1.4423 -1209.8130 -0.6154 -0.3363 -0.3340 0.6298 2662.5000 -4.8062 4.8053
-168.6916 1.4251 -1207.7264 -0.6154 -0.3363 -0.3341 0.6298 2665.0000 -4.8200 4.8196
-167.3160 1.4077 -1205.6389 -0.6152 -0.3366 -0.3344 0.6296 2667.5000 -4.8288 4.8286
-165.9440 1.3902 -1203.5491 -0.6148 -0.3374 -0.3352 0.6292 2670.0000 -4.8356 4.8354
-164.5782 1.3729 -1201.4552 -0.6142 -0.3385 -0.3362 0.6286 2672.5000 -4.8432 4.8430
-163.2205 1.3558 -1199.3561 -0.6135 -0.3398 -0.3374 0.6279 2675.0000 -4.8542 4.8541
-161.8717 1.3389 -1197.2513 -0.6128 -0.3412 -0.3387 0.6272 2677.5000 -4.8698 4.8699
-160.5316 1.3220 -1195.1409 -0.6121 -0.3425 -0.3400 0.6265 2680.0000 -4.8907 4.8912
-159.2005 1.3049 -1193.0248 -0.6113 -0.3438 -0.3413 0.6258 2682.5000 -4.9176 4.9186
-157.8783 1.2876 -1190.9031 -0.6106 -0.3450 -0.3427 0.6251 2685.0000 -4.9513 4.9529
-156.5652 1.2698 -1188.7758 -0.6098 -0.3464 -0.3440 0.6244 2687.5000 -4.9918 4.9939
-155.2620 1.2517 -1186.6423 -0.6089 -0.3479 -0.3455 0.6235 2690.0000 -5.0363 5.0388
-153.9694 1.2336 -1184.5024 -0.6080 -0.3495 -0.3471 0.6226 2692.5000 -5.0817 5.0845
-152.6882 1.2155 -1182.3558 -0.6071 -0.3512 -0.3487 0.6217 2695.0000 -5.1246 5.1275
-151.4194 1.1977 -1180.2019 -0.6061 -0.3531 -0.3505 0.6206 2697.5000 -5.1619 5.1645
-150.1634 1.1803 -1178.0404 -0.6051 -0.3550 -0.3522 0.6195 2700.0000 -5.1921 5.1944
-148.9205 1.1637 -1175.8715 -0.6040 -0.3570 -0.3540 0.6184 2702.5000 -5.2173 5.2193
-147.6909 1.1482 -1173.6948 -0.6030 -0.3591 -0.3557 0.6172 2705.0000 -5.2402 5.2419
-146.4749 1.1340 -1171.5104 -0.6020 -0.3612 -0.3574 0.6160 2707.5000 -5.2633 5.2647
-145.2726 1.1214 -1169.3184 -0.6010 -0.3634 -0.3591 0.6147 2710.0000 -5.2892 5.2902
-144.0858 1.1105 -1167.1178 -0.5997 -0.3660 -0.3612 0.6132 2712.5000 -5.3187 5.3194
-142.9177 1.1009 -1164.9073 -0.5981 -0.3689 -0.3638 0.6114 2715.0000 -5.3514 5.3519
-141.7716 1.0921 -1162.6857 -0.5962 -0.3722 -0.3669 0.6094 2717.5000 -5.3864 5.3868
-140.6508 1.0838 -1160.4513 -0.5940 -0.3759 -0.3705 0.6072 2720.0000 -5.4230 5.4237
-139.5584 1.0755 -1158.2029 -0.5915 -0.3799 -0.3743 0.6047 2722.5000 -5.4605 5.4615
-138.4947 1.0673 -1155.9406 -0.5892 -0.3836 -0.3780 0.6023 2725.0000 -5.4962 5.4972
-137.4586 1.0590 -1153.6654 -0.5869 -0.3872 -0.3815 0.6001 2727.5000 -5.5260 5.5269
-136.4487 1.0506 -1151.3783 -0.5848 -0.3905 -0.3848 0.5979 2730.0000 -5.5459 5.5464
-135.4637 1.0422 -1149.0806 -0.5827 -0.3937 -0.3878 0.5958 2732.5000 -5.5517 5.5517
-134.5022 1.0338 -1146.7729 -0.5808 -0.3966 -0.3907 0.5939 2735.0000 -5.5404 5.5399
-133.5629 1.0255 -1144.4564 -0.5790 -0.3994 -0.3934 0.5921 2737.5000 -5.5150 5.5144
-132.6442 1.0172 -1142.1315 -0.5773 -0.4019 -0.3958 0.5903 2740.0000 -5.4811 5.4808
-131.7446 1.0091 -1139.7988 -0.5757 -0.4043 -0.3981 0.5887 2742.5000 -5.4441 5.4443
-130.8628 1.0011 -1137.4591 -0.5743 -0.4064 -0.4002 0.5872 2745.0000 -5.4098 5.4104
-129.9987 0.9934 -1135.1125 -0.5726 -0.4089 -0.4026 0.5855 2747.5000 -5.3826 5.3833
-129.1574 0.9858 -1132.7579 -0.5704 -0.4121 -0.4057 0.5832 2750.0000 -5.3641 5.3645
-128.3450 0.9781 -1130.3937 -0.5677 -0.4160 -0.4095 0.5805 2752.5000 -5.3546 5.3546
-127.5672 0.9703 -1128.0183 -0.5644 -0.4206 -0.4140 0.5772 2755.0000 -5.3545 5.3545
-126.8301 0.9621 -1125.6304 -0.5606 -0.4257 -0.4191 0.5734 2757.5000 -5.3642 5.3646
-126.1355 0.9536 -1123.2296 -0.5571 -0.4305 -0.4239 0.5698 2760.0000 -5.3825 5.3838
-125.4781 0.9448 -1120.8179 -0.5540 -0.4345 -0.4279 0.5667 2762.5000 -5.4057 5.4075
-124.8523 0.9359 -1118.3972 -0.5515 -0.4379 -0.4312 0.5642 2765.0000 -5.4292 5.4310
-124.2521 0.9270 -1115.9697 -0.5494 -0.4405 -0.4337 0.5621 2767.5000 -5.4484 5.4496
-123.6719 0.9182 -1113.5374 -0.5479 -0.4426 -0.4357 0.5604 2770.0000 -5.4586 5.4589
-123.1099 0.9095 -1111.1011 -0.5462 -0.4448 -0.4379 0.5587 2772.5000 -5.4582 5.4579
-122.5681 0.9009 -1108.6604 -0.5443 -0.4472 -0.4402 0.5568 2775.0000 -5.4499 5.4493
-122.0486 0.8924 -1106.2152 -0.5422 -0.4498 -0.4428 0.5546 2777.5000 -5.4365 5.4358
-121.5536 0.8839 -1103.7651 -0.5399 -0.4527 -0.4457 0.5523 2780.0000 -5.4209 5.4202
-121.0847 0.8753 -1101.3099 -0.5375 -0.4557 -0.4486 0.5498 2782.5000 -5.4058 5.4051
-120.6410 0.8666 -1098.8499 -0.5353 -0.4583 -0.4511 0.5476 2785.0000 -5.3929 5.3924
-120.2194 0.8580 -1096.3856 -0.5334 -0.4606 -0.4534 0.5457 2787.5000 -5.3831 5.3828
-119.8171 0.8495 -1093.9181 -0.5318 -0.4626 -0.4553 0.5440 2790.0000 -5.3774 5.3774
-119.4311 0.8412 -1091.4478 -0.5305 -0.4642 -0.4569 0.5426 2792.5000 -5.3768 5.3769
-119.0593 0.8332 -1088.9753 -0.5292 -0.4658 -0.4584 0.5412 2795.0000 -5.3819 5.3819
-118.7034 0.8254 -1086.5007 -0.5276 -0.4677 -0.4602 0.5395 2797.5000 -5.3915 5.3913
-118.3662 0.8178 -1084.0237 -0.5257 -0.4699 -0.4624 0.5376 2800.0000 -5.4039 5.4035
-118.0505 0.8101 -1081.5438 -0.5236 -0.4724 -0.4648 0.5354 2802.5000 -5.4174 5.4170
-117.7592 0.8024 -1079.0610 -0.5212 -0.4751 -0.4675 0.5329 2805.0000 -5.4304 5.4300
-117.4946 0.7946 -1076.5752 -0.5186 -0.4780 -0.4704 0.5303 2807.5000 -5.4416 5.4413
-117.2573 0.7868 -1074.0864 -0.5160 -0.4809 -0.4733 0.5277 2810.0000 -5.4514 5.4512
-117.0479 0.7788 -1071.5952 -0.5133 -0.4839 -0.4762 0.5249 2812.5000 -5.4602 5.4600
-116.8670 0.7707 -1069.1018 -0.5106 -0.4869 -0.4792 0.5221 2815.0000 -5.4682 5.4682
-116.7149 0.7627 -1066.6064 -0.5078 -0.4899 -0.4822 0.5193 2817.5000 -5.4761 5.4761
-116.5917 0.7545 -1064.1095 -0.5050 -0.4929 -0.4851 0.5164 2820.0000 -5.4838 5.4839
-116.4970 0.7464 -1061.6113 -0.5023 -0.4957 -0.4880 0.5136 2822.5000 -5.4912 5.4913
-116.4302 0.7382 -1059.1122 -0.4996 -0.4985 -0.4907 0.5109 2825.0000 -5.4979 5.4980
-116.3906 0.7300 -1056.6125 -0.4970 -0.5013 -0.4935 0.5082 2827.5000 -5.5037 5.5038
-116.3776 0.7218 -1054.1127 -0.4944 -0.5039 -0.4961 0.5055 2830.0000 -5.5081 5.5082
-116.3902 0.7135 -1051.6128 -0.4919 -0.5064 -0.4985 0.5030 2832.5000 -5.5100 5.5100
-116.4270 0.7052 -1049.1132 -0.4896 -0.5087 -0.5009 0.5006 2835.0000 -5.5072 5.5071
-116.4864 0.6970 -1046.6138 -0.4874 -0.5109 -0.5030 0.4984 2837.5000 -5.4977 5.4975
-116.5671 0.6888 -1044.1151 -0.4854 -0.5129 -0.5050 0.4962 2840.0000 -5.4792 5.4791
-116.6676 0.6807 -1041.6171 -0.4834 -0.5149 -0.5069 0.4942 2842.5000 -5.4503 5.4504
-116.7880 0.6728 -1039.1199 -0.4814 -0.5169 -0.5089 0.4921 2845.0000 -5.4132 5.4137
-116.9286 0.6649 -1036.6239 -0.4794 -0.5189 -0.5108 0.4899 2847.5000 -5.3727 5.3735
-117.0898 0.6571 -1034.1292 -0.4772 -0.5209 -0.5128 0.4877 2850.0000 -5.3331 5.3342
-117.2722 0.6494 -1031.6359 -0.4751 -0.5230 -0.5149 0.4855 2852.5000 -5.2991 5.3001
-117.4761 0.6418 -1029.1443 -0.4728 -0.5251 -0.5170 0.4832 2855.0000 -5.2742 5.2750
-117.7023 0.6343 -1026.6547 -0.4705 -0.5273 -0.5191 0.4807 2857.5000 -5.2592 5.2597
-117.9516 0.6268 -1024.1672 -0.4681 -0.5295 -0.5214 0.4782 2860.0000 -5.2541 5.2542
-118.2245 0.6194 -1021.6821 -0.4656 -0.5318 -0.5236 0.4756 2862.5000 -5.2588 5.2585
-118.5220 0.6119 -1019.1997 -0.4629 -0.5342 -0.5260 0.4730 2865.0000 -5.2733 5.2725
-118.8454 0.6045 -1016.7204 -0.4601 -0.5367 -0.5286 0.4700 2867.5000 -5.2968 5.2957
-119.1978 0.5969 -1014.2451 -0.4568 -0.5396 -0.5315 0.4666 2870.0000 -5.3272 5.3261
-119.5823 0.5892 -1011.7750 -0.4531 -0.5427 -0.5346 0.4629 2872.5000 -5.3619 5.3612
-120.0023 0.5812 -1009.3109 -0.4491 -0.5461 -0.5381 0.4588 2875.0000 -5.3986 5.3987
-120.4609 0.5730 -1006.8538 -0.4448 -0.5497 -0.5418 0.4544 2877.5000 -5.4349 5.4359
-120.9581 0.5644 -1004.4041 -0.4407 -0.5531 -0.5451 0.4503 2880.0000 -5.4689 5.4706
-121.4898 0.5557 -1001.9614 -0.4371 -0.5560 -0.5481 0.4466 2882.5000 -5.4991 5.5009
-122.0518 0.5469 -999.5253 -0.4339 -0.5585 -0.5507 0.4433 2885.0000 -5.5235 5.5251
-122.6399 0.5380 -997.0951 -0.4313 -0.5606 -0.5528 0.4406 2887.5000 -5.5403 5.5413
-123.2498 0.5291 -994.6705 -0.4290 -0.5624 -0.5546 0.4382 2890.0000 -5.5476 5.5478
-123.8782 0.5204 -992.2507 -0.4271 -0.5640 -0.5561 0.4362 2892.5000 -5.5453 5.5450
-124.5226 0.5119 -989.8353 -0.4254 -0.5653 -0.5574 0.4344 2895.0000 -5.5347 5.5342
-125.1804 0.5035 -987.4235 -0.4240 -0.5664 -0.5585 0.4330 2897.5000 -5.5173 5.5171
-125.8492 0.4955 -985.0146 -0.4230 -0.5673 -0.5593 0.4318 2900.0000 -5.4946 5.4949
-126.5269 0.4877 -982.6081 -0.4219 -0.5681 -0.5601 0.4306 2902.5000 -5.4683 5.4693
-127.2159 0.4802 -980.2048 -0.4204 -0.5693 -0.5613 0.4290 2905.0000 -5.4413 5.4428
-127.9204 0.4729 -977.8062 -0.4184 -0.5709 -0.5629 0.4269 2907.5000 -5.4169 5.4184
-128.6443 0.4657 -975.4134 -0.4159 -0.5728 -0.5648 0.4243 2910.0000 -5.3983 5.3994
-129.3917 0.4585 -973.0278 -0.4129 -0.5750 -0.5670 0.4212 2912.5000 -5.3884 5.3887
-130.1665 0.4513 -970.6509 -0.4095 -0.5775 -0.5695 0.4177 2915.0000 -5.3886 5.3883
-130.9705 0.4439 -968.2836 -0.4059 -0.5801 -0.5722 0.4140 2917.5000 -5.3950 5.3946
-131.8056 0.4364 -965.9272 -0.4020 -0.5828 -0.5750 0.4101 2920.0000 -5.4030 5.4028
-132.6736 0.4286 -963.5828 -0.3978 -0.5856 -0.5779 0.4059 2922.5000 -5.4079 5.4079
-133.5760 0.4205 -961.2516 -0.3934 -0.5886 -0.5810 0.4014 2925.0000 -5.4049 5.4049
-134.5136 0.4120 -958.9343 -0.3891 -0.5915 -0.5840 0.3971 2927.5000 -5.3918 5.3914
-135.4842 0.4033 -956.6304 -0.3851 -0.5941 -0.5867 0.3930 2930.0000 -5.3709 5.3699
-136.4855 0.3946 -954.3397 -0.3814 -0.5966 -0.5893 0.3891 2932.5000 -5.3451 5.3436
-137.5154 0.3861 -952.0616 -0.3779 -0.5989 -0.5916 0.3854 2935.0000 -5.3174 5.3157
-138.5714 0.3780 -949.7957 -0.3747 -0.6010 -0.5936 0.3820 2937.5000 -5.2906 5.2890
-139.6500 0.3705 -947.5406 -0.3721 -0.6028 -0.5953 0.3792 2940.0000 -5.2663 5.2651
-140.7466 0.3637 -945.2941 -0.3702 -0.6041 -0.5965 0.3770 2942.5000 -5.2441 5.2433
-141.8562 0.3579 -943.0538 -0.3690 -0.6050 -0.5973 0.3755 2945.0000 -5.2235 5.2232
-142.9739 0.3534 -940.8173 -0.3684 -0.6056 -0.5977 0.3745 2947.5000 -5.2038 5.2039
-144.0954 0.3503 -938.5825 -0.3682 -0.6060 -0.5979 0.3739 2950.0000 -5.1844 5.1848
-145.2226 0.3485 -936.3505 -0.3672 -0.6067 -0.5985 0.3726 2952.5000 -5.1662 5.1665
-146.3613 0.3479 -934.1248 -0.3653 -0.6080 -0.5997 0.3704 2955.0000 -5.1505 5.1505
-147.5177 0.3482 -931.9086 -0.3626 -0.6098 -0.6014 0.3675 2957.5000 -5.1385 5.1382
-148.6977 0.3492 -929.7052 -0.3591 -0.6120 -0.6036 0.3636 2960.0000 -5.1310 5.1310
-149.9058 0.3506 -927.5172 -0.3555 -0.6142 -0.6058 0.3598 2962.5000 -5.1284 5.1294
-151.1357 0.3526 -925.3410 -0.3532 -0.6155 -0.6071 0.3574 2965.0000 -5.1273 5.1292
-152.3774 0.3551 -923.1711 -0.3524 -0.6161 -0.6076 0.3564 2967.5000 -5.1225 5.1244
-153.6208 0.3585 -921.0019 -0.3530 -0.6159 -0.6073 0.3567 2970.0000 -5.1082 5.1090
-154.8558 0.3627 -918.8277 -0.3550 -0.6149 -0.6061 0.3586 2972.5000 -5.0780 5.0771
-156.0735 0.3679 -916.6437 -0.3579 -0.6133 -0.6043 0.3613 2975.0000 -5.0277 5.0254
-157.2688 0.3739 -914.4475 -0.3613 -0.6114 -0.6022 0.3647 2977.5000 -4.9626 4.9598
-158.4373 0.3807 -912.2375 -0.3652 -0.6091 -0.5997 0.3686 2980.0000 -4.8904 4.8880
-159.5747 0.3882 -910.0117 -0.3697 -0.6065 -0.5969 0.3731 2982.5000 -4.8187 4.8175
-160.6768 0.3962 -907.7686 -0.3747 -0.6035 -0.5937 0.3781 2985.0000 -4.7554 4.7556
-161.7417 0.4047 -905.5074 -0.3794 -0.6006 -0.5906 0.3828 2987.5000 -4.7049 4.7058
-162.7730 0.4139 -903.2303 -0.3836 -0.5980 -0.5878 0.3870 2990.0000 -4.6648 4.6657
-163.7742 0.4237 -900.9394 -0.3872 -0.5957 -0.5853 0.3906 2992.5000 -4.6316 4.6323
-164.7494 0.4345 -898.6369 -0.3904 -0.5938 -0.5832 0.3936 2995.0000 -4.6020 4.6024
-165.7022 0.4462 -896.3251 -0.3931 -0.5921 -0.5813 0.3962 2997.5000 -4.5729 4.5730
-166.6334 0.4589 -894.0046 -0.3961 -0.5903 -0.5792 0.3990 3000.0000 -4.5441 4.5440
-167.5406 0.4726 -891.6750 -0.3993 -0.5882 -0.5770 0.4021 3002.5000 -4.5191 4.5189
-168.4213 0.4871 -889.3356 -0.4028 -0.5859 -0.5745 0.4056 3005.0000 -4.5015 4.5014
-169.2727 0.5025 -886.9855 -0.4065 -0.5834 -0.5717 0.4093 3007.5000 -4.4952 4.4952
-170.0925 0.5185 -884.6241 -0.4105 -0.5806 -0.5688 0.4133 3010.0000 -4.5034 4.5034
-170.8799 0.5352 -882.2515 -0.4144 -0.5779 -0.5659 0.4172 3012.5000 -4.5250 4.5248
-171.6354 0.5522 -879.8685 -0.4181 -0.5752 -0.5631 0.4210 3015.0000 -4.5556 4.5553
-172.3596 0.5696 -877.4756 -0.4218 -0.5725 -0.5603 0.4247 3017.5000 -4.5911 4.5906
-173.0530 0.5870 -875.0736 -0.4253 -0.5698 -0.5576 0.4284 3020.0000 -4.6269 4.6263
-173.7160 0.6043 -872.6631 -0.4287 -0.5672 -0.5549 0.4320 3022.5000 -4.6597 4.6590
-174.3484 0.6215 -870.2443 -0.4322 -0.5644 -0.5521 0.4357 3025.0000 -4.6905 4.6898
-174.9495 0.6387 -867.8177 -0.4358 -0.5616 -0.5492 0.4394 3027.5000 -4.7226 4.7217
-175.5187 0.6558 -865.3836 -0.4394 -0.5587 -0.5463 0.4431 3030.0000 -4.7590 4.7577
-176.0554 0.6728 -862.9421 -0.4430 -0.5558 -0.5433 0.4469 3032.5000 -4.8027 4.8009
-176.5598 0.6898 -860.4938 -0.4464 -0.5529 -0.5404 0.4505 3035.0000 -4.8554 4.8532
-177.0343 0.7068 -858.0394 -0.4495 -0.5504 -0.5378 0.4537 3037.5000 -4.9143 4.9121
-177.4819 0.7239 -855.5798 -0.4523 -0.5480 -0.5354 0.4565 3040.0000 -4.9757 4.9739
-177.9056 0.7411 -853.1158 -0.4547 -0.5460 -0.5333 0.4590 3042.5000 -5.0360 5.0349
-178.3084 0.7586 -850.6486 -0.4568 -0.5442 -0.5315 0.4612 3045.0000 -5.0913 5.0911
-178.6922 0.7763 -848.1784 -0.4588 -0.5425 -0.5297 0.4632 3047.5000 -5.1392 5.1398
-179.0572 0.7942 -845.7055 -0.4609 -0.5408 -0.5279 0.4653 3050.0000 -5.1787 5.1797
-179.4032 0.8123 -843.2297 -0.4629 -0.5390 -0.5261 0.4674 3052.5000 -5.2089 5.2100
-179.7300 0.8305 -840.7511 -0.4649 -0.5372 -0.5243 0.4695 3055.0000 -5.2291 5.2299
-180.0375 0.8488 -838.2695 -0.4670 -0.5353 -0.5223 0.4716 3057.5000 -5.2384 5.2388
-180.3224 0.8671 -835.7850 -0.4697 -0.5329 -0.5199 0.4745 3060.0000 -5.2378 5.2375
-180.5778 0.8854 -833.2976 -0.4731 -0.5298 -0.5167 0.4780 3062.5000 -5.2293 5.2286
-180.7969 0.9036 -830.8076 -0.4772 -0.5260 -0.5129 0.4822 3065.0000 -5.2152 5.2144
-180.9728 0.9218 -828.3149 -0.4819 -0.5215 -0.5084 0.4872 3067.5000 -5.1976 5.1970
-181.0991 0.9399 -825.8196 -0.4870 -0.5165 -0.5035 0.4925 3070.0000 -5.1787 5.1781
-181.1779 0.9577 -823.3223 -0.4913 -0.5122 -0.4992 0.4971 3072.5000 -5.1584 5.1576
-181.2168 0.9751 -820.8231 -0.4948 -0.5086 -0.4957 0.5008 3075.0000 -5.1354 5.1347
-181.2236 0.9919 -818.3224 -0.4976 -0.5057 -0.4929 0.5038 3077.5000 -5.1083 5.1084
-181.2058 1.0079 -815.8209 -0.4995 -0.5035 -0.4909 0.5060 3080.0000 -5.0753 5.0775
-181.1732 1.0229 -813.3189 -0.5000 -0.5028 -0.4904 0.5067 3082.5000 -5.0361 5.0409
-181.1465 1.0370 -810.8173 -0.4981 -0.5045 -0.4923 0.5049 3085.0000 -4.9936 5.0005
-181.1512 1.0502 -808.3173 -0.4937 -0.5089 -0.4968 0.5005 3087.5000 -4.9502 4.9581
-181.2129 1.0624 -805.8199 -0.4866 -0.5156 -0.5038 0.4934 3090.0000 -4.9060 4.9142
-181.3567 1.0737 -803.3264 -0.4770 -0.5248 -0.5131 0.4835 3092.5000 -4.8600 4.8679
-181.6045 1.0841 -800.8390 -0.4656 -0.5351 -0.5237 0.4719 3095.0000 -4.8100 4.8174
-181.9646 1.0936 -798.3646 -0.4532 -0.5458 -0.5346 0.4593 3097.5000 -4.7590 4.7655
-182.4429 1.1023 -795.9107 -0.4399 -0.5567 -0.5458 0.4457 3100.0000 -4.7115 4.7165
-183.0451 1.1101 -793.4852 -0.4255 -0.5680 -0.5574 0.4309 3102.5000 -4.6720 4.6750
-183.7771 1.1170 -791.0955 -0.4100 -0.5794 -0.5692 0.4150 3105.0000 -4.6446 4.6456
-184.6414 1.1230 -788.7494 -0.3940 -0.5904 -0.5807 0.3987 3107.5000 -4.6305 4.6303
-185.6347 1.1279 -786.4545 -0.3778 -0.6009 -0.5917 0.3822 3110.0000 -4.6278 4.6270
-186.7530 1.1316 -784.2182 -0.3613 -0.6109 -0.6022 0.3655 3112.5000 -4.6339 4.6333
-187.9923 1.1339 -782.0483 -0.3445 -0.6204 -0.6123 0.3485 3115.0000 -4.6466 4.6465
-189.3486 1.1347 -779.9521 -0.3274 -0.6294 -0.6220 0.3313 3117.5000 -4.6636 4.6642
-190.8153 1.1340 -777.9327 -0.3110 -0.6375 -0.6307 0.3148 3120.0000 -4.6841 4.6852
-192.3829 1.1319 -775.9883 -0.2956 -0.6446 -0.6384 0.2993 3122.5000 -4.7084 4.7096
-194.0416 1.1288 -774.1168 -0.2812 -0.6509 -0.6451 0.2848 3125.0000 -4.7363 4.7371
-195.7819 1.1249 -772.3160 -0.2678 -0.6564 -0.6511 0.2712 3127.5000 -4.7676 4.7673
-197.5947 1.1205 -770.5848 -0.2548 -0.6614 -0.6566 0.2581 3130.0000 -4.8018 4.8001
-199.4776 1.1153 -768.9317 -0.2401 -0.6666 -0.6624 0.2433 3132.5000 -4.8374 4.8349
-201.4333 1.1094 -767.3716 -0.2235 -0.6721 -0.6685 0.2266 3135.0000 -4.8728 4.8702
-203.4641 1.1025 -765.9199 -0.2048 -0.6778 -0.6749 0.2079 3137.5000 -4.9055 4.9037
-205.5726 1.0943 -764.5917 -0.1839 -0.6834 -0.6813 0.1871 3140.0000 -4.9330 4.9325
-207.7598 1.0847 -763.3992 -0.1625 -0.6884 -0.6872 0.1658 3142.5000 -4.9530 4.9535
-210.0163 1.0738 -762.3346 -0.1438 -0.6922 -0.6917 0.1472 3145.0000 -4.9688 4.9695
-212.3283 1.0616 -761.3819 -0.1278 -0.6951 -0.6952 0.1314 3147.5000 -4.9845 4.9851
-214.6823 1.0483 -760.5253 -0.1145 -0.6971 -0.6978 0.1183 3150.0000 -5.0037 5.0040
-217.0646 1.0340 -759.7490 -0.1039 -0.6986 -0.6997 0.1079 3152.5000 -5.0292 5.0282
-219.4634 1.0189 -759.0367 -0.0958 -0.6996 -0.7010 0.1001 3155.0000 -5.0629 5.0594
-221.8731 1.0028 -758.3712 -0.0902 -0.7002 -0.7018 0.0947 3157.5000 -5.1065 5.1001
-224.2898 0.9860 -757.7350 -0.0871 -0.7006 -0.7023 0.0918 3160.0000 -5.1609 5.1524
-226.7095 0.9683 -757.1108 -0.0865 -0.7006 -0.7024 0.0915 3162.5000 -5.2263 5.2171
-229.1281 0.9499 -756.4811 -0.0884 -0.7004 -0.7021 0.0936 3165.0000 -5.3022 5.2947
-231.5418 0.9309 -755.8309 -0.0922 -0.6999 -0.7015 0.0974 3167.5000 -5.3863 5.3835
-233.9473 0.9122 -755.1501 -0.0973 -0.6993 -0.7007 0.1024 3170.0000 -5.4746 5.4777
-236.3409 0.8945 -754.4297 -0.1040 -0.6985 -0.6996 0.1087 3172.5000 -5.5625 5.5706
-238.7195 0.8788 -753.6603 -0.1122 -0.6974 -0.6982 0.1162 3175.0000 -5.6449 5.6555
-241.0795 0.8658 -752.8326 -0.1218 -0.6961 -0.6964 0.1250 3177.5000 -5.7159 5.7263
-243.4160 0.8557 -751.9389 -0.1324 -0.6945 -0.6943 0.1350 3180.0000 -5.7737 5.7828
-245.7228 0.8478 -750.9728 -0.1440 -0.6924 -0.6917 0.1462 3182.5000 -5.8223 5.8302
-247.9933 0.8415 -749.9281 -0.1567 -0.6899 -0.6887 0.1586 3185.0000 -5.8662 5.8733
-250.2211 0.8362 -748.7985 -0.1703 -0.6869 -0.6851 0.1723 3187.5000 -5.9100 5.9164
-252.4001 0.8312 -747.5784 -0.1846 -0.6835 -0.6811 0.1867 3190.0000 -5.9576 5.9628
-254.5282 0.8265 -746.2701 -0.1980 -0.6799 -0.6771 0.2002 3192.5000 -6.0067 6.0104
-256.6060 0.8223 -744.8804 -0.2105 -0.6764 -0.6730 0.2127 3195.0000 -6.0526 6.0550
-258.6340 0.8189 -743.4166 -0.2221 -0.6729 -0.6690 0.2242 3197.5000 -6.0902 6.0918
-260.6129 0.8166 -741.8857 -0.2329 -0.6695 -0.6651 0.2349 3200.0000 -6.1148 6.1158
-262.5427 0.8156 -740.2944 -0.2432 -0.6660 -0.6612 0.2451 3202.5000 -6.1224 6.1231
-264.4209 0.8155 -738.6439 -0.2537 -0.6623 -0.6570 0.2557 3205.0000 -6.1141 6.1147
-266.2441 0.8157 -736.9340 -0.2644 -0.6581 -0.6526 0.2666 3207.5000 -6.0929 6.0938
-268.0086 0.8156 -735.1642 -0.2753 -0.6537 -0.6478 0.2780 3210.0000 -6.0618 6.0631
-269.7110 0.8147 -733.3344 -0.2864 -0.6488 -0.6427 0.2897 3212.5000 -6.0236 6.0255
-271.3477 0.8125 -731.4445 -0.2977 -0.6437 -0.6373 0.3015 3215.0000 -5.9801 5.9825
-272.9155 0.8094 -729.4967 -0.3090 -0.6382 -0.6317 0.3133 3217.5000 -5.9295 5.9326
-274.4109 0.8057 -727.4930 -0.3204 -0.6325 -0.6257 0.3251 3220.0000 -5.8689 5.8732
-275.8309 0.8019 -725.4360 -0.3319 -0.6265 -0.6195 0.3369 3222.5000 -5.7957 5.8020
-277.1720 0.7983 -723.3276 -0.3435 -0.6203 -0.6129 0.3488 3225.0000 -5.7070 5.7164
-278.4339 0.7953 -721.1713 -0.3544 -0.6141 -0.6064 0.3599 3227.5000 -5.6045 5.6162
-279.6212 0.7928 -718.9724 -0.3643 -0.6083 -0.6003 0.3699 3230.0000 -5.4958 5.5077
-280.7394 0.7908 -716.7361 -0.3733 -0.6029 -0.5946 0.3790 3232.5000 -5.3884 5.3983
-281.7941 0.7894 -714.4680 -0.3812 -0.5979 -0.5894 0.3871 3235.0000 -5.2894 5.2954
-282.7904 0.7885 -712.1734 -0.3884 -0.5932 -0.5845 0.3944 3237.5000 -5.2048 5.2066
-283.7302 0.7881 -709.8557 -0.3956 -0.5884 -0.5796 0.4017 3240.0000 -5.1356 5.1349
-284.6118 0.7879 -707.5161 -0.4028 -0.5834 -0.5744 0.4092 3242.5000 -5.0785 5.0768
-285.4328 0.7880 -705.1553 -0.4102 -0.5782 -0.5690 0.4167 3245.0000 -5.0302 5.0285
-286.1913 0.7882 -702.7744 -0.4177 -0.5727 -0.5634 0.4245 3247.5000 -4.9873 4.9864
-286.8857 0.7885 -700.3743 -0.4250 -0.5671 -0.5578 0.4320 3250.0000 -4.9467 4.9469
-287.5216 0.7888 -697.9578 -0.4311 -0.5624 -0.5529 0.4383 3252.5000 -4.9096 4.9104
-288.1093 0.7896 -695.5279 -0.4360 -0.5586 -0.5490 0.4433 3255.0000 -4.8792 4.8798
-288.6590 0.7910 -693.0883 -0.4398 -0.5557 -0.5459 0.4470 3257.5000 -4.8580 4.8582
-289.1810 0.7933 -690.6422 -0.4424 -0.5537 -0.5438 0.4495 3260.0000 -4.8484 4.8482
-289.6844 0.7967 -688.1926 -0.4443 -0.5523 -0.5421 0.4512 3262.5000 -4.8518 4.8517
-290.1707 0.8012 -685.7401 -0.4463 -0.5508 -0.5405 0.4531 3265.0000 -4.8661 4.8665
-290.6390 0.8064 -683.2845 -0.4484 -0.5492 -0.5387 0.4551 3267.5000 -4.8877 4.8888
-291.0883 0.8123 -680.8257 -0.4506 -0.5475 -0.5368 0.4572 3270.0000 -4.9131 4.9146
-291.5176 0.8186 -678.3632 -0.4529 -0.5456 -0.5349 0.4595 3272.5000 -4.9387 4.9403
-291.9258 0.8252 -675.8969 -0.4552 -0.5436 -0.5329 0.4619 3275.0000 -4.9611 4.9625
-292.3119 0.8320 -673.4268 -0.4576 -0.5415 -0.5307 0.4644 3277.5000 -4.9784 4.9794
-292.6748 0.8389 -670.9532 -0.4602 -0.5393 -0.5285 0.4670 3280.0000 -4.9888 4.9894
-293.0134 0.8457 -668.4763 -0.4628 -0.5370 -0.5262 0.4697 3282.5000 -4.9907 4.9907
-293.3265 0.8525 -665.9960 -0.4655 -0.5345 -0.5237 0.4725 3285.0000 -4.9822 4.9819
-293.6138 0.8591 -663.5126 -0.4682 -0.5321 -0.5213 0.4753 3287.5000 -4.9633 4.9630
-293.8758 0.8656 -661.0264 -0.4707 -0.5297 -0.5189 0.4780 3290.0000 -4.9373 4.9371
-294.1130 0.8720 -658.5377 -0.4732 -0.5274 -0.5166 0.4806 3292.5000 -4.9077 4.9077
-294.3263 0.8782 -656.0468 -0.4756 -0.5251 -0.5144 0.4832 3295.0000 -4.8781 4.8783
-294.5163 0.8843 -653.5540 -0.4780 -0.5229 -0.5122 0.4856 3297.5000 -4.8520 4.8523
-294.6835 0.8904 -651.0596 -0.4803 -0.5207 -0.5100 0.4880 3300.0000 -4.8303 4.8307
-294.8288 0.8963 -648.5638 -0.4824 -0.5186 -0.5079 0.4903 3302.5000 -4.8116 4.8120
-294.9526 0.9022 -646.0670 -0.4846 -0.5165 -0.5058 0.4925 3305.0000 -4.7939 4.7944
-295.0557 0.9081 -643.5691 -0.4866 -0.5145 -0.5038 0.4946 3307.5000 -4.7756 4.7762
-295.1387 0.9141 -641.0705 -0.4886 -0.5126 -0.5019 0.4966 3310.0000 -4.7552 4.7558
-295.2020 0.9200 -638.5713 -0.4905 -0.5106 -0.5000 0.4987 3312.5000 -4.7324 4.7331
-295.2459 0.9260 -636.0717 -0.4924 -0.5087 -0.4981 0.5006 3315.0000 -4.7083 4.7089
-295.2709 0.9320 -633.5718 -0.4943 -0.5069 -0.4962 0.5025 3317.5000 -4.6837 4.6843
-295.2771 0.9380 -631.0718 -0.4961 -0.5050 -0.4943 0.5044 3320.0000 -4.6595 4.6600
-295.2650 0.9440 -628.5718 -0.4980 -0.5032 -0.4925 0.5063 3322.5000 -4.6368 4.6372
-295.2338 0.9500 -626.0720 -0.4998 -0.5012 -0.4905 0.5083 3325.0000 -4.6177 4.6181
-295.1831 0.9561 -623.5726 -0.5018 -0.4992 -0.4885 0.5103 3327.5000 -4.6050 4.6052
-295.1119 0.9621 -621.0736 -0.5038 -0.4971 -0.4864 0.5124 3330.0000 -4.6010 4.6010
-295.0197 0.9680 -618.5754 -0.5059 -0.4949 -0.4842 0.5145 3332.5000 -4.6085 4.6082
-294.9058 0.9739 -616.0780 -0.5079 -0.4927 -0.4821 0.5166 3335.0000 -4.6286 4.6278
-294.7708 0.9798 -613.5817 -0.5099 -0.4905 -0.4799 0.5187 3337.5000 -4.6571 4.6561
-294.6152 0.9857 -611.0865 -0.5118 -0.4884 -0.4778 0.5207 3340.0000 -4.6891 4.6880
-294.4397 0.9915 -608.5927 -0.5137 -0.4864 -0.4758 0.5226 3342.5000 -4.7196 4.7185
-294.2449 0.9974 -606.1003 -0.5155 -0.4844 -0.4738 0.5245 3345.0000 -4.7435 4.7427
-294.0313 1.0033 -603.6094 -0.5173 -0.4824 -0.4719 0.5263 3347.5000 -4.7586 4.7581
-293.7997 1.0092 -601.1202 -0.5189 -0.4806 -0.4701 0.5280 3350.0000 -4.7677 4.7674
-293.5508 1.0151 -598.6327 -0.5205 -0.4788 -0.4683 0.5297 3352.5000 -4.7742 4.7740
-293.2850 1.0211 -596.1469 -0.5221 -0.4770 -0.4665 0.5312 3355.0000 -4.7814 4.7813
-293.0032 1.0271 -593.6627 -0.5236 -0.4753 -0.4649 0.5328 3357.5000 -4.7926 4.7924
-292.7054 1.0331 -591.1805 -0.5251 -0.4736 -0.4631 0.5344 3360.0000 -4.8084 4.8082
-292.3907 1.0387 -588.7004 -0.5266 -0.4717 -0.4614 0.5360 3362.5000 -4.8267 4.8265
-292.0587 1.0437 -586.2225 -0.5282 -0.4697 -0.4596 0.5378 3365.0000 -4.8452 4.8449
-291.7086 1.0479 -583.7473 -0.5298 -0.4676 -0.4577 0.5396 3367.5000 -4.8615 4.8613
-291.3397 1.0510 -581.2747 -0.5314 -0.4654 -0.4558 0.5415 3370.0000 -4.8736 4.8735
-290.9525 1.0530 -578.8049 -0.5329 -0.4634 -0.4540 0.5433 3372.5000 -4.8806 4.8805
-290.5482 1.0539 -576.3378 -0.5344 -0.4614 -0.4523 0.5450 3375.0000 -4.8824 4.8824
-290.1277 1.0538 -573.8734 -0.5357 -0.4596 -0.4507 0.5465 3377.5000 -4.8792 4.8791
-289.6924 1.0529 -571.4116 -0.5369 -0.4579 -0.4492 0.5479 3380.0000 -4.8708 4.8707
-289.2430 1.0511 -568.9522 -0.5381 -0.4563 -0.4478 0.5493 3382.5000 -4.8574 4.8571
-288.7796 1.0487 -566.4955 -0.5394 -0.4547 -0.4463 0.5507 3385.0000 -4.8396 4.8390
-288.3016 1.0459 -564.0417 -0.5407 -0.4530 -0.4447 0.5520 3387.5000 -4.8181 4.8173
-287.8087 1.0428 -561.5908 -0.5420 -0.4513 -0.4430 0.5535 3390.0000 -4.7938 4.7928
-287.3005 1.0398 -559.1430 -0.5434 -0.4495 -0.4413 0.5549 3392.5000 -4.7674 4.7662
-286.7764 1.0369 -556.6986 -0.5449 -0.4477 -0.4395 0.5564 3395.0000 -4.7398 4.7384
-286.2359 1.0342 -554.2578 -0.5464 -0.4458 -0.4376 0.5579 3397.5000 -4.7123 4.7109
-285.6784 1.0316 -551.8207 -0.5480 -0.4438 -0.4356 0.5595 3400.0000 -4.6861 4.6847
-285.1032 1.0290 -549.3878 -0.5495 -0.4418 -0.4336 0.5611 3402.5000 -4.6625 4.6613
-284.5099 1.0264 -546.9592 -0.5512 -0.4396 -0.4315 0.5628 3405.0000 -4.6429 4.6420
-283.8975 1.0238 -544.5352 -0.5529 -0.4373 -0.4293 0.5646 3407.5000 -4.6285 4.6279
-283.2645 1.0211 -542.1167 -0.5548 -0.4348 -0.4268 0.5665 3410.0000 -4.6203 4.6201
-282.6092 1.0183 -539.7041 -0.5568 -0.4321 -0.4242 0.5686 3412.5000 -4.6194 4.6195
-281.9301 1.0154 -537.2982 -0.5590 -0.4292 -0.4213 0.5708 3415.0000 -4.6267 4.6271
-281.2256 1.0124 -534.8997 -0.5613 -0.4260 -0.4183 0.5732 3417.5000 -4.6433 4.6437
-280.4950 1.0093 -532.5089 -0.5635 -0.4229 -0.4153 0.5755 3420.0000 -4.6675 4.6678
-279.7386 1.0059 -530.1260 -0.5657 -0.4198 -0.4122 0.5777 3422.5000 -4.6953 4.6953
-278.9568 1.0025 -527.7514 -0.5679 -0.4167 -0.4092 0.5800 3425.0000 -4.7225 4.7222
-278.1499 0.9989 -525.3851 -0.5700 -0.4136 -0.4062 0.5822 3427.5000 -4.7446 4.7442
-277.3183 0.9952 -523.0275 -0.5721 -0.4106 -0.4033 0.5843 3430.0000 -4.7577 4.7574
-276.4626 0.9914 -520.6785 -0.5741 -0.4077 -0.4004 0.5864 3432.5000 -4.7609 4.7609
-275.5840 0.9874 -518.3381 -0.5760 -0.4048 -0.3977 0.5883 3435.0000 -4.7551 4.7556
-274.6833 0.9834 -516.0060 -0.5779 -0.4021 -0.3950 0.5902 3437.5000 -4.7414 4.7423
-273.7614 0.9793 -513.6821 -0.5796 -0.3994 -0.3925 0.5920 3440.0000 -4.7208 4.7222
-272.8197 0.9751 -511.3664 -0.5812 -0.3970 -0.3901 0.5936 3442.5000 -4.6946 4.6963
-271.8599 0.9709 -509.0580 -0.5826 -0.3948 -0.3880 0.5951 3445.0000 -4.6661 4.6679
-270.8843 0.9668 -506.7562 -0.5839 -0.3929 -0.3861 0.5963 3447.5000 -4.6392 4.6406
-269.8953 0.9629 -504.4601 -0.5849 -0.3914 -0.3845 0.5974 3450.0000 -4.6174 4.6183
-268.8951 0.9592 -502.1689 -0.5858 -0.3901 -0.3832 0.5982 3452.5000 -4.6047 4.6049
-267.8856 0.9558 -499.8817 -0.5865 -0.3890 -0.3821 0.5989 3455.0000 -4.6031 4.6029
-266.8683 0.9526 -497.5981 -0.5872 -0.3881 -0.3811 0.5995 3457.5000 -4.6105 4.6102
-265.8445 0.9496 -495.3173 -0.5877 -0.3873 -0.3803 0.6000 3460.0000 -4.6238 4.6238
-264.8153 0.9468 -493.0390 -0.5881 -0.3867 -0.3797 0.6004 3462.5000 -4.6402 4.6404
-263.7819 0.9441 -490.7626 -0.5884 -0.3862 -0.3792 0.6007 3465.0000 -4.6565 4.6569
-262.7453 0.9414 -488.4877 -0.5886 -0.3859 -0.3789 0.6009 3467.5000 -4.6708 4.6713
-261.7062 0.9387 -486.2138 -0.5888 -0.3856 -0.3786 0.6011 3470.0000 -4.6832 4.6836
-260.6653 0.9360 -483.9408 -0.5889 -0.3854 -0.3784 0.6012 3472.5000 -4.6937 4.6940
-259.6231 0.9333 -481.6684 -0.5890 -0.3852 -0.3783 0.6013 3475.0000 -4.7025 4.7027
-258.5804 0.9305 -479.3963 -0.5890 -0.3852 -0.3782 0.6014 3477.5000 -4.7099 4.7100
-257.5374 0.9276 -477.1242 -0.5890 -0.3852 -0.3782 0.6014 3480.0000 -4.7159 4.7160
-256.4944 0.9247 -474.8522 -0.5890 -0.3852 -0.3782 0.6014 3482.5000 -4.7211 4.7212
-255.4514 0.9217 -472.5801 -0.5890 -0.3852 -0.3783 0.6014 3485.0000 -4.7258 4.7258
-254.4088 0.9187 -470.3079 -0.5890 -0.3852 -0.3783 0.6013 3487.5000 -4.7303 4.7304
-253.3667 0.9157 -468.0355 -0.5889 -0.3853 -0.3784 0.6013 3490.0000 -4.7350 4.7351
-252.3251 0.9127 -465.7628 -0.5889 -0.3854 -0.3785 0.6012 3492.5000 -4.7400 4.7401
-251.2842 0.9096 -463.4898 -0.5888 -0.3855 -0.3786 0.6012 3495.0000 -4.7451 4.7452
-250.2440 0.9064 -461.2165 -0.5887 -0.3856 -0.3787 0.6011 3497.5000 -4.7503 4.7504
-249.2046 0.9032 -458.9428 -0.5887 -0.3857 -0.3788 0.6010 3500.0000 -4.7553 4.7554
-248.1661 0.9000 -456.6687 -0.5886 -0.3858 -0.3789 0.6010 3502.5000 -4.7602 4.7603
-247.1282 0.8967 -454.3943 -0.5886 -0.3858 -0.3790 0.6009 3505.0000 -4.7649 4.7650
-246.0905 0.8934 -452.1199 -0.5886 -0.3858 -0.3790 0.6009 3507.5000 -4.7697 4.7697
-245.0527 0.8902 -449.8455 -0.5886 -0.3858 -0.3789 0.6010 3510.0000 -4.7748 4.7747
-244.0144 0.8871 -447.5713 -0.5887 -0.3857 -0.3788 0.6010 3512.5000 -4.7803 4.7801
-242.9758 0.8842 -445.2972 -0.5886 -0.3858 -0.3789 0.6009 3515.0000 -4.7865 4.7863
-241.9395 0.8814 -443.0220 -0.5883 -0.3863 -0.3794 0.6006 3517.5000 -4.7942 4.7940
-240.9086 0.8786 -440.7445 -0.5877 -0.3872 -0.3802 0.6000 3520.0000 -4.8042 4.8039
-239.8859 0.8758 -438.4633 -0.5869 -0.3885 -0.3815 0.5992 3522.5000 -4.8173 4.8170
-238.8746 0.8728 -436.1771 -0.5858 -0.3902 -0.3832 0.5981 3525.0000 -4.8341 4.8340
-237.8765 0.8696 -433.8849 -0.5847 -0.3919 -0.3849 0.5970 3527.5000 -4.8544 4.8547
-236.8918 0.8662 -431.5870 -0.5835 -0.3936 -0.3866 0.5959 3530.0000 -4.8764 4.8770
-235.9203 0.8626 -429.2835 -0.5824 -0.3953 -0.3883 0.5948 3532.5000 -4.8980 4.8988
-234.9620 0.8587 -426.9745 -0.5813 -0.3969 -0.3900 0.5937 3535.0000 -4.9170 4.9179
-234.0167 0.8547 -424.6602 -0.5802 -0.3985 -0.3916 0.5926 3537.5000 -4.9314 4.9322
-233.0831 0.8505 -422.3411 -0.5793 -0.3999 -0.3929 0.5917 3540.0000 -4.9407 4.9413
-232.1586 0.8463 -420.0184 -0.5786 -0.4009 -0.3939 0.5910 3542.5000 -4.9462 4.9465
-231.2407 0.8421 -417.6930 -0.5782 -0.4016 -0.3945 0.5906 3545.0000 -4.9490 4.9492
-230.3268 0.8380 -415.3659 -0.5780 -0.4019 -0.3948 0.5903 3547.5000 -4.9505 4.9506
-229.4145 0.8343 -413.0381 -0.5779 -0.4022 -0.3950 0.5902 3550.0000 -4.9518 4.9518
-228.5064 0.8307 -410.7087 -0.5773 -0.4031 -0.3959 0.5896 3552.5000 -4.9534 4.9534
-227.6078 0.8273 -408.3757 -0.5763 -0.4046 -0.3973 0.5885 3555.0000 -4.9553 4.9552
-226.7241 0.8240 -406.0372 -0.5748 -0.4068 -0.3995 0.5870 3557.5000 -4.9573 4.9573
-225.8608 0.8207 -403.6913 -0.5728 -0.4097 -0.4023 0.5850 3560.0000 -4.9593 4.9594
-225.0228 0.8172 -401.3361 -0.5705 -0.4130 -0.4056 0.5827 3562.5000 -4.9613 4.9614
-224.2108 0.8137 -398.9717 -0.5683 -0.4161 -0.4087 0.5804 3565.0000 -4.9640 4.9641
-223.4242 0.8101 -396.5986 -0.5661 -0.4192 -0.4117 0.5782 3567.5000 -4.9683 4.9685
-222.6624 0.8064 -394.2174 -0.5640 -0.4221 -0.4146 0.5761 3570.0000 -4.9753 4.9757
-221.9247 0.8026 -391.8287 -0.5619 -0.4250 -0.4174 0.5740 3572.5000 -4.9860 4.9868
-221.2101 0.7987 -389.4331 -0.5600 -0.4276 -0.4200 0.5720 3575.0000 -5.0008 5.0018
-220.5164 0.7948 -387.0313 -0.5583 -0.4299 -0.4223 0.5702 3577.5000 -5.0172 5.0181
-219.8412 0.7909 -384.6243 -0.5567 -0.4320 -0.4243 0.5687 3580.0000 -5.0319 5.0325
-219.1820 0.7869 -382.2127 -0.5554 -0.4337 -0.4260 0.5674 3582.5000 -5.0416 5.0419
-218.5363 0.7831 -379.7975 -0.5544 -0.4352 -0.4274 0.5662 3585.0000 -5.0433 5.0432
-217.9028 0.7793 -377.3790 -0.5533 -0.4366 -0.4288 0.5651 3587.5000 -5.0360 5.0358
-217.2818 0.7757 -374.9574 -0.5522 -0.4382 -0.4303 0.5639 3590.0000 -5.0243 5.0242
-216.6741 0.7725 -372.5324 -0.5510 -0.4398 -0.4318 0.5627 3592.5000 -5.0131 5.0131
-216.0803 0.7697 -370.1040 -0.5498 -0.4415 -0.4333 0.5613 3595.0000 -5.0074 5.0075
-215.5011 0.7674 -367.6719 -0.5485 -0.4433 -0.4350 0.5599 3597.5000 -5.0122 5.0120
-214.9380 0.7657 -365.2361 -0.5470 -0.4453 -0.4368 0.5582 3600.0000 -5.0286 5.0281
-214.3935 0.7647 -362.7961 -0.5453 -0.4477 -0.4390 0.5564 3602.5000 -5.0544 5.0536
-213.8701 0.7644 -360.3515 -0.5433 -0.4503 -0.4414 0.5542 3605.0000 -5.0870 5.0862
-213.3703 0.7649 -357.9021 -0.5412 -0.4532 -0.4441 0.5519 3607.5000 -5.1240 5.1234
-212.8964 0.7662 -355.4475 -0.5388 -0.4563 -0.4469 0.5493 3610.0000 -5.1630 5.1628
-212.4494 0.7684 -352.9879 -0.5365 -0.4593 -0.4498 0.5467 3612.5000 -5.2029 5.2032
-212.0293 0.7714 -350.5234 -0.5341 -0.4624 -0.4526 0.5441 3615.0000 -5.2432 5.2440
-211.6362 0.7752 -348.0545 -0.5317 -0.4655 -0.4555 0.5415 3617.5000 -5.2835 5.2848
-211.2701 0.7798 -345.5814 -0.5293 -0.4685 -0.4583 0.5389 3620.0000 -5.3234 5.3250
-210.9310 0.7853 -343.1046 -0.5269 -0.4714 -0.4610 0.5363 3622.5000 -5.3621 5.3640
-210.6178 0.7916 -340.6243 -0.5246 -0.4743 -0.4636 0.5337 3625.0000 -5.3978 5.3997
-210.3295 0.7986 -338.1410 -0.5224 -0.4769 -0.4661 0.5313 3627.5000 -5.4277 5.4293
-210.0647 0.8065 -335.6550 -0.5204 -0.4794 -0.4685 0.5291 3630.0000 -5.4493 5.4504
-209.8224 0.8151 -333.1669 -0.5184 -0.4818 -0.4707 0.5269 3632.5000 -5.4600 5.4603
-209.6010 0.8244 -330.6768 -0.5166 -0.4840 -0.4727 0.5249 3635.0000 -5.4584 5.4578
-209.3983 0.8346 -328.1852 -0.5150 -0.4859 -0.4744 0.5230 3637.5000 -5.4468 5.4458
-209.2119 0.8458 -325.6922 -0.5137 -0.4876 -0.4759 0.5215 3640.0000 -5.4286 5.4275
-209.0396 0.8581 -323.1981 -0.5126 -0.4891 -0.4771 0.5201 3642.5000 -5.4071 5.4062
-208.8789 0.8716 -320.7031 -0.5117 -0.4903 -0.4780 0.5189 3645.0000 -5.3855 5.3851
-208.7294 0.8864 -318.2074 -0.5106 -0.4917 -0.4792 0.5176 3647.5000 -5.3663 5.3662
-208.5938 0.9022 -315.7110 -0.5092 -0.4934 -0.4807 0.5160 3650.0000 -5.3504 5.3504
-208.4750 0.9187 -313.2139 -0.5075 -0.4953 -0.4825 0.5141 3652.5000 -5.3385 5.3385
-208.3760 0.9357 -310.7162 -0.5055 -0.4975 -0.4846 0.5119 3655.0000 -5.3310 5.3310
-208.2997 0.9530 -308.2177 -0.5033 -0.4999 -0.4870 0.5095 3657.5000 -5.3286 5.3286
-208.2458 0.9705 -305.7186 -0.5013 -0.5021 -0.4891 0.5074 3660.0000 -5.3289 5.3291
-208.2110 0.9881 -303.2191 -0.4996 -0.5038 -0.4908 0.5056 3662.5000 -5.3272 5.3274
-208.1921 1.0059 -300.7191 -0.4982 -0.5053 -0.4922 0.5042 3665.0000 -5.3183 5.3187
-208.1855 1.0239 -298.2188 -0.4972 -0.5064 -0.4932 0.5031 3667.5000 -5.2969 5.2980
-208.1884 1.0421 -295.7184 -0.4963 -0.5074 -0.4942 0.5021 3670.0000 -5.2590 5.2611
-208.2039 1.0605 -293.2181 -0.4948 -0.5089 -0.4957 0.5005 3672.5000 -5.2096 5.2123
-208.2379 1.0791 -290.7183 -0.4926 -0.5111 -0.4979 0.4982 3675.0000 -5.1583 5.1606
-208.2967 1.0978 -288.2194 -0.4899 -0.5138 -0.5006 0.4953 3677.5000 -5.1142 5.1154
-208.3864 1.1164 -285.7216 -0.4865 -0.5172 -0.5040 0.4918 3680.0000 -5.0860 5.0864
-208.5109 1.1350 -283.2254 -0.4832 -0.5204 -0.5072 0.4884 3682.5000 -5.0801 5.0809
-208.6629 1.1536 -280.7303 -0.4810 -0.5225 -0.5093 0.4861 3685.0000 -5.0929 5.0947
-208.8314 1.1720 -278.2359 -0.4798 -0.5235 -0.5104 0.4849 3687.5000 -5.1174 5.1197
-209.0056 1.1904 -275.7417 -0.4798 -0.5236 -0.5105 0.4849 3690.0000 -5.1462 5.1480
-209.1747 1.2087 -273.2472 -0.4808 -0.5225 -0.5095 0.4860 3692.5000 -5.1711 5.1716
-209.3306 1.2268 -270.7521 -0.4822 -0.5212 -0.5081 0.4875 3695.0000 -5.1853 5.1851
-209.4737 1.2446 -268.2563 -0.4834 -0.5200 -0.5070 0.4888 3697.5000 -5.1886 5.1885
-209.6054 1.2617 -265.7599 -0.4844 -0.5189 -0.5061 0.4900 3700.0000 -5.1822 5.1825
-209.7275 1.2781 -263.2629 -0.4852 -0.5179 -0.5053 0.4910 3702.5000 -5.1674 5.1682
-209.8414 1.2935 -260.7656 -0.4858 -0.5171 -0.5047 0.4919 3705.0000 -5.1454 5.1464
-209.9473 1.3077 -258.2677 -0.4866 -0.5161 -0.5039 0.4930 3707.5000 -5.1177 5.1188
-210.0423 1.3208 -255.7695 -0.4877 -0.5148 -0.5028 0.4943 3710.0000 -5.0872 5.0882
-210.1239 1.3329 -253.2709 -0.4891 -0.5132 -0.5014 0.4960 3712.5000 -5.0565 5.0574
-210.1893 1.3440 -250.7719 -0.4908 -0.5114 -0.4998 0.4979 3715.0000 -5.0286 5.0294
-210.2358 1.3542 -248.2725 -0.4926 -0.5093 -0.4979 0.5000 3717.5000 -5.0060 5.0067
-210.2629 1.3636 -245.7728 -0.4944 -0.5074 -0.4961 0.5020 3720.0000 -4.9905 4.9908
-210.2724 1.3723 -243.2729 -0.4959 -0.5057 -0.4945 0.5038 3722.5000 -4.9820 4.9821
-210.2661 1.3802 -240.7729 -0.4973 -0.5041 -0.4931 0.5054 3725.0000 -4.9807 4.9806
-210.2458 1.3875 -238.2728 -0.4986 -0.5027 -0.4918 0.5067 3727.5000 -4.9868 4.9865
-210.2128 1.3942 -235.7728 -0.4997 -0.5014 -0.4906 0.5081 3730.0000 -5.0001 4.9999
-210.1658 1.4003 -233.2731 -0.5012 -0.4997 -0.4891 0.5097 3732.5000 -5.0183 5.0182
-210.1019 1.4056 -230.7739 -0.5029 -0.4978 -0.4874 0.5116 3735.0000 -5.0379 5.0378
-210.0179 1.4102 -228.2754 -0.5049 -0.4955 -0.4853 0.5139 3737.5000 -5.0552 5.0551
-209.9109 1.4138 -225.7780 -0.5072 -0.4929 -0.4829 0.5164 3740.0000 -5.0666 5.0665
-209.7787 1.4164 -223.2817 -0.5094 -0.4903 -0.4804 0.5190 3742.5000 -5.0695 5.0695
-209.6237 1.4182 -220.7867 -0.5114 -0.4880 -0.4784 0.5211 3745.0000 -5.0665 5.0665
-209.4498 1.4194 -218.2927 -0.5129 -0.4862 -0.4766 0.5228 3747.5000 -5.0616 5.0616
-209.2606 1.4202 -215.7997 -0.5142 -0.4848 -0.4753 0.5241 3750.0000 -5.0590 5.0590
-209.0601 1.4208 -213.3076 -0.5151 -0.4838 -0.4743 0.5251 3752.5000 -5.0627 5.0629
-208.8505 1.4213 -210.8163 -0.5160 -0.4827 -0.4733 0.5260 3755.0000 -5.0750 5.0756
-208.6298 1.4219 -208.3261 -0.5172 -0.4814 -0.4720 0.5272 3757.5000 -5.0942 5.0953
-208.3952 1.4224 -205.8372 -0.5186 -0.4798 -0.4704 0.5287 3760.0000 -5.1175 5.1190
-208.1441 1.4230 -203.3499 -0.5203 -0.4779 -0.4685 0.5304 3762.5000 -5.1423 5.1439
-207.8736 1.4236 -200.8644 -0.5222 -0.4757 -0.4664 0.5324 3765.0000 -5.1658 5.1672
-207.5805 1.4242 -198.3813 -0.5245 -0.4731 -0.4637 0.5348 3767.5000 -5.1853 5.1862
-207.2607 1.4247 -195.9016 -0.5272 -0.4699 -0.4607 0.5376 3770.0000 -5.1977 5.1980
-206.9099 1.4251 -193.4265 -0.5302 -0.4663 -0.4572 0.5408 3772.5000 -5.1999 5.1998
-206.5238 1.4251 -190.9568 -0.5336 -0.4622 -0.4532 0.5443 3775.0000 -5.1887 5.1889
-206.0984 1.4248 -188.4939 -0.5373 -0.4577 -0.4488 0.5481 3777.5000 -5.1610 5.1625
-205.6343 1.4240 -186.0378 -0.5406 -0.4535 -0.4448 0.5516 3780.0000 -5.1195 5.1227
-205.1358 1.4230 -183.5881 -0.5434 -0.4499 -0.4413 0.5545 3782.5000 -5.0715 5.0758
-204.6079 1.4218 -181.1442 -0.5458 -0.4469 -0.4383 0.5570 3785.0000 -5.0244 5.0288
-204.0553 1.4205 -178.7057 -0.5478 -0.4443 -0.4358 0.5591 3787.5000 -4.9852 4.9886
-203.4823 1.4193 -176.2719 -0.5495 -0.4421 -0.4337 0.5608 3790.0000 -4.9599 4.9617
-202.8907 1.4182 -173.8428 -0.5512 -0.4400 -0.4315 0.5625 3792.5000 -4.9491 4.9495
-202.2805 1.4171 -171.4184 -0.5528 -0.4379 -0.4294 0.5642 3795.0000 -4.9509 4.9502
-201.6520 1.4161 -168.9988 -0.5544 -0.4357 -0.4273 0.5658 3797.5000 -4.9635 4.9618
-201.0052 1.4152 -166.5841 -0.5561 -0.4336 -0.4252 0.5675 3800.0000 -4.9850 4.9827
-200.3405 1.4144 -164.1743 -0.5576 -0.4316 -0.4232 0.5690 3802.5000 -5.0136 5.0108
-199.6601 1.4136 -161.7688 -0.5588 -0.4299 -0.4215 0.5703 3805.0000 -5.0465 5.0437
-198.9666 1.4131 -159.3669 -0.5599 -0.4285 -0.4202 0.5713 3807.5000 -5.0810 5.0786
-198.2627 1.4127 -156.9679 -0.5607 -0.4275 -0.4191 0.5721 3810.0000 -5.1142 5.1126
-197.5511 1.4125 -154.5712 -0.5613 -0.4267 -0.4183 0.5726 3812.5000 -5.1434 5.1426
-196.8330 1.4126 -152.1764 -0.5619 -0.4259 -0.4174 0.5733 3815.0000 -5.1671 5.1669
-196.1057 1.4128 -149.7844 -0.5629 -0.4246 -0.4161 0.5742 3817.5000 -5.1877 5.1878
-195.3659 1.4130 -147.3964 -0.5641 -0.4229 -0.4144 0.5755 3820.0000 -5.2080 5.2083
-194.6104 1.4130 -145.0135 -0.5656 -0.4207 -0.4124 0.5771 3822.5000 -5.2309 5.2313
-193.8358 1.4129 -142.6366 -0.5674 -0.4182 -0.4100 0.5789 3825.0000 -5.2591 5.2597
-193.0398 1.4124 -140.2667 -0.5692 -0.4155 -0.4074 0.5809 3827.5000 -5.2926 5.2931
-192.2219 1.4113 -137.9043 -0.5711 -0.4127 -0.4048 0.5829 3830.0000 -5.3267 5.3270
-191.3814 1.4096 -135.5498 -0.5730 -0.4098 -0.4021 0.5849 3832.5000 -5.3564 5.3565
-190.5178 1.4071 -133.2037 -0.5749 -0.4067 -0.3994 0.5870 3835.0000 -5.3767 5.3767
-189.6306 1.4036 -130.8665 -0.5768 -0.4037 -0.3966 0.5891 3837.5000 -5.3828 5.3828
-188.7205 1.3991 -128.5381 -0.5786 -0.4008 -0.3940 0.5911 3840.0000 -5.3743 5.3746
-187.7893 1.3936 -126.2181 -0.5802 -0.3981 -0.3915 0.5929 3842.5000 -5.3548 5.3553
-186.8388 1.3873 -123.9058 -0.5817 -0.3956 -0.3893 0.5946 3845.0000 -5.3280 5.3286
-185.8709 1.3802 -121.6007 -0.5831 -0.3934 -0.3873 0.5960 3847.5000 -5.2974 5.2979
-184.8872 1.3723 -119.3023 -0.5843 -0.3914 -0.3855 0.5974 3850.0000 -5.2664 5.2666
-183.8890 1.3638 -117.0103 -0.5854 -0.3894 -0.3838 0.5986 3852.5000 -5.2364 5.2364
-182.8770 1.3546 -114.7243 -0.5865 -0.3876 -0.3822 0.5998 3855.0000 -5.2082 5.2079
-181.8521 1.3447 -112.4441 -0.5875 -0.3859 -0.3806 0.6009 3857.5000 -5.1823 5.1818
-180.8152 1.3342 -110.1693 -0.5884 -0.3843 -0.3792 0.6019 3860.0000 -5.1595 5.1588
