VERSION 0.7
FIELDS x y z arclength speed lapdistance
SIZE 4 4 4 4 4 4
TYPE F F F F F F
COUNT 1 1 1 1 1 1
WIDTH 886
HEIGHT 1
VIEWPOINT 0.000 0.000 0.000 1.000 0.000 0.000 0.000
POINTS 886
DATA ascii
314.5300 0.4219 -483.7674 3377.3579 65.6453 3377.3765
314.7360 0.4338 -482.2813 3378.8584 65.7738 3378.8770
314.9411 0.4465 -480.7950 3380.3586 65.9013 3380.3772
315.1455 0.4598 -479.3086 3381.8591 66.0280 3381.8777
315.3490 0.4731 -477.8222 3383.3594 66.1538 3383.3779
315.5515 0.4861 -476.3355 3384.8599 66.2788 3384.8784
315.7523 0.4984 -474.8487 3386.3604 66.4029 3386.3789
315.9505 0.5097 -473.3616 3387.8606 66.5261 3387.8792
316.1453 0.5202 -471.8739 3389.3611 66.6486 3389.3796
316.3356 0.5301 -470.3857 3390.8613 66.7702 3390.8799
316.5206 0.5395 -468.8967 3392.3618 66.8910 3392.3804
316.6998 0.5489 -467.4071 3393.8621 67.0109 3393.8806
316.8730 0.5583 -465.9169 3395.3625 67.1301 3395.3811
317.0410 0.5677 -464.4260 3396.8628 67.2485 3396.8813
317.2049 0.5769 -462.9346 3398.3633 67.3661 3398.3818
317.3655 0.5860 -461.4429 3399.8638 67.4830 3399.8823
317.5229 0.5951 -459.9508 3401.3640 67.5991 3401.3826
317.6767 0.6043 -458.4584 3402.8645 67.7144 3402.8831
317.8267 0.6137 -456.9655 3404.3647 67.8290 3404.3833
317.9728 0.6231 -455.4723 3405.8652 67.9428 3405.8838
318.1150 0.6325 -453.9787 3407.3655 68.0559 3407.3840
318.2534 0.6416 -452.4848 3408.8660 68.1682 3408.8843
318.3875 0.6501 -450.9904 3410.3665 68.2799 3410.3848
318.5165 0.6579 -449.4956 3411.8667 68.3908 3411.8853
318.6404 0.6653 -448.0005 3413.3672 68.5010 3413.3855
318.7596 0.6723 -446.5049 3414.8674 68.6105 3414.8857
318.8752 0.6790 -445.0091 3416.3679 68.7193 3416.3862
318.9879 0.6857 -443.5130 3417.8682 68.8275 3417.8865
319.0982 0.6922 -442.0168 3419.3687 68.9349 3419.3867
319.2061 0.6986 -440.5204 3420.8689 69.0417 3420.8870
319.3112 0.7046 -439.0236 3422.3694 69.1478 3422.3875
319.4131 0.7102 -437.5267 3423.8699 69.2532 3423.8879
319.5118 0.7155 -436.0296 3425.3701 69.3580 3425.3882
319.6077 0.7204 -434.5322 3426.8706 69.4621 3426.8889
319.7007 0.7251 -433.0348 3428.3708 69.5656 3428.3892
319.7903 0.7298 -431.5371 3429.8713 69.6685 3429.8894
319.8756 0.7345 -430.0391 3431.3716 69.7707 3431.3896
319.9558 0.7393 -428.5409 3432.8721 69.8723 3432.8901
320.0304 0.7443 -427.0424 3434.3726 69.9733 3434.3906
320.0994 0.7494 -425.5435 3435.8728 70.0736 3435.8911
320.1635 0.7545 -424.0445 3437.3733 70.1733 3437.3916
320.2233 0.7594 -422.5454 3438.8735 70.2725 3438.8916
320.2793 0.7642 -421.0461 3440.3740 70.3710 3440.3921
320.3314 0.7688 -419.5466 3441.8743 70.4690 3441.8923
320.3795 0.7733 -418.0470 3443.3748 70.5663 3443.3928
320.4238 0.7778 -416.5473 3444.8750 70.6631 3444.8931
320.4649 0.7825 -415.0474 3446.3755 70.7593 3446.3938
320.5037 0.7874 -413.5475 3447.8760 70.8549 3447.8940
320.5412 0.7924 -412.0477 3449.3762 70.9500 3449.3943
320.5782 0.7974 -410.5477 3450.8767 71.0444 3450.8950
320.6152 0.8022 -409.0478 3452.3770 71.1384 3452.3953
320.6523 0.8066 -407.5479 3453.8774 71.2317 3453.8955
320.6894 0.8104 -406.0481 3455.3777 71.3246 3455.3958
320.7263 0.8136 -404.5482 3456.8782 71.4168 3456.8962
320.7633 0.8162 -403.0483 3458.3784 71.5086 3458.3965
320.8007 0.8183 -401.5484 3459.8789 71.5998 3459.8970
320.8397 0.8198 -400.0486 3461.3794 71.6905 3461.3975
320.8825 0.8207 -398.5489 3462.8796 71.7806 3462.8975
320.9317 0.8208 -397.0493 3464.3801 71.5560 3464.3979
320.9895 0.8197 -395.5499 3465.8804 71.0115 3465.8984
321.0572 0.8173 -394.0510 3467.3809 71.1057 3467.3989
321.1344 0.8135 -392.5527 3468.8811 71.1992 3468.8992
321.2205 0.8085 -391.0548 3470.3816 71.2922 3470.3997
321.3141 0.8025 -389.5573 3471.8821 71.3847 3471.9001
321.4139 0.7961 -388.0602 3473.3823 71.4766 3473.4004
321.5185 0.7894 -386.5634 3474.8828 71.5680 3474.9011
321.6260 0.7829 -385.0669 3476.3831 71.6589 3476.4014
321.7349 0.7764 -383.5705 3477.8835 71.7492 3477.9016
321.8443 0.7700 -382.0741 3479.3838 71.8390 3479.4021
321.9538 0.7636 -380.5777 3480.8843 71.9283 3480.9026
322.0637 0.7572 -379.0813 3482.3845 72.0171 3482.4028
322.1741 0.7509 -377.5850 3483.8850 72.1053 3483.9033
322.2854 0.7446 -376.0887 3485.3855 72.1931 3485.4038
322.3978 0.7382 -374.5924 3486.8857 72.2803 3486.9043
322.5113 0.7319 -373.0964 3488.3862 72.3671 3488.4045
322.6258 0.7255 -371.6005 3489.8865 72.4533 3489.9048
322.7409 0.7191 -370.1046 3491.3870 72.5391 3491.4053
322.8565 0.7128 -368.6086 3492.8872 72.6244 3492.9055
322.9725 0.7064 -367.1127 3494.3877 72.7092 3494.4062
323.0889 0.6999 -365.6169 3495.8882 72.7935 3495.9065
323.2055 0.6935 -364.1211 3497.3884 72.8773 3497.4067
323.3225 0.6871 -362.6254 3498.8889 72.9607 3498.9072
323.4398 0.6807 -361.1296 3500.3892 73.0436 3500.4075
323.5573 0.6743 -359.6338 3501.8896 73.1260 3501.9080
323.6750 0.6680 -358.1380 3503.3899 73.2080 3503.4082
323.7928 0.6619 -356.6423 3504.8904 73.2895 3504.9087
323.9107 0.6559 -355.1467 3506.3906 73.3706 3506.4089
324.0286 0.6499 -353.6509 3507.8911 73.4512 3507.9094
324.1465 0.6438 -352.1552 3509.3916 73.5314 3509.4099
324.2644 0.6375 -350.6595 3510.8918 73.6111 3510.9099
324.3824 0.6312 -349.1638 3512.3923 73.6904 3512.4104
324.5005 0.6248 -347.6680 3513.8926 73.7692 3513.9109
324.6185 0.6184 -346.1723 3515.3931 73.8476 3515.4114
324.7367 0.6120 -344.6765 3516.8933 73.9256 3516.9116
324.8548 0.6055 -343.1808 3518.3938 74.0032 3518.4121
324.9730 0.5991 -341.6851 3519.8940 74.0803 3519.9124
325.0912 0.5927 -340.1895 3521.3945 74.1571 3521.4128
325.2095 0.5863 -338.6938 3522.8950 74.2334 3522.9133
325.3278 0.5799 -337.1981 3524.3953 74.3092 3524.4136
325.4461 0.5736 -335.7024 3525.8958 74.3847 3525.9141
325.5644 0.5675 -334.2068 3527.3960 74.4598 3527.4143
325.6826 0.5614 -332.7111 3528.8965 74.5345 3528.9148
325.8009 0.5555 -331.2154 3530.3967 74.6087 3530.4150
325.9194 0.5495 -329.7197 3531.8972 74.6826 3531.9153
326.0382 0.5435 -328.2241 3533.3977 74.7561 3533.4158
326.1573 0.5372 -326.7285 3534.8979 74.8291 3534.9160
326.2763 0.5309 -325.2328 3536.3984 74.9018 3536.4165
326.3954 0.5245 -323.7373 3537.8987 74.9741 3537.9167
326.5144 0.5180 -322.2417 3539.3992 75.0461 3539.4172
326.6332 0.5116 -320.7461 3540.8994 75.1176 3540.9172
326.7520 0.5051 -319.2505 3542.3999 75.1888 3542.4177
326.8706 0.4987 -317.7549 3543.9001 75.2595 3543.9180
326.9891 0.4923 -316.2592 3545.4006 75.3299 3545.4185
327.1075 0.4859 -314.7636 3546.9011 75.4000 3546.9189
327.2258 0.4794 -313.2679 3548.4014 75.4697 3548.4192
327.3439 0.4730 -311.7723 3549.9019 75.5390 3549.9194
327.4620 0.4666 -310.2766 3551.4021 75.6079 3551.4197
327.5800 0.4602 -308.7809 3552.9026 75.6765 3552.9202
327.6978 0.4538 -307.2853 3554.4028 75.7447 3554.4204
327.8156 0.4474 -305.7896 3555.9033 75.8126 3555.9207
327.9333 0.4410 -304.2938 3557.4038 75.7532 3557.4214
328.0509 0.4346 -302.7981 3558.9041 75.2295 3558.9214
328.1684 0.4281 -301.3023 3560.4045 74.7033 3560.4219
328.2859 0.4217 -299.8065 3561.9048 74.1746 3561.9224
328.4032 0.4154 -298.3109 3563.4053 73.6434 3563.4226
328.5204 0.4090 -296.8150 3564.9055 73.1096 3564.9229
328.6375 0.4026 -295.3192 3566.4060 72.5731 3566.4236
328.7546 0.3963 -293.8233 3567.9062 72.0338 3567.9238
328.8718 0.3900 -292.3275 3569.4067 71.4919 3569.4243
328.9891 0.3837 -290.8316 3570.9072 70.9471 3570.9248
329.1067 0.3773 -289.3358 3572.4075 70.3994 3572.4253
329.2247 0.3709 -287.8400 3573.9080 69.8488 3573.9258
329.3430 0.3645 -286.3443 3575.4082 69.2952 3575.4260
329.4616 0.3581 -284.8485 3576.9087 68.7385 3576.9265
329.5803 0.3516 -283.3528 3578.4089 68.1787 3578.4270
329.6989 0.3451 -281.8571 3579.9094 67.6157 3579.9275
329.8179 0.3385 -280.3614 3581.4097 67.0494 3581.4277
329.9380 0.3318 -278.8658 3582.9102 66.4797 3582.9282
330.0606 0.3251 -277.3704 3584.4106 65.9067 3584.4287
330.1873 0.3184 -275.8754 3585.9109 65.3301 3585.9292
330.3200 0.3118 -274.3810 3587.4114 64.7499 3587.4294
330.4597 0.3052 -272.8871 3588.9116 64.1660 3588.9297
330.6069 0.2987 -271.3939 3590.4121 63.5784 3590.4302
330.7609 0.2921 -269.9016 3591.9124 62.9868 3591.9304
330.9214 0.2855 -268.4098 3593.4128 62.3914 3593.4309
331.0886 0.2788 -266.9187 3594.9133 61.7918 3594.9314
331.2636 0.2718 -265.4285 3596.4136 61.1880 3596.4319
331.4466 0.2644 -263.9393 3597.9141 60.5800 3597.9324
331.6371 0.2563 -262.4510 3599.4143 59.9676 3599.4326
331.8337 0.2474 -260.9637 3600.9148 59.3506 3600.9331
332.0353 0.2376 -259.4770 3602.4150 58.7289 3602.4333
332.2413 0.2271 -257.9909 3603.9155 58.1025 3603.9336
332.4515 0.2157 -256.5053 3605.4158 57.4711 3605.4341
332.6659 0.2037 -255.0205 3606.9163 56.8345 3606.9343
332.8849 0.1910 -253.5362 3608.4167 56.1928 3608.4348
333.1089 0.1775 -252.0526 3609.9170 55.5456 3609.9353
333.3387 0.1633 -250.5700 3611.4175 54.8929 3611.4358
333.5759 0.1484 -249.0886 3612.9177 54.2343 3612.9360
333.8224 0.1330 -247.6087 3614.4182 53.5698 3614.4365
334.0804 0.1171 -246.1307 3615.9185 52.8991 3615.9368
334.3513 0.1011 -244.6550 3617.4189 52.2220 3617.4373
334.6367 0.0848 -243.1821 3618.9194 51.5383 3618.9377
334.9373 0.0685 -241.7123 3620.4197 50.8477 3620.4380
335.2542 0.0522 -240.2458 3621.9202 50.1500 3621.9385
335.5878 0.0361 -238.7831 3623.4204 49.4449 3623.4387
335.9391 0.0204 -237.3244 3624.9209 48.7321 3624.9392
336.3089 0.0051 -235.8704 3626.4211 48.0112 3626.4395
336.6979 -0.0099 -234.4215 3627.9216 47.2821 3627.9399
337.1068 -0.0248 -232.9781 3629.4219 47.1658 3629.4402
337.5355 -0.0398 -231.5404 3630.9224 47.4717 3630.9407
337.9828 -0.0551 -230.1084 3632.4229 47.7735 3632.4409
338.4469 -0.0710 -228.6817 3633.9231 48.0713 3633.9412
338.9258 -0.0875 -227.2599 3635.4236 48.3653 3635.4417
339.4166 -0.1046 -225.8423 3636.9238 48.6556 3636.9419
339.9167 -0.1224 -224.4279 3638.4243 48.9422 3638.4424
340.4241 -0.1407 -223.0161 3639.9246 49.2252 3639.9426
340.9388 -0.1595 -221.6069 3641.4250 49.5048 3641.4429
341.4616 -0.1788 -220.2007 3642.9255 49.7809 3642.9431
341.9935 -0.1985 -218.7977 3644.4258 50.0538 3644.4438
342.5354 -0.2184 -217.3987 3645.9263 50.3233 3645.9443
343.0882 -0.2384 -216.0041 3647.4265 50.5897 3647.4446
343.6523 -0.2583 -214.6139 3648.9270 50.8530 3648.9451
344.2281 -0.2779 -213.2285 3650.4272 51.1133 3650.4453
344.8160 -0.2972 -211.8482 3651.9277 51.3706 3651.9458
345.4164 -0.3162 -210.4733 3653.4280 51.6249 3653.4460
346.0296 -0.3348 -209.1042 3654.9285 51.8764 3654.9465
346.6558 -0.3531 -207.7408 3656.4290 52.1252 3656.4470
347.2948 -0.3711 -206.3834 3657.9292 52.3712 3657.9473
347.9461 -0.3888 -205.0320 3659.4297 52.6145 3659.4478
348.6094 -0.4062 -203.6864 3660.9299 52.8552 3660.9480
349.2841 -0.4233 -202.3464 3662.4304 53.0934 3662.4485
349.9699 -0.4401 -201.0120 3663.9307 53.3290 3663.9487
350.6662 -0.4565 -199.6830 3665.4312 53.5621 3665.4492
351.3722 -0.4726 -198.3591 3666.9314 53.7928 3666.9495
352.0864 -0.4882 -197.0398 3668.4319 53.5159 3668.4500
352.8070 -0.5031 -195.7239 3669.9324 52.8447 3669.9504
353.5320 -0.5171 -194.4103 3671.4326 52.1671 3671.4507
354.2603 -0.5303 -193.0986 3672.9331 51.4828 3672.9512
354.9923 -0.5424 -191.7889 3674.4333 50.7917 3674.4517
355.7295 -0.5536 -190.4821 3675.9338 50.0934 3675.9521
356.4741 -0.5643 -189.1796 3677.4341 49.3877 3677.4524
357.2291 -0.5746 -187.8831 3678.9346 48.6742 3678.9526
357.9973 -0.5850 -186.5944 3680.4351 47.9527 3680.4531
358.7805 -0.5957 -185.3148 3681.9353 47.2228 3681.9534
359.5794 -0.6069 -184.0448 3683.4358 46.4842 3683.4539
360.3931 -0.6186 -182.7841 3684.9360 45.7364 3684.9543
361.2190 -0.6305 -181.5317 3686.4365 44.9815 3686.4546
362.0545 -0.6424 -180.2856 3687.9368 44.2238 3687.9548
362.8966 -0.6539 -179.0439 3689.4373 43.4632 3689.4553
363.7426 -0.6649 -177.8050 3690.9375 42.6995 3690.9556
364.5911 -0.6753 -176.5675 3692.4380 41.9327 3692.4561
365.4411 -0.6853 -175.3310 3693.9385 41.1625 3693.9565
366.2920 -0.6952 -174.0953 3695.4387 40.3889 3695.4568
367.1435 -0.7053 -172.8601 3696.9392 39.6117 3696.9573
367.9948 -0.7155 -171.6248 3698.4395 38.8308 3698.4575
368.8444 -0.7258 -170.3881 3699.9399 38.0459 3699.9580
369.6894 -0.7358 -169.1484 3701.4402 37.2569 3701.4583
370.5258 -0.7455 -167.9029 3702.9407 36.4636 3702.9585
371.3490 -0.7549 -166.6485 3704.4412 35.6658 3704.4590
372.1538 -0.7643 -165.3824 3705.9414 34.8632 3705.9592
372.9352 -0.7739 -164.1017 3707.4419 34.0556 3707.4597
373.6882 -0.7837 -162.8039 3708.9421 33.2427 3708.9600
374.4091 -0.7939 -161.4881 3710.4426 32.9191 3710.4604
375.0969 -0.8040 -160.1547 3711.9429 33.4656 3711.9607
375.7531 -0.8136 -158.8056 3713.4434 34.0032 3713.4612
376.3802 -0.8224 -157.4426 3714.9436 34.5324 3714.9614
376.9793 -0.8300 -156.0670 3716.4441 35.0534 3716.4622
377.5500 -0.8364 -154.6793 3717.9446 34.9073 3717.9626
378.0909 -0.8418 -153.2798 3719.4448 34.1000 3719.4629
378.5996 -0.8469 -151.8685 3720.9453 33.2874 3720.9634
379.0736 -0.8522 -150.4449 3722.4456 32.4692 3722.4636
379.5110 -0.8584 -149.0098 3723.9460 33.0233 3723.9641
379.9127 -0.8656 -147.5641 3725.4463 33.5680 3725.4646
380.2818 -0.8736 -146.1098 3726.9468 34.1040 3726.9651
380.6215 -0.8816 -144.6485 3728.4470 34.6316 3728.4653
380.9327 -0.8887 -143.1809 3729.9475 34.3522 3729.9656
381.2141 -0.8942 -141.7072 3731.4480 33.5412 3731.4661
381.4624 -0.8980 -140.2275 3732.9482 32.7248 3732.9663
381.6736 -0.9001 -138.7420 3734.4487 31.9026 3734.4668
381.8456 -0.9007 -137.2516 3735.9490 32.2021 3735.9670
381.9788 -0.9005 -135.7573 3737.4495 32.7607 3737.4675
382.0755 -0.9001 -134.2601 3738.9497 33.3098 3738.9678
382.1385 -0.9001 -132.7611 3740.4502 33.8499 3740.4680
382.1705 -0.9009 -131.2612 3741.9507 34.3815 3741.9685
382.1738 -0.9028 -129.7608 3743.4509 34.9048 3743.4688
382.1499 -0.9057 -128.2607 3744.9514 35.4202 3744.9692
382.0985 -0.9091 -126.7612 3746.4517 35.9282 3746.4695
382.0178 -0.9128 -125.2631 3747.9521 36.4290 3747.9700
381.9062 -0.9164 -123.7669 3749.4524 36.1576 3749.4702
381.7625 -0.9197 -122.2734 3750.9529 35.7977 3750.9707
381.5863 -0.9223 -120.7834 3752.4531 35.8666 3752.4709
381.3777 -0.9238 -119.2977 3753.9536 35.7087 3753.9712
381.1366 -0.9238 -117.8170 3755.4541 35.1743 3755.4714
380.8623 -0.9225 -116.3419 3756.9543 34.9688 3756.9719
380.5547 -0.9203 -114.8734 3758.4548 35.4833 3758.4727
380.2159 -0.9178 -113.4117 3759.9551 35.9904 3759.9729
379.8500 -0.9156 -111.9567 3761.4556 36.4903 3761.4734
379.4619 -0.9138 -110.5075 3762.9558 36.9792 3762.9734
379.0549 -0.9123 -109.0634 3764.4563 37.4573 3764.4739
378.6309 -0.9106 -107.6240 3765.9568 37.9254 3765.9744
378.1915 -0.9081 -106.1895 3767.4570 38.3838 3767.4749
377.7380 -0.9042 -104.7594 3768.9575 38.8329 3768.9751
377.2720 -0.8987 -103.3333 3770.4578 39.2731 3770.4753
376.7948 -0.8914 -101.9108 3771.9583 39.7048 3771.9758
376.3083 -0.8826 -100.4915 3773.4585 40.1284 3773.4761
375.8150 -0.8730 -99.0745 3774.9590 40.5441 3774.9766
375.3174 -0.8631 -97.6591 3776.4592 40.9523 3776.4768
374.8176 -0.8534 -96.2444 3777.9597 41.3533 3777.9775
374.3172 -0.8437 -94.8299 3779.4602 41.7473 3779.4780
373.8170 -0.8340 -93.4153 3780.9604 42.1345 3780.9783
373.3173 -0.8238 -92.0007 3782.4609 42.5152 3782.4788
372.8183 -0.8131 -90.5859 3783.9612 42.8897 3783.9790
372.3201 -0.8018 -89.1708 3785.4617 43.2581 3785.4792
371.8228 -0.7899 -87.7553 3786.9619 43.6206 3786.9795
371.3261 -0.7778 -86.3396 3788.4624 43.9775 3788.4797
370.8298 -0.7654 -84.9238 3789.9626 44.3288 3789.9800
370.3337 -0.7528 -83.5079 3791.4631 44.6748 3791.4805
369.8376 -0.7399 -82.0921 3792.9636 45.0157 3792.9810
369.3415 -0.7268 -80.6762 3794.4639 45.3515 3794.4812
368.8454 -0.7138 -79.2602 3795.9644 45.6825 3795.9817
368.3495 -0.7009 -77.8443 3797.4646 46.0087 3797.4819
367.8540 -0.6886 -76.4281 3798.9651 46.3303 3798.9822
367.3596 -0.6771 -75.0116 3800.4653 46.6475 3800.4824
366.8672 -0.6666 -73.5944 3801.9658 46.9603 3801.9829
366.3775 -0.6569 -72.1763 3803.4663 47.2689 3803.4834
365.8907 -0.6478 -70.7571 3804.9666 47.5734 3804.9836
365.4060 -0.6389 -69.3372 3806.4670 47.8739 3806.4841
364.9233 -0.6297 -67.9167 3807.9673 48.1704 3807.9844
364.4423 -0.6197 -66.4956 3809.4678 48.4632 3809.4849
363.9633 -0.6086 -65.0738 3810.9680 48.7522 3810.9849
363.4862 -0.5968 -63.6515 3812.4685 49.0376 3812.4854
363.0104 -0.5843 -62.2286 3813.9688 49.3194 3813.9856
362.5358 -0.5718 -60.8053 3815.4692 49.5978 3815.4861
362.0623 -0.5596 -59.3817 3816.9697 49.8728 3816.9866
361.5901 -0.5481 -57.9576 3818.4700 50.1446 3818.4868
361.1194 -0.5374 -56.5331 3819.9705 50.4131 3819.9871
360.6505 -0.5275 -55.1079 3821.4707 50.6784 3821.4873
360.1838 -0.5185 -53.6820 3822.9712 50.9407 3822.9878
359.7197 -0.5103 -52.2553 3824.4714 51.1999 3824.4880
359.2585 -0.5028 -50.8275 3825.9719 51.4562 3825.9888
358.8003 -0.4961 -49.3987 3827.4724 51.7096 3827.4893
358.3451 -0.4900 -47.9690 3828.9727 51.9602 3828.9895
357.8931 -0.4846 -46.5383 3830.4731 52.2080 3830.4900
357.4443 -0.4795 -45.1066 3831.9734 52.4531 3831.9902
356.9991 -0.4748 -43.6737 3833.4739 52.6956 3833.4907
356.5585 -0.4702 -42.2395 3834.9741 52.9354 3834.9912
356.1250 -0.4652 -40.8032 3836.4746 53.1727 3836.4915
355.7014 -0.4596 -39.3639 3837.9749 53.4075 3837.9917
355.2904 -0.4530 -37.9209 3839.4753 53.6398 3839.4922
354.8937 -0.4454 -36.4739 3840.9758 53.8697 3840.9927
354.5114 -0.4368 -35.0231 3842.4761 54.0973 3842.4929
354.1415 -0.4273 -33.5690 3843.9766 54.3225 3843.9934
353.7816 -0.4174 -32.1125 3845.4768 54.5454 3845.4937
353.4294 -0.4075 -30.6542 3846.9773 54.7661 3846.9941
353.0829 -0.3981 -29.1943 3848.4775 54.9847 3848.4944
352.7411 -0.3894 -27.7334 3849.9780 55.2010 3849.9949
352.4037 -0.3816 -26.2715 3851.4785 55.3535 3851.4954
352.0705 -0.3747 -24.8086 3852.9788 54.6991 3852.9956
351.7420 -0.3684 -23.3446 3854.4792 54.0388 3854.4961
351.4191 -0.3627 -21.8794 3855.9795 53.3725 3855.9963
351.1033 -0.3571 -20.4128 3857.4800 52.6999 3857.4968
350.7965 -0.3517 -18.9441 3858.9802 52.0209 3858.9971
350.5012 -0.3464 -17.4731 3860.4807 51.3352 3860.4976
350.2194 -0.3412 -15.9994 3861.9810 50.6425 3861.9978
349.9528 -0.3365 -14.5229 3863.4814 49.9426 3863.4983
349.7024 -0.3327 -13.0436 3864.9819 49.2353 3864.9988
349.4685 -0.3301 -11.5615 3866.4822 48.5201 3866.4990
349.2513 -0.3285 -10.0770 3867.9827 47.7969 3867.9995
349.0509 -0.3279 -8.5901 3869.4829 47.0651 3869.4998
348.8674 -0.3282 -7.1009 3870.9834 46.3246 3871.0002
348.7013 -0.3294 -5.6097 3872.4836 45.5748 3872.5005
348.5536 -0.3315 -4.1167 3873.9841 44.8193 3874.0010
348.4253 -0.3345 -2.6218 3875.4844 44.0610 3875.5012
348.3176 -0.3383 -1.1253 3876.9849 43.2997 3877.0017
348.2322 -0.3429 0.3725 3878.4854 42.5354 3878.5022
348.1703 -0.3478 1.8715 3879.9856 41.7678 3880.0024
348.1335 -0.3527 3.3714 3881.4861 40.9969 3881.5027
348.1227 -0.3574 4.8716 3882.9863 40.5264 3883.0029
348.1385 -0.3618 6.3718 3884.4868 40.6591 3884.5032
348.1808 -0.3660 7.8716 3885.9871 41.0653 3886.0037
348.2488 -0.3699 9.3705 3887.4875 41.4643 3887.5042
348.3418 -0.3739 10.8679 3888.9880 41.8563 3889.0046
348.4584 -0.3783 12.3637 3890.4883 42.2417 3890.5049
348.5981 -0.3836 13.8575 3891.9888 42.6207 3892.0051
348.7607 -0.3900 15.3490 3893.4890 42.9934 3893.5054
348.9468 -0.3974 16.8377 3894.9895 42.6315 3895.0059
349.1572 -0.4057 18.3231 3896.4897 41.9066 3896.5061
349.3924 -0.4146 19.8050 3897.9902 41.7118 3898.0066
349.6526 -0.4238 21.2827 3899.4905 42.0997 3899.5068
349.9371 -0.4333 22.7558 3900.9910 42.4810 3901.0073
350.2445 -0.4428 24.2242 3902.4915 42.8560 3902.5078
350.5738 -0.4524 25.6879 3903.9917 42.7329 3904.0081
350.9242 -0.4621 27.1468 3905.4922 41.9662 3905.5085
351.2956 -0.4720 28.6005 3906.9924 41.1962 3907.0088
351.6883 -0.4821 30.0486 3908.4929 40.4227 3908.5095
352.1035 -0.4926 31.4903 3909.9932 39.6457 3910.0098
352.5433 -0.5034 32.9247 3911.4937 38.8649 3911.5100
353.0096 -0.5146 34.3507 3912.9941 38.0802 3913.0105
353.5037 -0.5262 35.7673 3914.4944 37.5659 3914.5107
354.0262 -0.5384 37.1737 3915.9949 37.7110 3916.0112
354.5767 -0.5513 38.5694 3917.4951 38.1737 3917.5117
355.1542 -0.5650 39.9541 3918.9956 38.6270 3919.0122
355.7578 -0.5797 41.3276 3920.4958 39.0713 3920.5122
356.3871 -0.5956 42.6895 3921.9963 38.9528 3922.0127
357.0421 -0.6127 44.0391 3923.4966 38.4617 3923.5129
357.7232 -0.6306 45.3758 3924.9971 37.7132 3925.0134
358.4308 -0.6487 46.6986 3926.4976 37.0395 3926.5139
359.1656 -0.6661 48.0067 3927.9978 37.1208 3928.0142
359.9269 -0.6824 49.2995 3929.4983 37.5960 3929.5146
360.7135 -0.6975 50.5769 3930.9985 38.0611 3931.0149
361.5240 -0.7117 51.8395 3932.4990 38.5167 3932.5154
362.3568 -0.7256 53.0874 3933.9993 38.9632 3934.0156
363.2106 -0.7396 54.3210 3935.4998 39.4009 3935.5161
364.0819 -0.7540 55.5424 3937.0000 39.8302 3937.0164
364.9658 -0.7688 56.7548 3938.5005 40.2514 3938.5168
365.8589 -0.7840 57.9605 3940.0010 40.6649 3940.0173
366.7596 -0.7995 59.1603 3941.5012 41.0710 3941.5176
367.6677 -0.8152 60.3544 3943.0017 41.4698 3943.0181
368.5837 -0.8310 61.5426 3944.5020 41.8618 3944.5183
369.5069 -0.8467 62.7251 3946.0024 42.2471 3946.0186
370.4362 -0.8623 63.9029 3947.5027 42.6260 3947.5188
371.3699 -0.8779 65.0772 3949.0032 42.9986 3949.0193
372.3067 -0.8935 66.2492 3950.5037 43.3653 3950.5198
373.2461 -0.9093 67.4190 3952.0039 43.7261 3952.0203
374.1885 -0.9253 68.5863 3953.5044 44.0813 3953.5205
375.1353 -0.9416 69.7502 3955.0046 44.4311 3955.0208
376.0872 -0.9582 70.9097 3956.5051 44.7756 3956.5212
377.0449 -0.9750 72.0646 3958.0054 45.1149 3958.0215
378.0081 -0.9918 73.2148 3959.5059 45.4493 3959.5220
378.9762 -1.0086 74.3608 3961.0061 45.7789 3961.0222
379.9477 -1.0253 75.5041 3962.5066 46.1037 3962.5227
380.9204 -1.0420 76.6464 3964.0071 46.4240 3964.0232
381.8924 -1.0586 77.7894 3965.5073 46.7399 3965.5234
382.8617 -1.0752 78.9346 3967.0078 46.3661 3967.0242
383.8274 -1.0918 80.0829 3968.5081 45.6168 3968.5244
384.7892 -1.1083 81.2343 3970.0085 44.8615 3970.0249
385.7474 -1.1247 82.3887 3971.5088 44.1034 3971.5251
386.7023 -1.1410 83.5459 3973.0093 43.3422 3973.0256
387.6537 -1.1570 84.7059 3974.5098 42.5781 3974.5261
388.6008 -1.1727 85.8694 3976.0100 41.8107 3976.0264
389.5419 -1.1881 87.0379 3977.5105 41.0400 3977.5269
390.4745 -1.2034 88.2133 3979.0107 40.2659 3979.0271
391.3953 -1.2188 89.3978 3980.5112 39.4881 3980.5276
392.3010 -1.2342 90.5938 3982.0115 38.7065 3982.0278
393.1884 -1.2497 91.8035 3983.5120 37.9210 3983.5283
394.0547 -1.2652 93.0284 3985.0122 37.1314 3985.0288
394.8978 -1.2807 94.2695 3986.5127 36.3374 3986.5293
395.7163 -1.2961 95.5269 3988.0132 35.5388 3988.0298
396.5084 -1.3116 96.8009 3989.5134 34.7354 3989.5300
397.2720 -1.3273 98.0924 3991.0139 33.9270 3991.0305
398.0046 -1.3431 99.4017 3992.5142 33.4320 3992.5308
398.7051 -1.3590 100.7283 3994.0146 33.9701 3994.0312
399.3750 -1.3748 102.0706 3995.5149 34.4998 3995.5315
400.0182 -1.3905 103.4259 3997.0154 35.0213 3997.0317
400.6390 -1.4059 104.7918 3998.5156 35.5350 3998.5320
401.2390 -1.4212 106.1668 4000.0161 36.0414 4000.0325
401.8179 -1.4363 107.5509 4001.5166 36.5402 4001.5330
402.3738 -1.4514 108.9444 4003.0168 36.9170 4003.0332
402.9039 -1.4667 110.3479 4004.5173 36.1217 4004.5337
403.4053 -1.4823 111.7619 4006.0176 35.3219 4006.0339
403.8755 -1.4986 113.1866 4007.5181 34.5172 4007.5344
404.3126 -1.5156 114.6217 4009.0183 34.0202 4009.0347
404.7155 -1.5336 116.0668 4010.5188 34.1704 4010.5352
405.0843 -1.5524 117.5209 4012.0193 34.6969 4012.0354
405.4201 -1.5718 118.9831 4013.5195 35.2154 4013.5359
405.7246 -1.5916 120.4521 4015.0200 35.7264 4015.0361
405.9993 -1.6115 121.9269 4016.5203 36.2300 4016.5364
406.2450 -1.6309 123.4068 4018.0208 36.7246 4018.0369
406.4615 -1.6491 124.8913 4019.5210 36.7281 4019.5371
406.6479 -1.6652 126.3799 4021.0215 35.9318 4021.0376
406.8031 -1.6783 127.8723 4022.5217 35.1308 4022.5378
406.9250 -1.6880 129.3676 4024.0222 34.3249 4024.0383
407.0118 -1.6948 130.8655 4025.5227 33.8115 4025.5388
407.0628 -1.6993 132.3650 4027.0229 34.3436 4027.0393
407.0790 -1.7029 133.8652 4028.5234 34.8675 4028.5396
407.0639 -1.7067 135.3654 4030.0237 35.3835 4030.0398
407.0222 -1.7114 136.8652 4031.5242 35.8920 4031.5403
406.9576 -1.7173 138.3641 4033.0244 36.3933 4033.0405
406.8715 -1.7247 139.8620 4034.5249 36.8843 4034.5410
406.7640 -1.7333 141.3585 4036.0254 37.3645 4036.0415
406.6345 -1.7432 142.8534 4037.5256 37.8345 4037.5417
406.4832 -1.7543 144.3460 4039.0261 38.2947 4039.0422
406.3105 -1.7664 145.8363 4040.5264 38.7456 4040.5425
406.1168 -1.7796 147.3241 4042.0269 39.1876 4042.0430
405.9023 -1.7937 148.8090 4043.5271 39.1524 4043.5432
405.6670 -1.8088 150.2907 4045.0276 38.3692 4045.0437
405.4104 -1.8247 151.7689 4046.5278 37.5819 4046.5439
405.1309 -1.8414 153.2428 4048.0283 36.7904 4048.0444
404.8257 -1.8588 154.7117 4049.5288 35.9944 4049.5449
404.4924 -1.8769 156.1745 4051.0291 35.1939 4051.0452
404.1286 -1.8958 157.6300 4052.5295 34.3883 4052.5457
403.7320 -1.9154 159.0768 4054.0298 33.5776 4054.0459
403.3004 -1.9355 160.5135 4055.5303 33.0356 4055.5464
402.8331 -1.9558 161.9391 4057.0305 33.5047 4057.0466
402.3313 -1.9763 163.3528 4058.5310 34.0416 4058.5471
401.7962 -1.9969 164.7543 4060.0315 33.6246 4060.0474
401.2278 -2.0175 166.1426 4061.5317 32.8087 4061.5476
400.6247 -2.0383 167.5163 4063.0322 31.9871 4063.0481
399.9856 -2.0593 168.8735 4064.5325 31.7316 4064.5483
399.3106 -2.0806 170.2132 4066.0330 32.1950 4066.0488
398.6008 -2.1023 171.5349 4067.5332 32.7537 4067.5491
397.8589 -2.1242 172.8388 4069.0337 33.3030 4069.0496
397.0878 -2.1465 174.1256 4070.5339 33.8432 4070.5498
396.2902 -2.1691 175.3962 4072.0344 34.3748 4072.0503
395.4679 -2.1919 176.6509 4073.5349 34.8982 4073.5508
394.6215 -2.2152 177.8896 4075.0352 35.4138 4075.0510
393.7515 -2.2388 179.1117 4076.5356 35.9219 4076.5515
392.8575 -2.2629 180.3162 4078.0359 36.1997 4078.0518
391.9379 -2.2871 181.5016 4079.5364 35.4003 4079.5522
390.9924 -2.3112 182.6663 4081.0366 35.2937 4081.0525
390.0212 -2.3350 183.8096 4082.5371 35.8035 4082.5530
389.0255 -2.3584 184.9318 4084.0374 36.3060 4084.0532
388.0074 -2.3813 186.0338 4085.5378 36.7989 4085.5540
386.9695 -2.4037 187.1168 4087.0383 37.2810 4087.0542
385.9143 -2.4256 188.1832 4088.5386 37.7528 4088.5544
384.8451 -2.4470 189.2356 4090.0391 38.2147 4090.0552
383.7646 -2.4680 190.2764 4091.5393 38.6672 4091.5554
382.6747 -2.4887 191.3073 4093.0398 39.1106 4093.0557
381.5765 -2.5089 192.3295 4094.5400 39.5455 4094.5562
380.4715 -2.5287 193.3439 4096.0405 39.9720 4096.0562
379.3600 -2.5478 194.3514 4097.5410 40.3907 4097.5566
378.2421 -2.5663 195.3521 4099.0415 40.8016 4099.0571
377.1175 -2.5839 196.3452 4100.5415 41.2052 4100.5571
375.9854 -2.6006 197.3296 4102.0420 41.6018 4102.0576
374.8449 -2.6162 198.3041 4103.5425 41.9915 4103.5581
373.6948 -2.6305 199.2673 4105.0430 42.3746 4105.0586
372.5342 -2.6435 200.2179 4106.5430 42.7514 4106.5586
371.3624 -2.6551 201.1549 4108.0435 43.1220 4108.0591
370.1794 -2.6655 202.0775 4109.5439 43.4867 4109.5591
368.9855 -2.6749 202.9861 4111.0444 43.8456 4111.0596
367.7811 -2.6834 203.8811 4112.5449 44.1990 4112.5605
366.5671 -2.6913 204.7630 4114.0449 44.5470 4114.0605
365.3441 -2.6984 205.6320 4115.5454 44.8897 4115.5610
364.1123 -2.7051 206.4883 4117.0459 45.2274 4117.0615
362.8718 -2.7114 207.3322 4118.5464 45.5601 4118.5615
361.6232 -2.7175 208.1642 4120.0464 45.8881 4120.0620
360.3676 -2.7237 208.9855 4121.5469 46.2114 4121.5625
359.1061 -2.7300 209.7976 4123.0474 46.5303 4123.0625
357.8398 -2.7365 210.6024 4124.5479 46.8447 4124.5630
356.5693 -2.7431 211.4008 4126.0483 47.1548 4126.0640
355.2952 -2.7498 212.1933 4127.5483 47.4608 4127.5640
354.0179 -2.7564 212.9805 4129.0488 47.7628 4129.0645
352.7378 -2.7629 213.7629 4130.5493 48.0607 4130.5649
351.4553 -2.7693 214.5413 4132.0498 48.3549 4132.0654
350.1709 -2.7755 215.3165 4133.5503 48.6453 4133.5654
348.8851 -2.7815 216.0895 4135.0503 48.9320 4135.0654
347.5987 -2.7874 216.8615 4136.5508 49.2152 4136.5659
346.3121 -2.7929 217.6332 4138.0513 49.4949 4138.0664
345.0257 -2.7983 218.4052 4139.5518 49.7711 4139.5664
343.7393 -2.8037 219.1775 4141.0518 50.0441 4141.0669
342.4530 -2.8090 219.9502 4142.5522 50.3137 4142.5674
341.1669 -2.8142 220.7232 4144.0527 50.5803 4144.0679
339.8809 -2.8195 221.4963 4145.5532 50.8437 4145.5688
338.5948 -2.8252 222.2696 4147.0537 51.1040 4147.0693
337.3090 -2.8312 223.0428 4148.5537 51.3614 4148.5693
336.0233 -2.8377 223.8159 4150.0542 51.6159 4150.0698
334.7376 -2.8448 224.5890 4151.5547 51.8675 4151.5703
333.4522 -2.8522 225.3626 4153.0552 52.1163 4153.0703
332.1674 -2.8601 226.1372 4154.5552 52.3624 4154.5703
330.8838 -2.8682 226.9140 4156.0557 52.6059 4156.0708
329.6021 -2.8767 227.6937 4157.5562 52.8467 4157.5713
328.3226 -2.8856 228.4774 4159.0566 53.0849 4159.0718
327.0456 -2.8949 229.2652 4160.5571 53.3206 4160.5723
325.7712 -2.9048 230.0569 4162.0571 52.7840 4162.0723
324.4988 -2.9152 230.8517 4163.5576 52.1058 4163.5728
323.2280 -2.9261 231.6491 4165.0581 51.4209 4165.0732
321.9586 -2.9373 232.4486 4166.5586 50.7292 4166.5737
320.6906 -2.9487 233.2506 4168.0586 50.0302 4168.0737
319.4245 -2.9601 234.0560 4169.5591 49.3238 4169.5742
318.1614 -2.9715 234.8657 4171.0596 48.6096 4171.0747
316.9020 -2.9832 235.6812 4172.5601 47.8874 4172.5752
315.6473 -2.9952 236.5042 4174.0605 47.1567 4174.0757
314.3989 -3.0081 237.3364 4175.5605 46.4173 4175.5762
313.1581 -3.0218 238.1799 4177.0610 45.6687 4177.0767
311.9267 -3.0365 239.0368 4178.5615 44.9135 4178.5771
310.7065 -3.0522 239.9095 4180.0620 44.1556 4180.0771
309.4994 -3.0688 240.8005 4181.5620 43.3947 4181.5776
308.3062 -3.0861 241.7103 4183.0625 43.7551 4183.0781
307.1263 -3.1042 242.6372 4184.5630 44.1098 4184.5786
305.9572 -3.1227 243.5773 4186.0635 44.4591 4186.0791
304.7957 -3.1414 244.5270 4187.5640 44.8032 4187.5796
303.6403 -3.1602 245.4839 4189.0640 45.1421 4189.0796
302.4911 -3.1788 246.4480 4190.5645 45.4761 4190.5801
301.3488 -3.1972 247.4205 4192.0649 45.8053 4192.0801
300.2150 -3.2154 248.4031 4193.5654 46.1298 4193.5811
299.0916 -3.2333 249.3974 4195.0659 46.4498 4195.0811
297.9800 -3.2510 250.4048 4196.5659 46.7653 4196.5811
296.8809 -3.2685 251.4261 4198.0664 47.0765 4198.0815
295.7949 -3.2858 252.4613 4199.5669 47.3835 4199.5825
294.7223 -3.3032 253.5101 4201.0674 47.6865 4201.0825
293.6629 -3.3206 254.5725 4202.5674 47.9855 4202.5825
292.6168 -3.3381 255.6479 4204.0679 48.2806 4204.0830
291.5833 -3.3559 256.7353 4205.5684 48.5719 4205.5835
290.5613 -3.3740 257.8335 4207.0688 48.8596 4207.0840
289.5494 -3.3923 258.9411 4208.5693 49.1436 4208.5845
288.5465 -3.4111 260.0570 4210.0693 49.4242 4210.0845
287.5525 -3.4301 261.1809 4211.5698 49.7013 4211.5854
286.5685 -3.4493 262.3134 4213.0703 49.9751 4213.0854
285.5964 -3.4684 263.4558 4214.5708 49.9049 4214.5859
284.6377 -3.4874 264.6096 4216.0708 49.1971 4216.0859
283.6938 -3.5062 265.7755 4217.5713 48.4816 4217.5864
282.7652 -3.5251 266.9538 4219.0718 48.1556 4219.0869
281.8524 -3.5443 268.1445 4220.5723 48.3000 4220.5874
280.9556 -3.5641 269.3472 4222.0728 48.5911 4222.0879
280.0743 -3.5849 270.5613 4223.5728 48.8785 4223.5879
279.2078 -3.6069 271.7858 4225.0732 49.1623 4225.0884
278.3548 -3.6300 273.0197 4226.5737 49.4426 4226.5884
277.5148 -3.6543 274.2627 4228.0742 49.7195 4228.0889
276.6884 -3.6794 275.5150 4229.5742 49.9931 4229.5894
275.8770 -3.7050 276.7767 4231.0747 50.1962 4231.0898
275.0814 -3.7304 278.0484 4232.5752 50.4641 4232.5898
274.3011 -3.7550 279.3298 4234.0757 50.7289 4234.0908
273.5350 -3.7782 280.6198 4235.5762 50.9906 4235.5913
272.7815 -3.7998 281.9170 4237.0762 51.2492 4237.0913
272.0387 -3.8198 283.2204 4238.5767 51.5050 4238.5918
271.3050 -3.8384 284.5291 4240.0771 51.7578 4240.0923
270.5789 -3.8562 285.8420 4241.5776 52.0079 4241.5928
269.8589 -3.8733 287.1584 4243.0776 52.2552 4243.0928
269.1436 -3.8897 288.4774 4244.5781 52.4998 4244.5933
268.4322 -3.9055 289.7983 4246.0786 52.7417 4246.0942
267.7238 -3.9206 291.1210 4247.5791 52.9810 4247.5947
267.0184 -3.9348 292.4452 4249.0796 53.2178 4249.0952
266.3158 -3.9485 293.7709 4250.5796 53.4522 4250.5952
265.6161 -3.9616 295.0981 4252.0801 53.6840 4252.0957
264.9193 -3.9743 296.4266 4253.5806 53.9135 4253.5962
264.2254 -3.9866 297.7568 4255.0811 54.1406 4255.0967
263.5340 -3.9986 299.0885 4256.5815 54.3654 4256.5972
262.8452 -4.0102 300.4215 4258.0815 54.5879 4258.0972
262.1585 -4.0213 301.7556 4259.5820 54.8082 4259.5981
261.4739 -4.0319 303.0907 4261.0825 55.0263 4261.0986
260.7911 -4.0421 304.4268 4262.5830 55.2422 4262.5991
260.1100 -4.0518 305.7639 4264.0830 55.4561 4264.0991
259.4306 -4.0610 307.1017 4265.5835 55.6678 4265.6001
258.7526 -4.0697 308.4403 4267.0840 55.8775 4267.1006
258.0760 -4.0779 309.7796 4268.5845 56.0853 4268.6011
257.4012 -4.0855 311.1194 4270.0850 56.2910 4270.1016
256.7282 -4.0927 312.4603 4271.5850 56.4948 4271.6011
256.0572 -4.0992 313.8022 4273.0854 56.6967 4273.1016
255.3878 -4.1053 315.1449 4274.5859 56.8967 4274.6021
254.7193 -4.1107 316.4881 4276.0864 57.0949 4276.1025
254.0510 -4.1155 317.8314 4277.5864 57.2913 4277.6025
253.3824 -4.1197 319.1745 4279.0869 57.4859 4279.1030
252.7137 -4.1232 320.5175 4280.5874 57.6787 4280.6035
252.0449 -4.1258 321.8605 4282.0879 57.8698 4282.1040
251.3761 -4.1275 323.2035 4283.5884 58.0592 4283.6045
250.7075 -4.1284 324.5466 4285.0884 58.2469 4285.1045
250.0389 -4.1288 325.8897 4286.5889 58.4330 4286.6045
249.3702 -4.1290 327.2328 4288.0894 58.6174 4288.1050
248.7010 -4.1294 328.5756 4289.5898 58.8003 4289.6055
248.0311 -4.1300 329.9180 4291.0898 58.9815 4291.1055
247.3603 -4.1308 331.2600 4292.5903 59.1612 4292.6060
246.6891 -4.1315 332.6018 4294.0908 59.3394 4294.1064
246.0183 -4.1318 333.9437 4295.5913 59.5160 4295.6064
245.3485 -4.1317 335.2863 4297.0918 59.6912 4297.1069
244.6803 -4.1312 336.6295 4298.5918 59.8649 4298.6069
244.0137 -4.1307 337.9736 4300.0923 60.0372 4300.1074
243.3483 -4.1307 339.3185 4301.5928 60.2080 4301.6079
242.6837 -4.1316 340.6638 4303.0933 60.3774 4303.1084
242.0196 -4.1337 342.0093 4304.5933 60.5454 4304.6089
241.3558 -4.1369 343.3548 4306.0938 60.7121 4306.1094
240.6919 -4.1408 344.7004 4307.5942 60.8774 4307.6099
240.0280 -4.1450 346.0458 4309.0947 61.0414 4309.1104
239.3640 -4.1490 347.3913 4310.5952 61.2041 4310.6108
238.6998 -4.1525 348.7367 4312.0952 61.3654 4312.1108
238.0353 -4.1555 350.0818 4313.5957 61.5255 4313.6113
237.3702 -4.1581 351.4268 4315.0962 61.6844 4315.1118
236.7046 -4.1605 352.7714 4316.5967 61.8419 4316.6123
236.0384 -4.1630 354.1157 4318.0972 61.9983 4318.1128
235.3714 -4.1657 355.4597 4319.5972 62.1534 4319.6123
234.7035 -4.1688 356.8031 4321.0977 62.3074 4321.1128
234.0346 -4.1724 358.1460 4322.5981 62.4601 4322.6133
233.3649 -4.1763 359.4885 4324.0986 62.6117 4324.1138
232.6945 -4.1805 360.8307 4325.5986 62.7621 4325.6138
232.0231 -4.1850 362.1723 4327.0991 62.9114 4327.1143
231.3501 -4.1894 363.5132 4328.5996 63.0596 4328.6143
230.6756 -4.1939 364.8532 4330.1001 63.2067 4330.1147
229.9998 -4.1984 366.1926 4331.6006 63.3526 4331.6147
229.3233 -4.2028 367.5318 4333.1006 63.4975 4333.1152
228.6464 -4.2071 368.8711 4334.6011 63.6413 4334.6157
227.9694 -4.2114 370.2102 4336.1016 63.7840 4336.1162
227.2926 -4.2154 371.5491 4337.6021 63.9257 4337.6167
226.6157 -4.2192 372.8878 4339.1021 64.0663 4339.1167
225.9387 -4.2227 374.2266 4340.6025 64.2060 4340.6167
225.2614 -4.2259 375.5653 4342.1030 64.3446 4342.1172
224.5840 -4.2290 376.9039 4343.6035 64.4822 4343.6177
223.9063 -4.2320 378.2424 4345.1040 64.6188 4345.1182
223.2285 -4.2351 379.5808 4346.6040 64.7545 4346.6182
222.5505 -4.2385 380.9192 4348.1045 64.8892 4348.1182
221.8725 -4.2425 382.2574 4349.6050 65.0229 4349.6187
221.1944 -4.2473 383.5957 4351.1055 65.1557 4351.1187
220.5164 -4.2530 384.9340 4352.6055 65.2876 4352.6187
219.8383 -4.2595 386.2722 4354.1060 65.4185 4354.1191
219.1604 -4.2668 387.6105 4355.6064 65.5485 4355.6196
218.4825 -4.2744 388.9489 4357.1069 65.6776 4357.1201
217.8047 -4.2821 390.2874 4358.6074 65.8058 4358.6201
217.1270 -4.2894 391.6259 4360.1074 65.9332 4360.1201
216.4497 -4.2962 392.9646 4361.6079 66.0596 4361.6206
215.7727 -4.3022 394.3035 4363.1084 66.1852 4363.1211
215.0964 -4.3075 395.6427 4364.6089 66.3100 4364.6216
214.4208 -4.3121 396.9822 4366.1089 66.4339 4366.1216
213.7457 -4.3163 398.3220 4367.6094 66.5569 4367.6216
213.0709 -4.3203 399.6620 4369.1099 66.6791 4369.1221
212.3960 -4.3244 401.0019 4370.6104 66.8005 4370.6226
211.7211 -4.3288 402.3419 4372.1108 66.9211 4372.1230
211.0462 -4.3337 403.6819 4373.6108 67.0409 4373.6230
210.3714 -4.3393 405.0219 4375.1113 67.1599 4375.1235
209.6966 -4.3454 406.3619 4376.6118 67.2781 4376.6240
209.0218 -4.3520 407.7020 4378.1123 67.3955 4378.1245
208.3472 -4.3590 409.0421 4379.6128 67.5122 4379.6250
207.6727 -4.3664 410.3822 4381.1128 67.6281 4381.1250
206.9982 -4.3741 411.7224 4382.6133 67.7432 4382.6255
206.3238 -4.3820 413.0627 4384.1138 67.8576 4384.1260
205.6494 -4.3902 414.4029 4385.6143 67.9712 4385.6265
204.9751 -4.3985 415.7432 4387.1143 68.0841 4387.1265
204.3008 -4.4070 417.0834 4388.6147 68.1963 4388.6270
203.6264 -4.4155 418.4237 4390.1152 68.3077 4390.1274
202.9522 -4.4238 419.7641 4391.6157 68.4185 4391.6279
202.2780 -4.4321 421.1045 4393.1162 68.5285 4393.1284
201.6040 -4.4401 422.4449 4394.6162 68.6379 4394.6284
200.9302 -4.4480 423.7855 4396.1167 68.7465 4396.1289
200.2565 -4.4557 425.1262 4397.6172 68.8545 4397.6294
199.5829 -4.4635 426.4669 4399.1177 68.9617 4399.1299
198.9095 -4.4713 427.8077 4400.6177 69.0683 4400.6299
198.2362 -4.4793 429.1486 4402.1182 69.1743 4402.1304
197.5628 -4.4876 430.4893 4403.6187 69.2796 4403.6309
196.8891 -4.4960 431.8300 4405.1191 69.3842 4405.1313
196.2150 -4.5045 433.1705 4406.6196 69.4881 4406.6318
195.5402 -4.5130 434.5106 4408.1196 69.5915 4408.1323
194.8646 -4.5213 435.8503 4409.6201 69.6942 4409.6328
194.1886 -4.5292 437.1898 4411.1206 69.7962 4411.1333
193.5126 -4.5369 438.5293 4412.6211 69.8977 4412.6338
192.8368 -4.5444 439.8689 4414.1211 69.9985 4414.1338
192.1613 -4.5517 441.2086 4415.6216 70.0987 4415.6343
191.4861 -4.5592 442.5486 4417.1221 70.1983 4417.1348
190.8113 -4.5669 443.8886 4418.6226 70.2972 4418.6353
190.1369 -4.5749 445.2290 4420.1230 70.3956 4420.1362
189.4629 -4.5831 446.5695 4421.6230 70.4934 4421.6362
188.7893 -4.5916 447.9102 4423.1235 70.5906 4423.1367
188.1162 -4.6000 449.2512 4424.6240 70.6873 4424.6372
187.4436 -4.6082 450.5924 4426.1245 70.7833 4426.1377
186.7716 -4.6161 451.9339 4427.6245 70.8788 4427.6377
186.1002 -4.6237 453.2758 4429.1250 70.9737 4429.1382
185.4295 -4.6311 454.6179 4430.6255 71.0680 4430.6387
184.7595 -4.6385 455.9604 4432.1260 71.1618 4432.1392
184.0903 -4.6460 457.3033 4433.6265 71.2551 4433.6401
183.4221 -4.6536 458.6466 4435.1265 71.3478 4435.1401
182.7546 -4.6614 459.9904 4436.6270 71.4399 4436.6406
182.0881 -4.6691 461.3346 4438.1274 71.5315 4438.1411
181.4222 -4.6766 462.6791 4439.6279 71.6226 4439.6416
180.7569 -4.6839 464.0239 4441.1284 71.7131 4441.1421
180.0918 -4.6910 465.3688 4442.6284 71.8031 4442.6421
179.4269 -4.6980 466.7138 4444.1289 71.8926 4444.1426
178.7620 -4.7050 468.0588 4445.6294 71.9816 4445.6431
178.0971 -4.7119 469.4038 4447.1299 72.0700 4447.1436
177.4323 -4.7190 470.7489 4448.6299 72.1580 4448.6436
176.7674 -4.7260 472.0939 4450.1304 72.2454 4450.1440
176.1026 -4.7331 473.4389 4451.6309 72.3324 4451.6445
175.4379 -4.7401 474.7840 4453.1313 72.4188 4453.1450
174.7733 -4.7473 476.1290 4454.6318 72.5048 4454.6450
174.1087 -4.7544 477.4741 4456.1318 72.5903 4456.1450
173.4442 -4.7616 478.8191 4457.6323 72.6753 4457.6455
172.7797 -4.7687 480.1642 4459.1328 72.7598 4459.1460
172.1152 -4.7758 481.5092 4460.6333 72.8438 4460.6460
171.4507 -4.7830 482.8542 4462.1333 72.9273 4462.1460
170.7862 -4.7903 484.1993 4463.6338 73.0104 4463.6465
170.1214 -4.7980 485.5442 4465.1343 73.0931 4465.1470
169.4559 -4.8062 486.8888 4466.6348 73.1752 4466.6475
168.7892 -4.8151 488.2326 4468.1353 73.2569 4468.1475
168.1203 -4.8246 489.5755 4469.6353 73.3382 4469.6475
167.4487 -4.8348 490.9171 4471.1357 73.4190 4471.1479
166.7737 -4.8457 492.2570 4472.6362 73.4993 4472.6484
166.0953 -4.8569 493.5953 4474.1367 73.5792 4474.1489
165.4139 -4.8684 494.9321 4475.6367 73.6587 4475.6489
164.7310 -4.8801 496.2682 4477.1372 73.7377 4477.1499
164.0477 -4.8919 497.6041 4478.6377 73.8163 4478.6504
163.3646 -4.9036 498.9400 4480.1382 73.8944 4480.1509
162.6820 -4.9154 500.2762 4481.6387 73.9722 4481.6519
161.9999 -4.9270 501.6127 4483.1387 74.0495 4483.1519
161.3183 -4.9385 502.9493 4484.6392 74.1264 4484.6523
160.6372 -4.9498 504.2863 4486.1396 74.2029 4486.1528
159.9566 -4.9608 505.6234 4487.6401 74.2789 4487.6533
159.2765 -4.9719 506.9609 4489.1401 74.3545 4489.1538
158.5972 -4.9832 508.2988 4490.6406 74.4298 4490.6543
157.9188 -4.9951 509.6371 4492.1411 74.5046 4492.1548
157.2419 -5.0075 510.9761 4493.6416 74.5790 4493.6553
156.5667 -5.0205 512.3160 4495.1421 74.6531 4495.1558
155.8934 -5.0336 513.6567 4496.6421 74.7267 4496.6558
155.2216 -5.0462 514.9983 4498.1426 74.7999 4498.1562
154.5509 -5.0576 516.3403 4499.6431 74.8728 4499.6567
153.8809 -5.0673 517.6827 4501.1436 74.9452 4501.1572
153.2112 -5.0748 519.0251 4502.6440 75.0173 4502.6572
152.5414 -5.0799 520.3676 4504.1440 75.0890 4504.1572
151.8713 -5.0831 521.7098 4505.6445 75.1603 4505.6577
151.2006 -5.0852 523.0519 4507.1450 75.2312 4507.1582
150.5292 -5.0871 524.3935 4508.6455 75.3018 4508.6587
149.8573 -5.0898 525.7349 4510.1455 75.3720 4510.1587
149.1851 -5.0941 527.0763 4511.6460 75.4418 4511.6587
148.5129 -5.1004 528.4176 4513.1465 75.5113 4513.1592
147.8407 -5.1087 529.7590 4514.6470 75.5803 4514.6597
147.1688 -5.1187 531.1004 4516.1475 75.6491 4516.1602
146.4969 -5.1300 532.4419 4517.6475 75.7174 4517.6602
145.8250 -5.1423 533.7834 4519.1479 75.7854 4519.1611
145.1530 -5.1551 535.1250 4520.6484 75.8531 4520.6616
144.4810 -5.1681 536.4665 4522.1489 75.9204 4522.1621
143.8089 -5.1813 537.8079 4523.6489 75.9874 4523.6621
143.1367 -5.1947 539.1492 4525.1494 76.0540 4525.1626
142.4643 -5.2083 540.4905 4526.6499 76.1202 4526.6631
141.7918 -5.2221 541.8317 4528.1504 76.1862 4528.1636
141.1191 -5.2361 543.1729 4529.6509 76.2518 4529.6641
140.4464 -5.2502 544.5140 4531.1509 76.3170 4531.1646
139.7735 -5.2644 545.8551 4532.6514 76.3819 4532.6650
139.1006 -5.2784 547.1962 4534.1519 76.4465 4534.1655
138.4277 -5.2923 548.5371 4535.6523 76.5108 4535.6660
137.7547 -5.3058 549.8782 4537.1523 76.5747 4537.1660
137.0816 -5.3187 551.2192 4538.6528 76.6383 4538.6665
136.4085 -5.3310 552.5601 4540.1533 76.7016 4540.1675
135.7354 -5.3424 553.9011 4541.6538 76.7645 4541.6680
135.0623 -5.3528 555.2420 4543.1543 76.8271 4543.1685
134.3894 -5.3624 556.5829 4544.6543 76.8895 4544.6685
133.7165 -5.3713 557.9240 4546.1548 76.9515 4546.1689
133.0438 -5.3798 559.2652 4547.6553 77.0132 4547.6694
132.3714 -5.3882 560.6065 4549.1558 77.0745 4549.1699
131.6992 -5.3969 561.9479 4550.6562 77.1356 4550.6704
131.0272 -5.4062 563.2893 4552.1562 77.1964 4552.1704
130.3555 -5.4161 564.6309 4553.6567 77.2568 4553.6709
129.6840 -5.4265 565.9726 4555.1572 77.3170 4555.1714
129.0127 -5.4371 567.3144 4556.6577 77.3769 4556.6719
128.3415 -5.4477 568.6562 4558.1577 77.4364 4558.1719
127.6703 -5.4579 569.9981 4559.6582 77.4957 4559.6724
126.9991 -5.4676 571.3400 4561.1587 77.5546 4561.1729
126.3278 -5.4769 572.6819 4562.6592 77.6133 4562.6733
125.6564 -5.4858 574.0236 4564.1597 77.6717 4564.1743
124.9849 -5.4943 575.3653 4565.6597 77.7298 4565.6743
124.3133 -5.5027 576.7070 4567.1602 77.7876 4567.1748
123.6417 -5.5109 578.0486 4568.6606 77.8451 4568.6753
122.9702 -5.5192 579.3904 4570.1611 77.9024 4570.1758
122.2990 -5.5274 580.7322 4571.6611 77.9593 4571.6758
121.6282 -5.5357 582.0743 4573.1616 78.0160 4573.1763
120.9580 -5.5441 583.4166 4574.6621 78.0724 4574.6768
120.2884 -5.5526 584.7592 4576.1626 78.1285 4576.1768
119.6193 -5.5613 586.1021 4577.6631 78.1844 4577.6768
118.9507 -5.5702 587.4453 4579.1631 78.2400 4579.1777
118.2824 -5.5793 588.7886 4580.6636 78.2953 4580.6782
117.6142 -5.5883 590.1320 4582.1641 78.3503 4582.1787
116.9458 -5.5973 591.4753 4583.6646 78.4051 4583.6792
116.2773 -5.6059 592.8185 4585.1646 78.4596 4585.1792
115.6086 -5.6144 594.1617 4586.6650 78.5138 4586.6797
114.9396 -5.6227 595.5048 4588.1655 78.5678 4588.1802
114.2704 -5.6311 596.8478 4589.6660 78.6215 4589.6812
113.6010 -5.6396 598.1906 4591.1665 78.6749 4591.1816
112.9316 -5.6482 599.5334 4592.6665 78.7281 4592.6816
112.2621 -5.6570 600.8762 4594.1670 78.7811 4594.1821
111.5927 -5.6656 602.2191 4595.6675 78.8338 4595.6826
110.9234 -5.6740 603.5619 4597.1680 78.8862 4597.1831
110.2542 -5.6822 604.9048 4598.6680 78.9384 4598.6831
109.5849 -5.6902 606.2476 4600.1685 78.9903 4600.1836
108.9157 -5.6982 607.5906 4601.6689 79.0420 4601.6846
108.2464 -5.7062 608.9335 4603.1694 79.0934 4603.1851
107.5771 -5.7142 610.2764 4604.6699 79.1446 4604.6855
106.9078 -5.7222 611.6193 4606.1699 79.1955 4606.1855
106.2384 -5.7301 612.9620 4607.6704 79.2462 4607.6860
105.5691 -5.7378 614.3049 4609.1709 79.2967 4609.1865
104.8998 -5.7452 615.6478 4610.6714 79.3469 4610.6870
104.2305 -5.7522 616.9907 4612.1719 79.3969 4612.1875
103.5613 -5.7589 618.3335 4613.6719 79.4466 4613.6880
102.8921 -5.7654 619.6765 4615.1724 79.4962 4615.1885
102.2230 -5.7717 621.0193 4616.6729 79.5454 4616.6890
101.5539 -5.7781 622.3623 4618.1733 79.5945 4618.1895
100.8848 -5.7846 623.7053 4619.6733 79.6433 4619.6895
100.2158 -5.7913 625.0483 4621.1738 79.6919 4621.1899
99.5469 -5.7983 626.3913 4622.6743 79.7402 4622.6904
98.8781 -5.8056 627.7344 4624.1748 79.7884 4624.1909
98.2096 -5.8131 629.0776 4625.6753 79.8363 4625.6914
97.5414 -5.8206 630.4210 4627.1753 79.8839 4627.1914
96.8737 -5.8281 631.7646 4628.6758 79.9314 4628.6919
96.2064 -5.8354 633.1085 4630.1763 79.9786 4630.1924
95.5395 -5.8426 634.4525 4631.6768 80.0256 4631.6929
94.8731 -5.8497 635.7968 4633.1768 80.0724 4633.1929
94.2073 -5.8567 637.1413 4634.6772 80.1190 4634.6934
93.5418 -5.8638 638.4860 4636.1777 80.1654 4636.1938
92.8768 -5.8711 639.8309 4637.6782 80.2115 4637.6943
92.2121 -5.8785 641.1759 4639.1787 80.2574 4639.1948
91.5475 -5.8860 642.5209 4640.6787 80.3031 4640.6948
90.8827 -5.8935 643.8658 4642.1792 80.3486 4642.1953
90.2178 -5.9008 645.2107 4643.6797 80.3939 4643.6953
89.5525 -5.9078 646.5554 4645.1802 80.4390 4645.1958
88.8868 -5.9144 647.8999 4646.6802 80.4839 4646.6958
88.2208 -5.9207 649.2443 4648.1807 80.5285 4648.1963
87.5545 -5.9270 650.5885 4649.6812 80.5730 4649.6968
86.8878 -5.9335 651.9326 4651.1816 80.6173 4651.1973
86.2210 -5.9405 653.2764 4652.6821 80.6613 4652.6973
85.5539 -5.9479 654.6203 4654.1821 80.7052 4654.1973
84.8867 -5.9560 655.9640 4655.6826 80.7488 4655.6978
84.2193 -5.9644 657.3077 4657.1831 80.7923 4657.1982
83.5519 -5.9732 658.6513 4658.6836 80.8355 4658.6987
82.8844 -5.9820 659.9949 4660.1836 80.8786 4660.1987
82.2169 -5.9909 661.3386 4661.6841 80.9214 4661.6987
81.5494 -5.9997 662.6822 4663.1846 80.9641 4663.1992
80.8821 -6.0085 664.0259 4664.6851 81.0066 4664.6997
80.2149 -6.0174 665.3697 4666.1855 81.0489 4666.2002
79.5480 -6.0264 666.7136 4667.6855 81.0909 4667.7002
78.8814 -6.0359 668.0576 4669.1860 81.1328 4669.2007
78.2150 -6.0461 669.4018 4670.6865 81.1745 4670.7012
77.5488 -6.0569 670.7460 4672.1870 81.2160 4672.2012
76.8826 -6.0682 672.0902 4673.6875 81.2574 4673.7017
76.2164 -6.0797 673.4344 4675.1875 81.2985 4675.2017
75.5502 -6.0913 674.7787 4676.6880 81.3394 4676.7021
74.8841 -6.1028 676.1230 4678.1885 81.3802 4678.2026
74.2181 -6.1141 677.4673 4679.6890 81.4208 4679.7031
73.5522 -6.1256 678.8118 4681.1890 81.4612 4681.2031
72.8864 -6.1374 680.1562 4682.6895 81.5014 4682.7031
72.2209 -6.1498 681.5007 4684.1899 81.5415 4684.2036
71.5555 -6.1630 682.8453 4685.6904 81.5813 4685.7041
70.8903 -6.1772 684.1901 4687.1909 81.6210 4687.2046
70.2252 -6.1923 685.5349 4688.6909 81.6605 4688.7046
69.5601 -6.2082 686.8797 4690.1914 81.6998 4690.2051
68.8952 -6.2247 688.2245 4691.6919 81.7390 4691.7056
68.2303 -6.2415 689.5695 4693.1924 81.7779 4693.2061
67.5656 -6.2584 690.9144 4694.6924 81.8167 4694.7061
66.9012 -6.2750 692.2595 4696.1929 81.8554 4696.2065
66.2374 -6.2912 693.6050 4697.6934 81.8938 4697.7070
65.5744 -6.3069 694.9507 4699.1938 81.9321 4699.2070
64.9126 -6.3221 696.2971 4700.6943 81.9702 4700.7075
64.2520 -6.3370 697.6441 4702.1943 82.0081 4702.2075
63.5922 -6.3519 698.9915 4703.6948 82.0459 4703.7080
62.9330 -6.3671 700.3392 4705.1953 82.0835 4705.2085
