VERSION 0.7
FIELDS x y z arclength speed lapdistance
SIZE 4 4 4 4 4 4
TYPE F F F F F F
COUNT 1 1 1 1 1 1
WIDTH 864
HEIGHT 1
VIEWPOINT 0.000 0.000 0.000 1.000 0.000 0.000 0.000
POINTS 864
DATA ascii
247.8920 -1.2292 30.0438 1146.2146 51.5435 1148.1091
248.3020 -1.2262 28.6007 1147.7148 51.9037 1149.5760
248.7077 -1.2235 27.1563 1149.2151 52.2582 1151.0425
249.1061 -1.2210 25.7099 1150.7155 52.6072 1152.5084
249.4939 -1.2188 24.2606 1152.2157 52.9508 1153.9740
249.8696 -1.2168 22.8081 1153.7159 53.2892 1155.4392
250.2352 -1.2151 21.3530 1155.2163 53.6225 1156.9041
250.5939 -1.2136 19.8963 1156.7166 53.9509 1158.3687
250.9477 -1.2124 18.4384 1158.2168 54.2745 1159.8331
251.2958 -1.2116 16.9790 1159.7170 54.5934 1161.2975
251.6367 -1.2110 15.5179 1161.2174 54.9077 1162.7620
251.9692 -1.2107 14.0549 1162.7177 55.2176 1164.2264
252.2933 -1.2104 12.5901 1164.2179 55.5232 1165.6909
252.6102 -1.2102 11.1237 1165.7183 55.8245 1167.1555
252.9216 -1.2103 9.6561 1167.2185 56.1217 1168.6204
253.2289 -1.2104 8.1876 1168.7188 56.4149 1170.0854
253.5330 -1.2104 6.7185 1170.2191 56.7041 1171.5509
253.8342 -1.2106 5.2487 1171.7194 56.9896 1173.0167
254.1323 -1.2107 3.7784 1173.2196 57.2712 1174.4830
254.4274 -1.2108 2.3073 1174.7198 57.5492 1175.9497
254.7194 -1.2109 0.8358 1176.2202 57.8237 1177.4169
255.0082 -1.2109 -0.6365 1177.7205 58.0946 1178.8845
255.2938 -1.2108 -2.1094 1179.2207 58.3621 1180.3528
255.5763 -1.2107 -3.5828 1180.7211 58.6263 1181.8217
255.8559 -1.2106 -5.0567 1182.2213 58.8872 1183.2910
256.1324 -1.2104 -6.5313 1183.7216 59.1449 1184.7612
256.4054 -1.2102 -8.0066 1185.2219 59.3994 1186.2321
256.6734 -1.2100 -9.4828 1186.7222 59.6509 1187.7030
256.9342 -1.2099 -10.9602 1188.2224 59.8993 1189.1740
257.1849 -1.2101 -12.4394 1189.7227 60.1448 1190.6447
257.4226 -1.2103 -13.9207 1191.2230 60.3875 1192.1146
257.6456 -1.2104 -15.4043 1192.7233 60.6272 1193.5841
257.8544 -1.2106 -16.8900 1194.2235 60.8642 1195.0531
258.0513 -1.2106 -18.3773 1195.7239 61.0985 1196.5214
258.2393 -1.2104 -19.8658 1197.2241 61.3301 1197.9893
258.4212 -1.2103 -21.3550 1198.7244 61.5590 1199.4567
258.5983 -1.2102 -22.8447 1200.2247 61.7854 1200.9237
258.7708 -1.2100 -24.3350 1201.7250 62.0093 1202.3905
258.9384 -1.2101 -25.8259 1203.2252 62.2306 1203.8571
259.1005 -1.2101 -27.3174 1204.7255 62.4496 1205.3235
259.2561 -1.2102 -28.8096 1206.2258 62.6661 1206.7898
259.4045 -1.2104 -30.3025 1207.7261 62.8803 1208.2560
259.5446 -1.2104 -31.7962 1209.2263 63.0922 1209.7222
259.6749 -1.2105 -33.2908 1210.7267 63.3018 1211.1885
259.7939 -1.2106 -34.7863 1212.2269 63.5092 1212.6548
259.9005 -1.2106 -36.2828 1213.7272 62.9130 1214.1212
259.9946 -1.2106 -37.7802 1215.2275 62.0599 1215.5880
260.0770 -1.2107 -39.2782 1216.7278 61.1984 1217.0549
260.1487 -1.2109 -40.7768 1218.2280 60.3280 1218.5221
260.2089 -1.2111 -42.2758 1219.7283 59.4486 1219.9897
260.2556 -1.2115 -43.7753 1221.2286 58.5596 1221.4580
260.2871 -1.2120 -45.2752 1222.7289 57.6607 1222.9266
260.3033 -1.2126 -46.7754 1224.2291 56.7515 1224.3961
260.3058 -1.2132 -48.2757 1225.7295 55.8316 1225.8660
260.2978 -1.2138 -49.7760 1227.2297 54.9003 1227.3361
260.2837 -1.2143 -51.2762 1228.7300 53.9572 1228.8060
260.2673 -1.2147 -52.7764 1230.2303 53.0018 1230.2749
260.2510 -1.2150 -54.2766 1231.7306 52.0333 1231.7411
260.2354 -1.2152 -55.7768 1233.2308 51.0511 1233.2047
260.2208 -1.2155 -57.2770 1234.7311 50.0545 1234.6658
260.2069 -1.2157 -58.7772 1236.2314 49.0427 1236.1250
260.1934 -1.2158 -60.2774 1237.7317 48.0147 1237.5831
260.1800 -1.2159 -61.7776 1239.2319 46.9697 1239.0402
260.1661 -1.2159 -63.2777 1240.7323 45.9065 1240.4967
260.1506 -1.2159 -64.7779 1242.2325 44.8252 1241.9530
260.1319 -1.2159 -66.2781 1243.7328 43.7379 1243.4094
260.1076 -1.2159 -67.7781 1245.2332 42.6444 1244.8667
260.0752 -1.2159 -69.2780 1246.7334 41.5443 1246.3248
260.0317 -1.2159 -70.7777 1248.2336 40.4372 1247.7836
259.9742 -1.2159 -72.2769 1249.7339 39.3227 1249.2394
259.8999 -1.2159 -73.7753 1251.2343 38.2001 1250.6891
259.8061 -1.2159 -75.2727 1252.7345 37.0692 1252.1217
259.6892 -1.2159 -76.7684 1254.2347 35.9291 1253.5291
259.5439 -1.2159 -78.2616 1255.7351 34.7792 1254.9070
259.3638 -1.2159 -79.7510 1257.2354 33.6189 1256.2579
259.1406 -1.2159 -81.2346 1258.7356 32.4471 1257.5923
258.8661 -1.2159 -82.7095 1260.2360 31.2630 1258.9126
258.5344 -1.2159 -84.1725 1261.7362 30.4262 1260.2284
258.1430 -1.2159 -85.6207 1263.2365 30.8111 1261.5413
257.6940 -1.2159 -87.0521 1264.7367 31.6417 1262.8555
257.1918 -1.2158 -88.4657 1266.2371 32.4507 1264.1708
256.6426 -1.2159 -89.8618 1267.7373 33.2397 1265.4884
256.0525 -1.2158 -91.2411 1269.2375 34.0102 1266.8047
255.4258 -1.2158 -92.6041 1270.7379 34.7634 1268.1171
254.7644 -1.2158 -93.9507 1272.2382 35.5005 1269.4193
254.0686 -1.2158 -95.2798 1273.7384 36.2223 1270.7104
253.3380 -1.2158 -96.5901 1275.2388 36.9270 1271.9927
252.5721 -1.2158 -97.8801 1276.7390 37.6098 1273.2682
251.7703 -1.2158 -99.1481 1278.2393 37.3510 1274.5428
250.9321 -1.2158 -100.3923 1279.7395 36.7801 1275.8168
250.0573 -1.2158 -101.6111 1281.2399 36.7190 1277.0961
249.1465 -1.2158 -102.8032 1282.7401 37.3954 1278.3835
248.2016 -1.2158 -103.9686 1284.2404 38.0641 1279.6895
247.2259 -1.2158 -105.1082 1285.7407 38.7132 1281.0165
246.2233 -1.2158 -106.2243 1287.2410 39.3439 1282.3777
245.1985 -1.2158 -107.3198 1288.7412 39.9572 1283.7776
244.1551 -1.2158 -108.3979 1290.2416 40.5543 1285.2141
243.0967 -1.2158 -109.4611 1291.7418 41.1359 1286.6760
242.0262 -1.2158 -110.5122 1293.2421 41.7029 1288.1479
240.9462 -1.2158 -111.5537 1294.7423 42.2561 1289.6246
239.8592 -1.2158 -112.5877 1296.2427 42.7960 1291.1003
238.7668 -1.2159 -113.6161 1297.7429 43.3234 1292.5746
237.6707 -1.2159 -114.6404 1299.2432 43.8389 1294.0470
236.5720 -1.2157 -115.6621 1300.7435 44.3430 1295.5184
235.4714 -1.2153 -116.6817 1302.2438 44.8361 1296.9894
234.3691 -1.2148 -117.6994 1303.7440 45.3188 1298.4602
233.2648 -1.2143 -118.7150 1305.2444 45.7916 1299.9309
232.1584 -1.2138 -119.7283 1306.7446 46.2547 1301.4017
231.0498 -1.2136 -120.7392 1308.2449 46.7086 1302.8729
229.9390 -1.2136 -121.7477 1309.7451 47.1536 1304.3451
228.8260 -1.2137 -122.7538 1311.2455 47.5901 1305.8201
227.7110 -1.2139 -123.7576 1312.7457 48.0185 1307.2994
226.5940 -1.2140 -124.7591 1314.2460 48.4389 1308.7859
225.4749 -1.2143 -125.7584 1315.7463 48.8516 1310.2804
224.3539 -1.2146 -126.7554 1317.2466 49.2570 1311.7802
223.2309 -1.2150 -127.7501 1318.7468 49.6553 1313.2836
222.1059 -1.2153 -128.7427 1320.2472 50.0467 1314.7883
220.9789 -1.2156 -129.7332 1321.7474 50.4315 1316.2932
219.8503 -1.2160 -130.7216 1323.2477 50.8098 1317.7980
218.7202 -1.2164 -131.7083 1324.7479 51.1819 1319.3022
217.5891 -1.2169 -132.6938 1326.2483 51.5479 1320.8063
216.4573 -1.2174 -133.6787 1327.7485 51.9081 1322.3102
215.3254 -1.2179 -134.6634 1329.2488 52.2625 1323.8141
214.1935 -1.2185 -135.6482 1330.7491 52.6114 1325.3179
213.0618 -1.2191 -136.6332 1332.2494 52.9550 1326.8218
211.9302 -1.2196 -137.6183 1333.7496 53.2933 1328.3257
210.7985 -1.2202 -138.6031 1335.2500 53.6266 1329.8295
209.6661 -1.2207 -139.5874 1336.7502 53.9549 1331.3335
208.5328 -1.2213 -140.5705 1338.2505 54.2784 1332.8374
207.3983 -1.2220 -141.5522 1339.7507 54.5972 1334.3412
206.2624 -1.2227 -142.5323 1341.2511 54.9115 1335.8446
205.1251 -1.2234 -143.5107 1342.7513 55.2213 1337.3475
203.9865 -1.2242 -144.4875 1344.2516 55.5268 1338.8492
202.8465 -1.2250 -145.4629 1345.7520 55.8281 1340.3497
201.7056 -1.2258 -146.4371 1347.2522 56.1253 1341.8494
200.5639 -1.2266 -147.4104 1348.7524 56.4184 1343.3484
199.4217 -1.2274 -148.3832 1350.2528 56.7076 1344.8470
198.2793 -1.2283 -149.3557 1351.7531 56.9930 1346.3458
197.1368 -1.2291 -150.3280 1353.2533 57.2746 1347.8445
195.9939 -1.2298 -151.3000 1354.7537 57.5526 1349.3434
194.8509 -1.2306 -152.2717 1356.2539 57.8270 1350.8422
193.7077 -1.2316 -153.2432 1357.7542 58.0979 1352.3409
192.5642 -1.2326 -154.2145 1359.2544 58.3654 1353.8400
191.4205 -1.2336 -155.1856 1360.7548 58.6295 1355.3389
190.2768 -1.2346 -156.1566 1362.2550 58.8904 1356.8378
189.1331 -1.2356 -157.1276 1363.7552 59.1480 1358.3367
187.9895 -1.2367 -158.0987 1365.2556 59.4025 1359.8356
186.8459 -1.2377 -159.0699 1366.7559 59.6539 1361.3345
185.7026 -1.2388 -160.0413 1368.2561 59.9024 1362.8334
184.5594 -1.2399 -161.0129 1369.7565 60.1478 1364.3323
183.4165 -1.2410 -161.9849 1371.2567 60.3904 1365.8312
182.2740 -1.2421 -162.9572 1372.7570 60.6301 1367.3301
181.1319 -1.2433 -163.9300 1374.2572 60.8671 1368.8290
179.9901 -1.2444 -164.9033 1375.7576 61.1013 1370.3279
178.8488 -1.2455 -165.8771 1377.2578 61.3329 1371.8268
177.7079 -1.2466 -166.8513 1378.7581 61.5618 1373.3257
176.5675 -1.2478 -167.8261 1380.2584 61.7882 1374.8246
175.4275 -1.2490 -168.8014 1381.7587 62.0120 1376.3235
174.2879 -1.2503 -169.7772 1383.2589 62.2333 1377.8225
173.1489 -1.2515 -170.7536 1384.7593 62.4522 1379.3214
172.0105 -1.2528 -171.7308 1386.2595 62.6687 1380.8203
170.8728 -1.2540 -172.7087 1387.7598 62.8829 1382.3192
169.7357 -1.2553 -173.6873 1389.2600 63.0947 1383.8181
168.5992 -1.2567 -174.6667 1390.7604 63.3043 1385.3170
167.4633 -1.2580 -175.6469 1392.2606 63.5117 1386.8159
166.3281 -1.2594 -176.6277 1393.7609 63.7168 1388.3148
165.1934 -1.2607 -177.6092 1395.2612 63.9198 1389.8136
164.0591 -1.2621 -178.5912 1396.7615 64.1207 1391.3124
162.9252 -1.2633 -179.5737 1398.2617 64.3195 1392.8112
161.7917 -1.2646 -180.5564 1399.7621 64.5163 1394.3099
160.6581 -1.2659 -181.5392 1401.2623 64.7110 1395.8086
159.5241 -1.2672 -182.5214 1402.7626 64.9038 1397.3074
158.3889 -1.2685 -183.5023 1404.2628 65.0946 1398.8062
157.2517 -1.2699 -184.4808 1405.7632 65.2835 1400.3048
156.1118 -1.2714 -185.4563 1407.2634 65.4704 1401.8037
154.9693 -1.2728 -186.4288 1408.7637 65.6556 1403.3025
153.8251 -1.2743 -187.3991 1410.2640 65.8389 1404.8013
152.6800 -1.2758 -188.3684 1411.7643 66.0204 1406.2999
151.5348 -1.2773 -189.3375 1413.2645 66.2001 1407.7987
150.3892 -1.2789 -190.3063 1414.7649 66.3781 1409.2975
149.2428 -1.2804 -191.2741 1416.2651 66.5543 1410.7963
148.0944 -1.2820 -192.2396 1417.7654 66.7289 1412.2952
146.9431 -1.2836 -193.2015 1419.2656 66.9017 1413.7938
145.7885 -1.2853 -194.1594 1420.7660 67.0730 1415.2925
144.6308 -1.2872 -195.1137 1422.2662 67.2426 1416.7911
143.4711 -1.2893 -196.0655 1423.7665 67.4106 1418.2898
142.3104 -1.2916 -197.0162 1425.2668 67.5770 1419.7885
141.1495 -1.2939 -197.9666 1426.7671 67.7419 1421.2870
139.9888 -1.2961 -198.9172 1428.2673 67.9052 1422.7856
138.8283 -1.2982 -199.8680 1429.7677 68.0671 1424.2843
137.6680 -1.3000 -200.8191 1431.2679 68.2274 1425.7830
136.5078 -1.3017 -201.7702 1432.7682 68.3863 1427.2816
135.3477 -1.3033 -202.7214 1434.2684 68.5437 1428.7802
134.1875 -1.3050 -203.6725 1435.7688 68.6997 1430.2788
133.0271 -1.3066 -204.6235 1437.2690 68.8543 1431.7775
131.8667 -1.3085 -205.5743 1438.7693 69.0075 1433.2761
130.7061 -1.3104 -206.5250 1440.2697 69.1593 1434.7749
129.5455 -1.3124 -207.4757 1441.7699 69.3098 1436.2739
128.3851 -1.3145 -208.4266 1443.2701 69.4589 1437.7734
127.2253 -1.3165 -209.3783 1444.7705 69.6067 1439.2733
126.0663 -1.3185 -210.3310 1446.2708 69.7532 1440.7738
124.9084 -1.3204 -211.2850 1447.7710 69.8984 1442.2745
123.7513 -1.3222 -212.2400 1449.2712 70.0424 1443.7754
122.5949 -1.3239 -213.1958 1450.7716 70.1851 1445.2762
121.4394 -1.3257 -214.1527 1452.2719 70.3266 1446.7770
120.2848 -1.3275 -215.1105 1453.7721 70.4668 1448.2778
119.1306 -1.3293 -216.0691 1455.2725 70.6059 1449.7787
117.9767 -1.3311 -217.0279 1456.7727 70.7437 1451.2795
116.8228 -1.3329 -217.9868 1458.2729 70.8804 1452.7804
115.6689 -1.3348 -218.9456 1459.7733 71.0159 1454.2811
114.5149 -1.3366 -219.9043 1461.2736 71.1503 1455.7820
113.3609 -1.3385 -220.8631 1462.7738 71.2835 1457.2828
112.2070 -1.3404 -221.8220 1464.2740 71.4157 1458.7837
111.0533 -1.3423 -222.7812 1465.7744 71.5467 1460.2845
109.8999 -1.3442 -223.7406 1467.2747 71.6766 1461.7853
108.7467 -1.3462 -224.7003 1468.7749 71.8055 1463.2861
107.5938 -1.3481 -225.6603 1470.2753 71.9333 1464.7869
106.4415 -1.3500 -226.6211 1471.7755 72.0600 1466.2877
105.2906 -1.3520 -227.5836 1473.2758 72.1857 1467.7886
104.1421 -1.3539 -228.5489 1474.7761 72.3103 1469.2893
102.9971 -1.3558 -229.5183 1476.2764 72.4340 1470.7902
101.8561 -1.3578 -230.4924 1477.7766 72.5566 1472.2910
100.7184 -1.3598 -231.4705 1479.2769 72.6782 1473.7919
99.5830 -1.3617 -232.4510 1480.7772 72.7989 1475.2926
98.4483 -1.3637 -233.4324 1482.2775 72.9186 1476.7933
97.3135 -1.3657 -234.4138 1483.7777 73.0373 1478.2941
96.1784 -1.3677 -235.3948 1485.2781 73.1551 1479.7948
95.0431 -1.3697 -236.3754 1486.7783 73.2719 1481.2955
93.9075 -1.3717 -237.3559 1488.2786 73.3879 1482.7964
92.7718 -1.3738 -238.3363 1489.7789 73.5028 1484.2971
91.6361 -1.3758 -239.3167 1491.2792 73.6169 1485.7980
90.5004 -1.3778 -240.2970 1492.7794 73.7301 1487.2988
89.3647 -1.3799 -241.2774 1494.2797 73.8424 1488.7997
88.2290 -1.3820 -242.2578 1495.7800 73.9538 1490.3005
87.0934 -1.3841 -243.2382 1497.2803 74.0644 1491.8013
85.9577 -1.3862 -244.2186 1498.7805 74.1741 1493.3022
84.8221 -1.3884 -245.1990 1500.2809 74.2829 1494.8031
83.6864 -1.3906 -246.1794 1501.7811 74.3909 1496.3041
82.5508 -1.3927 -247.1597 1503.2814 74.4981 1497.8051
81.4151 -1.3948 -248.1401 1504.7817 74.6044 1499.3059
80.2795 -1.3969 -249.1205 1506.2820 74.7100 1500.8069
79.1439 -1.3991 -250.1009 1507.7822 74.8147 1502.3077
78.0082 -1.4012 -251.0812 1509.2825 74.9186 1503.8087
76.8726 -1.4033 -252.0616 1510.7828 75.0217 1505.3096
75.7370 -1.4054 -253.0419 1512.2831 75.1241 1506.8105
74.6012 -1.4076 -254.0222 1513.7833 75.2257 1508.3114
73.4653 -1.4097 -255.0022 1515.2837 75.3265 1509.8124
72.3292 -1.4119 -255.9820 1516.7839 75.4265 1511.3134
71.1929 -1.4141 -256.9616 1518.2842 75.5258 1512.8142
70.0565 -1.4163 -257.9411 1519.7845 75.6244 1514.3152
68.9200 -1.4185 -258.9206 1521.2848 75.7222 1515.8162
67.7835 -1.4207 -259.9001 1522.7850 75.8193 1517.3173
66.6471 -1.4229 -260.8795 1524.2853 75.9157 1518.8181
65.5107 -1.4251 -261.8590 1525.7856 76.0114 1520.3191
64.3744 -1.4273 -262.8385 1527.2859 76.1063 1521.8199
63.2380 -1.4295 -263.8181 1528.7861 76.2006 1523.3210
62.1016 -1.4318 -264.7976 1530.2865 76.2942 1524.8220
60.9652 -1.4340 -265.7772 1531.7867 76.3870 1526.3230
59.8288 -1.4362 -266.7568 1533.2870 76.4792 1527.8241
58.6926 -1.4384 -267.7364 1534.7874 76.5708 1529.3250
57.5563 -1.4407 -268.7159 1536.2876 76.6616 1530.8259
56.4199 -1.4429 -269.6956 1537.7878 76.7518 1532.3269
55.2836 -1.4451 -270.6753 1539.2881 76.8414 1533.8280
54.1473 -1.4474 -271.6549 1540.7885 76.9303 1535.3289
53.0111 -1.4496 -272.6346 1542.2887 77.0185 1536.8298
51.8749 -1.4519 -273.6144 1543.7889 77.1062 1538.3309
50.7386 -1.4541 -274.5941 1545.2893 77.1932 1539.8319
49.6024 -1.4564 -275.5739 1546.7896 77.2795 1541.3329
48.4662 -1.4586 -276.5536 1548.2898 77.3653 1542.8340
47.3299 -1.4609 -277.5333 1549.7902 77.4505 1544.3350
46.1936 -1.4632 -278.5129 1551.2904 77.5350 1545.8359
45.0573 -1.4654 -279.4926 1552.7906 77.6189 1547.3369
43.9210 -1.4677 -280.4722 1554.2909 77.7023 1548.8378
42.7847 -1.4700 -281.4519 1555.7913 77.7850 1550.3387
41.6485 -1.4723 -282.4315 1557.2915 77.8672 1551.8397
40.5122 -1.4746 -283.4112 1558.7917 77.9488 1553.3406
39.3759 -1.4769 -284.3909 1560.2921 78.0298 1554.8416
38.2396 -1.4793 -285.3706 1561.7924 78.1103 1556.3424
37.1034 -1.4817 -286.3503 1563.2926 78.1902 1557.8434
35.9671 -1.4840 -287.3300 1564.7930 78.2695 1559.3442
34.8309 -1.4864 -288.3097 1566.2932 78.3483 1560.8452
33.6946 -1.4887 -289.2894 1567.7935 78.4265 1562.3461
32.5584 -1.4911 -290.2691 1569.2937 78.5042 1563.8470
31.4221 -1.4934 -291.2488 1570.7941 78.5814 1565.3480
30.2858 -1.4957 -292.2285 1572.2943 78.6580 1566.8489
29.1496 -1.4980 -293.2081 1573.7946 78.7341 1568.3499
28.0133 -1.5003 -294.1877 1575.2949 78.8097 1569.8507
26.8769 -1.5027 -295.1674 1576.7952 78.8847 1571.3517
25.7406 -1.5050 -296.1470 1578.2954 78.9593 1572.8525
24.6043 -1.5073 -297.1266 1579.7958 79.0333 1574.3535
23.4679 -1.5097 -298.1061 1581.2960 79.1068 1575.8544
22.3316 -1.5120 -299.0857 1582.7963 79.1798 1577.3553
21.1953 -1.5143 -300.0653 1584.2966 79.2523 1578.8563
20.0590 -1.5166 -301.0449 1585.7969 79.3244 1580.3572
18.9227 -1.5189 -302.0245 1587.2971 79.3959 1581.8582
17.7863 -1.5213 -303.0041 1588.7974 79.4670 1583.3590
16.6498 -1.5236 -303.9834 1590.2977 79.5376 1584.8600
15.5128 -1.5259 -304.9623 1591.7980 79.6077 1586.3608
14.3754 -1.5282 -305.9406 1593.2982 79.6773 1587.8618
13.2372 -1.5306 -306.9180 1594.7986 79.7464 1589.3627
12.0983 -1.5329 -307.8946 1596.2988 79.8151 1590.8636
10.9587 -1.5352 -308.8704 1597.7991 79.8834 1592.3645
9.8187 -1.5376 -309.8456 1599.2994 79.9512 1593.8655
8.6783 -1.5400 -310.8205 1600.7997 80.0185 1595.3665
7.5379 -1.5423 -311.7953 1602.2999 80.0854 1596.8674
6.3975 -1.5447 -312.7702 1603.8002 80.1518 1598.3684
5.2572 -1.5471 -313.7451 1605.3005 80.2178 1599.8690
4.1169 -1.5495 -314.7200 1606.8008 80.2834 1601.3695
2.9766 -1.5519 -315.6949 1608.3010 80.3485 1602.8694
1.8363 -1.5543 -316.6699 1609.8014 80.4132 1604.3690
0.6960 -1.5567 -317.6448 1611.3016 80.4774 1605.8684
-0.4442 -1.5591 -318.6198 1612.8019 80.5413 1607.3676
-1.5845 -1.5615 -319.5947 1614.3022 80.6047 1608.8667
-2.7248 -1.5639 -320.5697 1615.8025 80.6677 1610.3660
-3.8651 -1.5663 -321.5446 1617.3027 80.7303 1611.8651
-5.0055 -1.5687 -322.5196 1618.8030 80.7925 1613.3644
-6.1458 -1.5711 -323.4945 1620.3033 80.8543 1614.8636
-7.2862 -1.5735 -324.4695 1621.8036 80.9156 1616.3629
-8.4265 -1.5759 -325.4444 1623.3038 80.9766 1617.8622
-9.5669 -1.5783 -326.4193 1624.8042 81.0372 1619.3615
-10.7072 -1.5807 -327.3943 1626.3044 81.0974 1620.8607
-11.8476 -1.5831 -328.3692 1627.8047 81.1572 1622.3600
-12.9880 -1.5855 -329.3440 1629.3051 81.2166 1623.8593
-14.1285 -1.5878 -330.3188 1630.8053 81.2756 1625.3585
-15.2690 -1.5901 -331.2935 1632.3055 81.3342 1626.8578
-16.4096 -1.5925 -332.2682 1633.8058 81.3925 1628.3571
-17.5503 -1.5948 -333.2427 1635.3062 81.4504 1629.8564
-18.6910 -1.5971 -334.2172 1636.8064 81.5079 1631.3557
-19.8318 -1.5994 -335.1917 1638.3066 81.5650 1632.8550
-20.9727 -1.6017 -336.1660 1639.8070 81.6218 1634.3542
-22.1136 -1.6041 -337.1403 1641.3073 81.6782 1635.8535
-23.2545 -1.6064 -338.1145 1642.8075 81.7343 1637.3528
-24.3955 -1.6087 -339.0886 1644.3079 81.7900 1638.8521
-25.5366 -1.6110 -340.0627 1645.8081 81.8453 1640.3513
-26.6777 -1.6133 -341.0368 1647.3083 81.9003 1641.8506
-27.8188 -1.6156 -342.0108 1648.8086 81.9549 1643.3499
-28.9598 -1.6179 -342.9849 1650.3090 82.0092 1644.8491
-30.1009 -1.6202 -343.9590 1651.8092 82.0632 1646.3484
-31.2420 -1.6225 -344.9330 1653.3094 82.1168 1647.8477
-32.3831 -1.6248 -345.9070 1654.8098 82.1700 1649.3469
-33.5242 -1.6271 -346.8811 1656.3101 82.2230 1650.8462
-34.6653 -1.6294 -347.8551 1657.8103 82.2756 1652.3455
-35.8064 -1.6317 -348.8291 1659.3107 82.3278 1653.8447
-36.9475 -1.6340 -349.8032 1660.8109 82.3798 1655.3440
-38.0886 -1.6362 -350.7773 1662.3112 82.4314 1656.8434
-39.2295 -1.6385 -351.7515 1663.8114 82.4827 1658.3427
-40.3703 -1.6408 -352.7259 1665.3118 82.5336 1659.8419
-41.5108 -1.6430 -353.7007 1666.8120 82.5843 1661.3412
-42.6508 -1.6453 -354.6759 1668.3123 82.6346 1662.8405
-43.7904 -1.6475 -355.6516 1669.8126 82.6846 1664.3397
-44.9297 -1.6498 -356.6277 1671.3129 82.7343 1665.8390
-46.0688 -1.6520 -357.6040 1672.8131 82.7837 1667.3383
-47.2078 -1.6542 -358.5804 1674.3135 82.8328 1668.8375
-48.3468 -1.6564 -359.5569 1675.8137 82.8816 1670.3368
-49.4859 -1.6586 -360.5333 1677.3140 82.9300 1671.8361
-50.6250 -1.6609 -361.5097 1678.8142 82.9782 1673.3354
-51.7641 -1.6631 -362.4861 1680.3146 83.0261 1674.8347
-52.9032 -1.6653 -363.4624 1681.8148 83.0737 1676.3340
-54.0423 -1.6675 -364.4388 1683.3151 83.1209 1677.8334
-55.1814 -1.6697 -365.4152 1684.8154 83.1679 1679.3328
-56.3205 -1.6719 -366.3915 1686.3157 83.2146 1680.8320
-57.4596 -1.6741 -367.3679 1687.8159 83.2610 1682.3313
-58.5987 -1.6763 -368.3442 1689.3163 83.3072 1683.8306
-59.7379 -1.6785 -369.3205 1690.8165 83.3530 1685.3300
-60.8770 -1.6806 -370.2968 1692.3168 83.3986 1686.8292
-62.0161 -1.6828 -371.2731 1693.8170 83.4439 1688.3285
-63.1553 -1.6850 -372.2494 1695.3174 83.4889 1689.8279
-64.2944 -1.6871 -373.2257 1696.8176 83.5336 1691.3271
-65.4333 -1.6893 -374.2022 1698.3179 83.5781 1692.8264
-66.5721 -1.6914 -375.1789 1699.8182 83.6223 1694.3257
-67.7106 -1.6936 -376.1559 1701.3185 83.6662 1695.8250
-68.8487 -1.6957 -377.1334 1702.8187 83.7098 1697.3242
-69.9865 -1.6978 -378.1112 1704.3191 83.7532 1698.8235
-71.1240 -1.6999 -379.0894 1705.8193 83.7963 1700.3228
-72.2612 -1.7020 -380.0680 1707.3196 83.8392 1701.8220
-73.3981 -1.7042 -381.0469 1708.8198 83.8818 1703.3213
-74.5349 -1.7063 -382.0259 1710.3202 83.9241 1704.8206
-75.6716 -1.7084 -383.0051 1711.8204 83.9662 1706.3198
-76.8082 -1.7104 -383.9843 1713.3207 84.0080 1707.8191
-77.9448 -1.7125 -384.9636 1714.8210 84.0496 1709.3184
-79.0815 -1.7146 -385.9428 1716.3213 84.0909 1710.8176
-80.2182 -1.7167 -386.9220 1717.8215 84.1320 1712.3170
-81.3549 -1.7188 -387.9012 1719.3219 84.1728 1713.8163
-82.4915 -1.7209 -388.8804 1720.8221 84.2134 1715.3154
-83.6282 -1.7230 -389.8596 1722.3224 84.2538 1716.8147
-84.7649 -1.7251 -390.8388 1723.8226 84.2938 1718.3140
-85.9015 -1.7272 -391.8180 1725.3230 84.3337 1719.8132
-87.0382 -1.7293 -392.7971 1726.8232 84.3733 1721.3126
-88.1749 -1.7315 -393.7763 1728.3235 84.4127 1722.8124
-89.3116 -1.7338 -394.7555 1729.8239 84.4518 1724.3126
-90.4483 -1.7362 -395.7347 1731.3241 84.4907 1725.8130
-91.5850 -1.7389 -396.7139 1732.8243 84.5294 1727.3135
-92.7217 -1.7418 -397.6931 1734.3247 84.5679 1728.8141
-93.8583 -1.7447 -398.6723 1735.8250 84.6061 1730.3146
-94.9950 -1.7475 -399.6515 1737.3252 84.6441 1731.8152
-96.1316 -1.7502 -400.6306 1738.8254 84.6818 1733.3157
-97.2683 -1.7527 -401.6098 1740.3258 84.7194 1734.8163
-98.4050 -1.7550 -402.5889 1741.8260 84.7567 1736.3169
-99.5418 -1.7573 -403.5681 1743.3263 84.7938 1737.8174
-100.6785 -1.7595 -404.5472 1744.8267 84.8306 1739.3180
-101.8152 -1.7618 -405.5264 1746.3269 84.8673 1740.8185
-102.9519 -1.7641 -406.5055 1747.8271 84.9037 1742.3191
-104.0887 -1.7665 -407.4846 1749.3275 84.9399 1743.8196
-105.2254 -1.7689 -408.4638 1750.8278 84.9760 1745.3202
-106.3621 -1.7713 -409.4429 1752.3280 85.0117 1746.8207
-107.4989 -1.7738 -410.4220 1753.8282 85.0473 1748.3213
-108.6356 -1.7763 -411.4011 1755.3286 85.0827 1749.8219
-109.7724 -1.7789 -412.3802 1756.8289 85.1179 1751.3224
-110.9092 -1.7814 -413.3592 1758.3291 85.1528 1752.8230
-112.0460 -1.7840 -414.3383 1759.8295 85.1876 1754.3235
-113.1827 -1.7867 -415.3174 1761.3297 85.2221 1755.8241
-114.3194 -1.7894 -416.2967 1762.8300 85.2565 1757.3246
-115.4557 -1.7921 -417.2762 1764.3303 85.2906 1758.8252
-116.5917 -1.7949 -418.2562 1765.8306 85.3245 1760.3257
-117.7272 -1.7978 -419.2369 1767.3308 85.3583 1761.8263
-118.8615 -1.8007 -420.2188 1768.8311 85.3918 1763.3268
-119.9935 -1.8036 -421.2033 1770.3314 85.4252 1764.8273
-121.1216 -1.8065 -422.1924 1771.8317 85.4583 1766.3276
-122.2439 -1.8094 -423.1881 1773.3319 85.4913 1767.8279
-123.3595 -1.8123 -424.1912 1774.8323 85.5241 1769.3276
-124.4690 -1.8152 -425.2010 1776.3325 85.5566 1770.8271
-125.5747 -1.8181 -426.2150 1777.8328 85.5890 1772.3264
-126.6786 -1.8211 -427.2310 1779.3331 85.6212 1773.8257
-127.7822 -1.8241 -428.2473 1780.8334 85.6532 1775.3248
-128.8859 -1.8272 -429.2635 1782.3336 85.6851 1776.8240
-129.9899 -1.8302 -430.2794 1783.8339 85.7167 1778.3232
-131.0941 -1.8331 -431.2951 1785.3342 85.7482 1779.8225
-132.1986 -1.8360 -432.3105 1786.8345 85.7794 1781.3218
-133.3038 -1.8389 -433.3250 1788.3347 85.8105 1782.8210
-134.4106 -1.8420 -434.3378 1789.8351 85.8414 1784.3204
-135.5198 -1.8452 -435.3481 1791.3353 85.8722 1785.8201
-136.6324 -1.8487 -436.3545 1792.8356 85.9027 1787.3198
-137.7492 -1.8523 -437.3563 1794.3359 85.9331 1788.8197
-138.8698 -1.8561 -438.3538 1795.8362 85.9633 1790.3198
-139.9927 -1.8599 -439.3488 1797.3364 85.9933 1791.8199
-141.1163 -1.8640 -440.3429 1798.8367 86.0232 1793.3202
-142.2398 -1.8681 -441.3371 1800.3370 86.0529 1794.8203
-143.3628 -1.8721 -442.3319 1801.8373 86.0824 1796.3206
-144.4853 -1.8762 -443.3273 1803.3375 86.1117 1797.8207
-145.6073 -1.8804 -444.3233 1804.8379 86.1409 1799.3209
-146.7291 -1.8846 -445.3196 1806.3381 86.1699 1800.8212
-147.8508 -1.8890 -446.3159 1807.8384 86.1987 1802.3213
-148.9731 -1.8936 -447.3116 1809.3387 86.2274 1803.8215
-150.0965 -1.8985 -448.3060 1810.8390 86.2559 1805.3218
-151.2215 -1.9037 -449.2986 1812.3392 86.2843 1806.8220
-152.3482 -1.9089 -450.2893 1813.8396 86.3124 1808.3225
-153.4763 -1.9142 -451.2784 1815.3398 86.3405 1809.8230
-154.6055 -1.9193 -452.2662 1816.8401 86.3683 1811.3234
-155.7352 -1.9243 -453.2534 1818.3403 86.3960 1812.8239
-156.8654 -1.9295 -454.2401 1819.8407 86.4236 1814.3243
-157.9960 -1.9350 -455.2263 1821.3409 86.4510 1815.8245
-159.1273 -1.9408 -456.2118 1822.8412 86.4782 1817.3242
-160.2595 -1.9465 -457.1961 1824.3416 86.5053 1818.8234
-161.3931 -1.9522 -458.1789 1825.8418 86.5322 1820.3220
-162.5288 -1.9576 -459.1593 1827.3420 86.5589 1821.8203
-163.6672 -1.9626 -460.1364 1828.8424 86.5856 1823.3185
-164.8093 -1.9674 -461.1093 1830.3427 86.6120 1824.8167
-165.9551 -1.9720 -462.0778 1831.8429 86.6383 1826.3148
-167.1040 -1.9765 -463.0426 1833.3431 86.6645 1827.8131
-168.2546 -1.9807 -464.0053 1834.8435 86.6905 1829.3113
-169.4056 -1.9849 -464.9676 1836.3438 86.7164 1830.8094
-170.5566 -1.9892 -465.9300 1837.8440 86.7421 1832.3077
-171.7071 -1.9940 -466.8929 1839.3444 86.7677 1833.8060
-172.8571 -1.9991 -467.8564 1840.8446 86.7931 1835.3043
-174.0066 -2.0044 -468.8206 1842.3448 86.8184 1836.8025
-175.1554 -2.0099 -469.7855 1843.8452 86.8435 1838.3008
-176.3037 -2.0156 -470.7510 1845.3455 86.8685 1839.7991
-177.4516 -2.0212 -471.7170 1846.8457 86.8934 1841.2974
-178.5990 -2.0269 -472.6837 1848.3459 86.9181 1842.7957
-179.7459 -2.0325 -473.6509 1849.8463 86.9427 1844.2938
-180.8924 -2.0381 -474.6186 1851.3466 86.9671 1845.7921
-182.0384 -2.0437 -475.5869 1852.8468 86.9914 1847.2904
-183.1840 -2.0493 -476.5556 1854.3472 87.0156 1848.7887
-184.3290 -2.0550 -477.5250 1855.8474 87.0396 1850.2869
-185.4735 -2.0606 -478.4949 1857.3477 87.0635 1851.7850
-186.6176 -2.0663 -479.4654 1858.8480 87.0873 1853.2832
-187.7612 -2.0719 -480.4365 1860.3483 87.1109 1854.7814
-188.9042 -2.0776 -481.4081 1861.8485 86.4603 1856.2795
-190.0467 -2.0832 -482.3806 1863.3488 85.7798 1857.7777
-191.1884 -2.0889 -483.3539 1864.8491 85.0942 1859.2759
-192.3293 -2.0945 -484.3282 1866.3494 84.4033 1860.7740
-193.4692 -2.1002 -485.3036 1867.8496 83.7071 1862.2721
-194.6081 -2.1057 -486.2802 1869.3500 83.0060 1863.7701
-195.7462 -2.1112 -487.2578 1870.8502 82.3011 1865.2683
-196.8833 -2.1167 -488.2364 1872.3505 81.5922 1866.7664
-198.0199 -2.1221 -489.2157 1873.8508 80.8792 1868.2643
-199.1561 -2.1274 -490.1955 1875.3511 80.1621 1869.7623
-200.2922 -2.1327 -491.1752 1876.8513 79.4408 1871.2603
-201.4288 -2.1380 -492.1546 1878.3516 78.7151 1872.7583
-202.5659 -2.1431 -493.1331 1879.8519 77.9849 1874.2563
-203.7039 -2.1482 -494.1107 1881.3522 77.2502 1875.7543
-204.8426 -2.1533 -495.0876 1882.8524 76.5108 1877.2523
-205.9817 -2.1583 -496.0641 1884.3528 75.7666 1878.7505
-207.1212 -2.1632 -497.0399 1885.8530 75.0175 1880.2485
-208.2615 -2.1681 -498.0149 1887.3533 74.2633 1881.7466
-209.4033 -2.1729 -498.9881 1888.8536 73.5039 1883.2448
-210.5473 -2.1776 -499.9586 1890.3539 72.7391 1884.7428
-211.6937 -2.1822 -500.9264 1891.8541 71.9688 1886.2410
-212.8417 -2.1868 -501.8924 1893.3544 71.1929 1887.7393
-213.9903 -2.1913 -502.8575 1894.8547 70.4111 1889.2375
-215.1390 -2.1957 -503.8226 1896.3550 69.6233 1890.7358
-216.2875 -2.1999 -504.7879 1897.8552 68.8294 1892.2341
-217.4357 -2.2041 -505.7536 1899.3556 68.0290 1893.7324
-218.5835 -2.2082 -506.7198 1900.8558 67.2221 1895.2306
-219.7310 -2.2121 -507.6862 1902.3561 66.4083 1896.7289
-220.8784 -2.2159 -508.6528 1903.8564 65.5875 1898.2271
-222.0260 -2.2196 -509.6193 1905.3567 64.7595 1899.7252
-223.1741 -2.2233 -510.5850 1906.8569 63.9239 1901.2234
-224.3233 -2.2270 -511.5493 1908.3572 63.0805 1902.7214
-225.4743 -2.2306 -512.5117 1909.8575 62.2290 1904.2197
-226.6273 -2.2341 -513.4715 1911.3578 61.3692 1905.7186
-227.7835 -2.2375 -514.4277 1912.8580 60.5006 1907.2181
-228.9443 -2.2407 -515.3781 1914.3584 59.6230 1908.7190
-230.1126 -2.2437 -516.3193 1915.8586 58.7359 1910.2203
-231.2915 -2.2467 -517.2472 1917.3589 57.8390 1911.7207
-232.4833 -2.2498 -518.1586 1918.8593 58.1098 1913.2164
-233.6873 -2.2531 -519.0536 1920.3595 58.3771 1914.7023
-234.9011 -2.2567 -519.9354 1921.8597 58.0472 1916.1680
-236.1220 -2.2605 -520.8073 1923.3600 57.1425 1917.6116
-237.3495 -2.2645 -521.6700 1924.8604 56.2272 1919.0338
-238.5844 -2.2688 -522.5218 1926.3606 55.3008 1920.4408
-239.8293 -2.2738 -523.3591 1927.8608 54.3629 1921.8389
-241.0862 -2.2796 -524.1780 1929.3612 53.4128 1923.2303
-242.3561 -2.2866 -524.9768 1930.8615 53.7443 1924.6182
-243.6380 -2.2953 -525.7562 1932.3617 54.0708 1926.0040
-244.9298 -2.3060 -526.5192 1933.8621 53.7753 1927.3885
-246.2289 -2.3188 -527.2695 1935.3623 52.8174 1928.7725
-247.5336 -2.3336 -528.0100 1936.8625 51.8464 1930.1560
-248.8432 -2.3501 -528.7420 1938.3628 50.8615 1931.5399
-250.1574 -2.3677 -529.4654 1939.8632 49.8620 1932.9243
-251.4770 -2.3861 -530.1791 1941.3634 48.8472 1934.3101
-252.8028 -2.4048 -530.8810 1942.8636 47.8161 1935.6976
-254.1359 -2.4237 -531.5692 1944.3640 46.7676 1937.0876
-255.4771 -2.4428 -532.2411 1945.8643 45.7008 1938.4810
-256.8274 -2.4622 -532.8948 1947.3645 44.6184 1939.8779
-258.1873 -2.4818 -533.5281 1948.8649 43.5300 1941.2784
-259.5580 -2.5016 -534.1376 1950.3651 42.4353 1942.6807
-260.9407 -2.5217 -534.7193 1951.8654 41.3339 1944.0834
-262.3366 -2.5419 -535.2684 1953.3656 40.2254 1945.4836
-263.7462 -2.5622 -535.7819 1954.8660 40.8154 1946.8806
-265.1680 -2.5826 -536.2601 1956.3662 41.3904 1948.2721
-266.6002 -2.6032 -536.7063 1957.8665 41.9512 1949.6588
-268.0411 -2.6242 -537.1234 1959.3668 42.4983 1951.0414
-269.4898 -2.6459 -537.5127 1960.8671 43.0326 1952.4205
-270.9456 -2.6686 -537.8744 1962.3673 43.5547 1953.7981
-272.4081 -2.6924 -538.2079 1963.8677 44.0650 1955.1744
-273.8769 -2.7171 -538.5126 1965.3679 44.5641 1956.5509
-275.3515 -2.7426 -538.7877 1966.8682 45.0526 1957.9282
-276.8313 -2.7687 -539.0331 1968.3684 45.5308 1959.3075
-278.3157 -2.7951 -539.2489 1969.8688 45.9992 1960.6895
-279.8040 -2.8217 -539.4360 1971.3690 46.4581 1962.0758
-281.2955 -2.8484 -539.5958 1972.8693 46.9080 1963.4669
-282.7895 -2.8749 -539.7303 1974.3696 47.3492 1964.8634
-284.2854 -2.9011 -539.8417 1975.8699 47.7821 1966.2664
-285.7827 -2.9269 -539.9326 1977.3701 48.2068 1967.6732
-287.2809 -2.9519 -540.0060 1978.8705 48.6238 1969.0818
-288.7798 -2.9761 -540.0651 1980.3707 49.0333 1970.4897
-290.2793 -2.9995 -540.1113 1981.8710 49.4355 1971.8929
-291.7791 -3.0220 -540.1438 1983.3712 48.5871 1973.2910
-293.2791 -3.0437 -540.1600 1984.8716 47.5517 1974.6831
-294.7792 -3.0649 -540.1567 1986.3718 46.4987 1976.0703
-296.2791 -3.0855 -540.1307 1987.8721 45.4270 1977.4539
-297.7784 -3.1056 -540.0793 1989.3724 44.3431 1978.8341
-299.2764 -3.1253 -539.9994 1990.8727 43.2532 1980.2134
-300.7723 -3.1444 -539.8875 1992.3729 42.1568 1981.5920
-302.2652 -3.1629 -539.7407 1993.8733 41.0536 1982.9717
-303.7541 -3.1804 -539.5569 1995.3735 40.5677 1984.3530
-305.2379 -3.1968 -539.3355 1996.8738 40.5790 1985.7377
-306.7155 -3.2118 -539.0768 1998.3740 41.1600 1987.1260
-308.1864 -3.2253 -538.7819 1999.8744 41.7264 1988.5190
-309.6501 -3.2374 -538.4528 2001.3746 42.2790 1989.9159
-311.1067 -3.2477 -538.0931 2002.8749 42.8184 1991.3157
-312.5565 -3.2561 -537.7072 2004.3752 43.3454 1992.7147
-314.0000 -3.2626 -537.2987 2005.8755 43.8603 1994.1119
-315.4376 -3.2669 -536.8696 2007.3757 44.3639 1995.5039
-316.8690 -3.2692 -536.4204 2008.8761 44.8566 1996.8906
-318.2936 -3.2699 -535.9501 2010.3763 45.3389 1998.2722
-319.7105 -3.2695 -535.4570 2011.8766 45.8112 1999.6501
-321.1186 -3.2688 -534.9393 2013.3768 46.2739 2001.0245
-322.5169 -3.2687 -534.3956 2014.8772 46.7275 2002.3975
-323.9046 -3.2698 -533.8256 2016.3774 47.1721 2003.7695
-325.2812 -3.2723 -533.2292 2017.8777 46.2551 2005.1423
-326.6465 -3.2760 -532.6074 2019.3781 45.1790 2006.5164
-328.0001 -3.2806 -531.9604 2020.8783 44.0937 2007.8940
-329.3415 -3.2858 -531.2885 2022.3785 43.0023 2009.2755
-330.6696 -3.2911 -530.5907 2023.8789 41.9044 2010.6594
-331.9828 -3.2962 -529.8654 2025.3792 40.7996 2012.0447
-333.2787 -3.3007 -529.1095 2026.8794 39.6875 2013.4241
-334.5548 -3.3043 -528.3206 2028.3798 38.5677 2014.7936
-335.8087 -3.3072 -527.4969 2029.8800 37.5296 2016.1418
-337.0384 -3.3093 -526.6375 2031.3802 36.5355 2017.4701
-338.2415 -3.3109 -525.7414 2032.8805 35.5782 2018.7780
-339.4159 -3.3120 -524.8078 2034.3809 34.6305 2020.0719
-340.5588 -3.3124 -523.8360 2035.8811 33.7212 2021.3547
-341.6676 -3.3124 -522.8254 2037.3813 33.1859 2022.6284
-342.7399 -3.3117 -521.7762 2038.8817 33.0448 2023.8931
-343.7741 -3.3106 -520.6895 2040.3820 33.0101 2025.1469
-344.7687 -3.3091 -519.5664 2041.8822 32.8357 2026.3967
-345.7221 -3.3075 -518.4081 2043.3826 32.3975 2027.6436
-346.6320 -3.3060 -517.2155 2044.8828 31.7701 2028.8967
-347.4958 -3.3047 -515.9888 2046.3831 31.3106 2030.1624
-348.3111 -3.3037 -514.7294 2047.8833 31.3980 2031.4425
-349.0769 -3.3026 -513.4394 2049.3835 32.2132 2032.7396
-349.7941 -3.3014 -512.1218 2050.8840 33.0080 2034.0448
-350.4658 -3.2998 -510.7803 2052.3843 33.7838 2035.3560
-351.0952 -3.2979 -509.4185 2053.8845 34.5421 2036.6649
-351.6850 -3.2959 -508.0391 2055.3848 35.2838 2037.9703
-352.2364 -3.2940 -506.6440 2056.8850 36.0100 2039.2704
-352.7492 -3.2927 -505.2341 2058.3853 36.7215 2040.5646
-353.2229 -3.2920 -503.8106 2059.8855 37.4106 2041.8574
-353.6566 -3.2923 -502.3744 2061.3860 37.9035 2043.1504
-354.0496 -3.2933 -500.9265 2062.8862 37.8767 2044.4440
-354.4013 -3.2950 -499.4681 2064.3865 38.3425 2045.7451
-354.7125 -3.2969 -498.0006 2065.8867 38.9836 2047.0555
-354.9851 -3.2986 -496.5254 2067.3870 39.6068 2048.3813
-355.2227 -3.2995 -495.0441 2068.8872 40.2131 2049.7346
-355.4305 -3.2992 -493.5583 2070.3875 40.8035 2051.1194
-355.6141 -3.2975 -492.0694 2071.8879 41.3788 2052.5476
-355.7782 -3.2942 -490.5782 2073.3882 41.9398 2054.0110
-355.9265 -3.2897 -489.0853 2074.8884 42.4872 2055.4988
-356.0617 -3.2842 -487.5910 2076.3887 43.0218 2056.9995
-356.1871 -3.2784 -486.0960 2077.8889 43.5441 2058.5017
-356.3065 -3.2724 -484.6006 2079.3892 44.0546 2060.0042
-356.4235 -3.2667 -483.1048 2080.8896 44.5540 2061.5044
-356.5401 -3.2614 -481.6091 2082.3899 45.0427 2063.0024
-356.6573 -3.2564 -480.1134 2083.8901 45.5211 2064.4993
-356.7751 -3.2517 -478.6177 2085.3904 45.9896 2065.9956
-356.8934 -3.2471 -477.1220 2086.8906 46.4488 2067.4919
-357.0123 -3.2424 -475.6264 2088.3909 46.8989 2068.9880
-357.1314 -3.2378 -474.1309 2089.8911 47.3403 2070.4844
-357.2508 -3.2330 -472.6354 2091.3916 47.7733 2071.9807
-357.3703 -3.2283 -471.1399 2092.8918 48.1982 2073.4771
-357.4900 -3.2234 -469.6444 2094.3921 48.6153 2074.9736
-357.6095 -3.2186 -468.1490 2095.8923 49.0249 2076.4700
-357.7284 -3.2137 -466.6534 2097.3926 49.4273 2077.9668
-357.8461 -3.2089 -465.1577 2098.8928 49.8226 2079.4644
-357.9616 -3.2042 -463.6619 2100.3931 50.2112 2080.9624
-358.0739 -3.1994 -462.1659 2101.8936 50.5932 2082.4609
-358.1822 -3.1946 -460.6696 2103.3938 50.9688 2083.9597
-358.2869 -3.1900 -459.1730 2104.8940 51.3383 2085.4587
-358.3890 -3.1853 -457.6762 2106.3943 51.7018 2086.9578
-358.4896 -3.1807 -456.1793 2107.8945 52.0595 2088.4565
-358.5891 -3.1760 -454.6825 2109.3948 52.4116 2089.9556
-358.6877 -3.1714 -453.1855 2110.8953 52.7582 2091.4543
-358.7857 -3.1667 -451.6885 2112.3955 53.0995 2092.9531
-358.8829 -3.1620 -450.1914 2113.8958 53.4356 2094.4519
-358.9795 -3.1572 -448.6942 2115.3960 52.6514 2095.9509
-359.0755 -3.1525 -447.1970 2116.8962 51.6781 2097.4500
-359.1713 -3.1478 -445.6998 2118.3965 50.6908 2098.9487
-359.2672 -3.1431 -444.2026 2119.8967 49.6887 2100.4473
-359.3633 -3.1384 -442.7054 2121.3972 48.6711 2101.9446
-359.4594 -3.1337 -441.2081 2122.8975 47.6371 2103.4404
-359.5554 -3.1289 -439.7109 2124.3977 46.5856 2104.9341
-359.6514 -3.1242 -438.2137 2125.8979 45.5155 2106.4275
-359.7478 -3.1195 -436.7166 2127.3982 44.4321 2107.9229
-359.8456 -3.1147 -435.2196 2128.8984 43.3426 2109.4299
-359.9470 -3.1097 -433.7227 2130.3987 42.2468 2110.9585
-360.0553 -3.1044 -432.2263 2131.8992 41.1442 2112.5308
-360.1764 -3.0984 -430.7310 2133.3994 40.0344 2114.1587
-360.3187 -3.0914 -429.2375 2134.8997 38.9170 2115.8276
-360.4924 -3.0832 -427.7475 2136.3999 37.7915 2117.5195
-360.7058 -3.0736 -426.2626 2137.9001 36.6573 2119.2104
-360.9633 -3.0629 -424.7846 2139.4004 36.1769 2120.8977
-361.2659 -3.0508 -423.3153 2140.9009 36.3479 2122.5742
-361.6130 -3.0373 -421.8558 2142.4011 36.5675 2124.2458
-362.0038 -3.0217 -420.4075 2143.9014 36.5257 2125.9150
-362.4383 -3.0040 -418.9716 2145.4016 36.1193 2127.5867
-362.9167 -2.9845 -417.5498 2146.9019 35.4328 2129.2632
-363.4399 -2.9637 -416.1438 2148.4021 34.7358 2130.9490
-364.0089 -2.9429 -414.7558 2149.9023 34.3156 2132.6477
-364.6240 -2.9232 -413.3875 2151.4028 34.4058 2134.3638
-365.2842 -2.9053 -412.0405 2152.9031 35.1504 2136.0986
-365.9872 -2.8895 -410.7153 2154.4033 35.8794 2137.8477
-366.7291 -2.8753 -409.4115 2155.9036 36.5936 2139.5991
-367.5055 -2.8623 -408.1280 2157.4038 37.2867 2141.3440
-368.3131 -2.8497 -406.8637 2158.9041 36.7060 2143.0750
-369.1516 -2.8371 -405.6196 2160.4043 35.5629 2144.7920
-370.0232 -2.8242 -404.3986 2161.9048 34.4098 2146.4988
-370.9321 -2.8110 -403.2052 2163.4050 33.2459 2148.2000
-371.8824 -2.7980 -402.0446 2164.9053 32.1177 2149.8989
-372.8753 -2.7855 -400.9201 2166.4055 32.2072 2151.6011
-373.9094 -2.7736 -399.8332 2167.9058 33.0022 2153.3101
-374.9814 -2.7627 -398.7838 2169.4060 33.7782 2155.0298
-376.0877 -2.7530 -397.7706 2170.9065 34.5365 2156.7644
-377.2247 -2.7445 -396.7918 2172.4067 35.2783 2158.5156
-378.3885 -2.7371 -395.8451 2173.9070 35.4802 2160.2739
-379.5748 -2.7303 -394.9269 2175.4072 34.3264 2162.0327
-380.7798 -2.7236 -394.0330 2176.9075 33.1617 2163.7786
-382.0021 -2.7169 -393.1632 2178.4077 31.9852 2165.5068
-383.2455 -2.7101 -392.3239 2179.9080 30.7960 2167.2173
-384.5154 -2.7039 -391.5251 2181.4084 29.5928 2168.9136
-385.8161 -2.6987 -390.7777 2182.9087 28.3744 2170.6006
-387.1500 -2.6952 -390.0912 2184.4089 27.2443 2172.2842
-388.5161 -2.6934 -389.4714 2185.9092 27.3409 2173.9668
-389.9111 -2.6931 -388.9195 2187.4094 28.2748 2175.6536
-391.3293 -2.6937 -388.4305 2188.9097 29.1785 2177.3479
-392.7643 -2.6947 -387.9933 2190.4099 30.0547 2179.0540
-394.2107 -2.6956 -387.5952 2191.9104 30.9058 2180.7754
-395.6658 -2.6961 -387.2301 2193.4106 31.7338 2182.5132
-397.1293 -2.6964 -386.8995 2194.9109 32.5405 2184.2573
-398.6006 -2.6969 -386.6068 2196.4111 33.3274 2186.0010
-400.0794 -2.6980 -386.3545 2197.9114 34.0959 2187.7324
-401.5650 -2.7002 -386.1449 2199.4116 34.8472 2189.4490
-403.0562 -2.7036 -385.9806 2200.9121 34.9621 2191.1509
-404.5520 -2.7081 -385.8646 2202.4124 33.8035 2192.8416
-406.0508 -2.7133 -385.8001 2203.9126 33.0042 2194.5256
-407.5511 -2.7188 -385.7890 2205.4128 32.7959 2196.2075
-409.0506 -2.7242 -385.8322 2206.9131 32.9365 2197.8899
-410.5475 -2.7293 -385.9291 2208.4133 33.2627 2199.5776
-412.0402 -2.7343 -386.0787 2209.9136 33.8256 2201.2747
-413.5270 -2.7394 -386.2794 2211.4141 34.5829 2202.9849
-415.0063 -2.7447 -386.5286 2212.9143 35.3237 2204.7114
-416.4775 -2.7503 -386.8222 2214.4146 36.0491 2206.4551
-417.9406 -2.7562 -387.1544 2215.9148 36.7594 2208.2075
-419.3959 -2.7628 -387.5188 2217.4150 37.4474 2209.9614
-420.8438 -2.7708 -387.9117 2218.9153 37.7703 2211.7056
-422.2833 -2.7807 -388.3342 2220.4155 36.6359 2213.4355
-423.7121 -2.7926 -388.7916 2221.9160 35.4922 2215.1509
-425.1268 -2.8059 -389.2908 2223.4163 34.3385 2216.8547
-426.5242 -2.8200 -389.8365 2224.9165 34.2512 2218.5510
-427.9026 -2.8341 -390.4284 2226.4167 34.9992 2220.2441
-429.2622 -2.8479 -391.0623 2227.9170 35.1042 2221.9365
-430.6028 -2.8616 -391.7355 2229.4172 33.9469 2223.6333
-431.9214 -2.8754 -392.4509 2230.9177 32.7785 2225.3384
-433.2137 -2.8896 -393.2126 2232.4180 31.5980 2227.0562
-434.4757 -2.9041 -394.0235 2233.9182 30.9968 2228.7900
-435.7046 -2.9186 -394.8840 2235.4185 30.7686 2230.5400
-436.8978 -2.9326 -395.7932 2236.9187 30.8796 2232.2969
-438.0537 -2.9459 -396.7494 2238.4189 31.5344 2234.0537
-439.1718 -2.9587 -397.7494 2239.9192 32.3462 2235.7988
-440.2535 -2.9715 -398.7889 2241.4197 33.1377 2237.5293
-441.3016 -2.9849 -399.8623 2242.9199 33.9106 2239.2446
-442.3196 -2.9997 -400.9641 2244.4202 34.6660 2240.9480
-443.3101 -3.0163 -402.0909 2245.9204 35.2067 2242.6436
-444.2730 -3.0348 -403.2413 2247.4207 34.0504 2244.3359
-445.2059 -3.0547 -404.4160 2248.9209 32.8829 2246.0271
-446.1037 -3.0749 -405.6178 2250.4214 31.7036 2247.7222
-446.9585 -3.0942 -406.8503 2251.9216 30.5111 2249.4250
-447.7625 -3.1116 -408.1166 2253.4219 29.6904 2251.1394
-448.5121 -3.1271 -409.4160 2254.9221 30.5518 2252.8691
-449.2091 -3.1414 -410.7443 2256.4224 31.3892 2254.6150
-449.8581 -3.1559 -412.0968 2257.9226 32.2047 2256.3694
-450.4628 -3.1717 -413.4697 2259.4229 32.9997 2258.1262
-451.0248 -3.1888 -414.8604 2260.9233 33.7757 2259.8730
-451.5444 -3.2068 -416.2676 2262.4236 34.5341 2261.6045
-452.0210 -3.2246 -417.6900 2263.9238 35.2760 2263.3198
-452.4535 -3.2414 -419.1264 2265.4241 35.5097 2265.0210
-452.8403 -3.2569 -420.5758 2266.9243 34.8235 2266.7119
-453.1795 -3.2711 -422.0371 2268.4246 34.1183 2268.3975
-453.4692 -3.2848 -423.5090 2269.9248 33.9510 2270.0808
-453.7088 -3.2983 -424.9899 2271.4253 34.7055 2271.7661
-453.9000 -3.3122 -426.4779 2272.9255 35.4438 2273.4570
-454.0457 -3.3267 -427.9711 2274.4258 36.1667 2275.1570
-454.1472 -3.3419 -429.4677 2275.9260 36.6571 2276.8694
-454.2040 -3.3578 -430.9667 2277.4263 36.4306 2278.5879
-454.2154 -3.3745 -432.4669 2278.9265 36.9164 2280.3081
-454.1823 -3.3918 -433.9667 2280.4270 36.5739 2282.0176
-454.1039 -3.4100 -435.4648 2281.9272 35.4296 2283.7119
-453.9782 -3.4287 -436.9597 2283.4275 34.8475 2285.3914
-453.8040 -3.4476 -438.4496 2284.9277 35.5828 2287.0591
-453.5836 -3.4664 -439.9334 2286.4280 36.3029 2288.7190
-453.3235 -3.4843 -441.4109 2287.9282 37.0051 2290.3757
-453.0309 -3.5009 -442.8823 2289.4285 37.6855 2292.0315
-452.7091 -3.5156 -444.3475 2290.9290 37.6510 2293.6907
-452.3536 -3.5283 -445.8049 2292.4292 36.5156 2295.3567
-451.9576 -3.5391 -447.2518 2293.9294 35.3709 2297.0337
-451.5161 -3.5482 -448.6854 2295.4297 34.9849 2298.7271
-451.0288 -3.5559 -450.1043 2296.9299 35.7173 2300.4292
-450.5013 -3.5629 -451.5089 2298.4302 36.4347 2302.1348
-449.9437 -3.5695 -452.9017 2299.9304 37.1328 2303.8147
-449.3652 -3.5764 -454.2860 2301.4309 37.8093 2305.4475
-448.7711 -3.5839 -455.6636 2302.9312 38.4658 2307.0190
-448.1643 -3.5923 -457.0356 2304.4314 39.1034 2308.5471
-447.5486 -3.6016 -458.4038 2305.9316 39.7233 2310.0549
-446.9269 -3.6115 -459.7692 2307.4319 40.3265 2311.5520
-446.3015 -3.6220 -461.1328 2308.9321 40.9140 2313.0481
-445.6742 -3.6327 -462.4956 2310.4326 41.4865 2314.5447
-445.0466 -3.6435 -463.8582 2311.9329 42.0449 2316.0439
-444.4193 -3.6543 -465.2210 2313.4331 42.5899 2317.5444
-443.7923 -3.6651 -466.5839 2314.9333 43.1221 2319.0461
-443.1657 -3.6758 -467.9470 2316.4336 43.6421 2320.5481
-442.5395 -3.6865 -469.3102 2317.9338 44.1504 2322.0498
-441.9136 -3.6972 -470.6736 2319.4341 44.6477 2323.5518
-441.2881 -3.7079 -472.0374 2320.9346 45.1344 2325.0537
-440.6631 -3.7186 -473.4013 2322.4348 45.6109 2326.5557
-440.0385 -3.7293 -474.7652 2323.9351 46.0777 2328.0574
-439.4139 -3.7400 -476.1293 2325.4353 46.5351 2329.5591
-438.7894 -3.7508 -477.4933 2326.9355 46.9835 2331.0608
-438.1647 -3.7615 -478.8574 2328.4358 47.4232 2332.5627
-437.5400 -3.7722 -480.2214 2329.9360 47.8547 2334.0645
-436.9153 -3.7828 -481.5854 2331.4365 48.2781 2335.5659
-436.2904 -3.7935 -482.9493 2332.9368 48.6938 2337.0674
-435.6655 -3.8041 -484.3133 2334.4370 49.1020 2338.5686
-435.0406 -3.8148 -485.6772 2335.9373 49.5030 2340.0698
-434.4156 -3.8254 -487.0411 2337.4375 49.8970 2341.5710
-433.7907 -3.8360 -488.4051 2338.9377 50.2843 2343.0723
-433.1657 -3.8466 -489.7691 2340.4382 50.6651 2344.5735
-432.5408 -3.8572 -491.1331 2341.9385 51.0395 2346.0747
-431.9160 -3.8678 -492.4971 2343.4387 51.4078 2347.5759
-431.2911 -3.8784 -493.8611 2344.9390 51.7702 2349.0771
-430.6664 -3.8890 -495.2251 2346.4392 52.1269 2350.5784
-430.0415 -3.8996 -496.5892 2347.9395 52.4779 2352.0793
-429.4168 -3.9102 -497.9532 2349.4397 52.8235 2353.5806
-428.7921 -3.9208 -499.3173 2350.9402 53.1638 2355.0818
-428.1674 -3.9314 -500.6814 2352.4404 53.4990 2356.5830
-427.5428 -3.9420 -502.0455 2353.9407 53.8292 2358.0842
-426.9182 -3.9526 -503.4096 2355.4409 54.1546 2359.5854
-426.2936 -3.9632 -504.7738 2356.9412 54.4752 2361.0867
-425.6692 -3.9738 -506.1379 2358.4414 54.7912 2362.5879
-425.0448 -3.9843 -507.5019 2359.9417 55.1027 2364.0889
-424.4204 -3.9949 -508.8661 2361.4421 55.4099 2365.5901
-423.7961 -4.0055 -510.2304 2362.9424 55.7128 2367.0913
-423.1718 -4.0161 -511.5946 2364.4426 56.0115 2368.5923
-422.5475 -4.0267 -512.9589 2365.9429 56.3062 2370.0935
-421.9233 -4.0372 -514.3232 2367.4431 56.5969 2371.5947
-421.2992 -4.0478 -515.6874 2368.9434 56.8837 2373.0959
-420.6751 -4.0584 -517.0516 2370.4438 57.1668 2374.5969
-420.0511 -4.0689 -518.4158 2371.9441 57.4461 2376.0979
-419.4271 -4.0795 -519.7802 2373.4443 57.7219 2377.5989
-418.8031 -4.0901 -521.1445 2374.9446 57.9941 2379.0999
-418.1792 -4.1008 -522.5089 2376.4448 58.2629 2380.6008
-417.5554 -4.1114 -523.8732 2377.9451 58.5283 2382.1018
-416.9315 -4.1220 -525.2376 2379.4453 58.7904 2383.6030
-416.3078 -4.1327 -526.6021 2380.9458 59.0493 2385.1040
-415.6841 -4.1433 -527.9666 2382.4460 59.3050 2386.6050
-415.0603 -4.1538 -529.3311 2383.9463 59.5576 2388.1060
-414.4367 -4.1644 -530.6956 2385.4465 59.8072 2389.6069
-413.8131 -4.1749 -532.0602 2386.9468 60.0538 2391.1079
-413.1896 -4.1854 -533.4248 2388.4470 60.2974 2392.6091
-412.5662 -4.1960 -534.7894 2389.9473 60.5383 2394.1101
-411.9428 -4.2065 -536.1540 2391.4478 60.7763 2395.6108
-411.3196 -4.2170 -537.5186 2392.9480 61.0116 2397.1116
-410.6964 -4.2275 -538.8832 2394.4482 61.2441 2398.6125
-410.0732 -4.2381 -540.2479 2395.9485 61.4741 2400.1130
-409.4502 -4.2486 -541.6127 2397.4487 61.7014 2401.6135
-408.8272 -4.2591 -542.9774 2398.9490 61.9262 2403.1138
-408.2043 -4.2696 -544.3423 2400.4495 62.1485 2404.6143
-407.5814 -4.2802 -545.7071 2401.9497 62.3683 2406.1152
-406.9587 -4.2907 -547.0720 2403.4500 62.5857 2407.6182
-406.3361 -4.3013 -548.4370 2404.9502 62.8008 2409.1238
-405.7138 -4.3118 -549.8020 2406.4504 63.0135 2410.6340
-405.0916 -4.3223 -551.1671 2407.9507 63.2240 2412.1487
-404.4696 -4.3329 -552.5323 2409.4509 63.4322 2413.6655
-403.8472 -4.3434 -553.8973 2410.9514 63.6382 2415.1841
-403.2238 -4.3539 -555.2618 2412.4517 63.8420 2416.7024
-402.5983 -4.3644 -556.6253 2413.9519 64.0437 2418.2209
-401.9696 -4.3749 -557.9875 2415.4521 64.2433 2419.7390
-401.3377 -4.3854 -559.3483 2416.9524 64.4409 2421.2571
-400.7029 -4.3959 -560.7077 2418.4526 64.6364 2422.7749
-400.0662 -4.4064 -562.0662 2419.9529 64.8299 2424.2925
-399.4284 -4.4169 -563.4241 2421.4534 65.0214 2425.8101
-398.7893 -4.4274 -564.7815 2422.9536 65.2110 2427.3276
-398.1476 -4.4377 -566.1376 2424.4539 65.3988 2428.8450
-397.5010 -4.4473 -567.4913 2425.9541 65.5846 2430.3625
-396.8475 -4.4559 -568.8418 2427.4543 65.7686 2431.8806
-396.1859 -4.4631 -570.1884 2428.9546 65.9508 2433.3987
-395.5157 -4.4687 -571.5307 2430.4551 66.1312 2434.9172
-394.8368 -4.4730 -572.8687 2431.9553 66.3098 2436.4358
-394.1490 -4.4763 -574.2018 2433.4556 66.4867 2437.9548
-393.4519 -4.4791 -575.5303 2434.9558 66.6619 2439.4741
-392.7451 -4.4820 -576.8535 2436.4561 66.8354 2440.9946
-392.0282 -4.4850 -578.1713 2437.9563 67.0073 2442.5168
-391.3009 -4.4883 -579.4835 2439.4565 67.1775 2444.0420
-390.5634 -4.4918 -580.7900 2440.9570 67.3461 2445.5713
