VERSION 0.7
FIELDS x y z arclength speed lapdistance
SIZE 4 4 4 4 4 4
TYPE F F F F F F
COUNT 1 1 1 1 1 1
WIDTH 888
HEIGHT 1
VIEWPOINT 0.000 0.000 0.000 1.000 0.000 0.000 0.000
POINTS 888
DATA ascii
334.0712 0.4199 -312.4954 3566.8252 73.0307 3554.4370
334.1791 0.4136 -310.9988 3568.3257 72.4937 3555.9385
334.2871 0.4072 -309.5021 3569.8262 71.9540 3557.4402
334.3951 0.4008 -308.0054 3571.3269 71.4116 3558.9417
334.5031 0.3945 -306.5087 3572.8274 70.8663 3560.4434
334.6112 0.3881 -305.0120 3574.3279 70.3181 3561.9451
334.7192 0.3817 -303.5154 3575.8286 69.7670 3563.4468
334.8273 0.3754 -302.0187 3577.3291 69.2129 3564.9485
334.9354 0.3690 -300.5220 3578.8296 68.6557 3566.4500
335.0434 0.3627 -299.0253 3580.3301 68.0953 3567.9517
335.1515 0.3564 -297.5287 3581.8308 67.5318 3569.4534
335.2595 0.3501 -296.0320 3583.3313 66.9649 3570.9551
335.3676 0.3439 -294.5353 3584.8318 66.3947 3572.4568
335.4760 0.3377 -293.0387 3586.3323 65.8210 3573.9583
335.5847 0.3315 -291.5421 3587.8330 65.2438 3575.4600
335.6943 0.3253 -290.0455 3589.3335 64.6630 3576.9617
335.8048 0.3189 -288.5491 3590.8340 64.0786 3578.4634
335.9164 0.3126 -287.0526 3592.3347 63.4903 3579.9651
336.0289 0.3062 -285.5563 3593.8352 62.8981 3581.4666
336.1420 0.2998 -284.0600 3595.3357 62.3019 3582.9683
336.2556 0.2934 -282.5638 3596.8362 61.7017 3584.4700
336.3694 0.2870 -281.0676 3598.3369 61.0972 3585.9717
336.4835 0.2806 -279.5715 3599.8374 60.4885 3587.4731
336.5985 0.2742 -278.0754 3601.3379 59.8753 3588.9749
336.7151 0.2678 -276.5794 3602.8386 59.2575 3590.4766
336.8344 0.2614 -275.0837 3604.3391 58.6351 3591.9780
336.9579 0.2550 -273.5883 3605.8396 58.0078 3593.4790
337.0876 0.2485 -272.0933 3607.3401 57.3756 3594.9795
337.2251 0.2420 -270.5991 3608.8408 56.7382 3596.4790
337.3719 0.2355 -269.1057 3610.3413 56.0956 3597.9783
337.5297 0.2289 -267.6136 3611.8418 55.4475 3599.4790
337.7003 0.2221 -266.1228 3613.3425 54.7938 3600.9832
337.8843 0.2149 -264.6336 3614.8430 54.1343 3602.4963
338.0811 0.2072 -263.1460 3616.3435 53.4688 3604.0254
338.2892 0.1986 -261.6600 3617.8440 52.7971 3605.5708
338.5068 0.1889 -260.1754 3619.3447 52.1189 3607.1309
338.7321 0.1781 -258.6920 3620.8452 51.4341 3608.6985
338.9631 0.1661 -257.2093 3622.3457 50.7424 3610.2683
339.1985 0.1531 -255.7274 3623.8464 50.0435 3611.8389
339.4371 0.1392 -254.2460 3625.3469 49.3371 3613.4087
339.6789 0.1244 -252.7651 3626.8474 48.6230 3614.9775
339.9240 0.1089 -251.2848 3628.3479 47.9008 3616.5459
340.1732 0.0926 -249.8053 3629.8486 47.1702 3618.1140
340.4280 0.0759 -248.3266 3631.3491 46.4309 3619.6826
340.6898 0.0587 -246.8491 3632.8496 45.6824 3621.2515
340.9600 0.0411 -245.3732 3634.3503 44.9272 3622.8215
341.2401 0.0234 -243.8991 3635.8508 44.1692 3624.3931
341.5319 0.0056 -242.4274 3637.3513 43.4082 3625.9666
341.8371 -0.0122 -240.9582 3638.8518 42.6442 3627.5420
342.1574 -0.0295 -239.4924 3640.3525 41.8771 3629.1196
342.4948 -0.0459 -238.0304 3641.8530 41.1066 3630.6970
342.8519 -0.0617 -236.5731 3643.3535 40.3326 3632.2739
343.2318 -0.0770 -235.1216 3644.8542 39.5551 3633.8491
343.6376 -0.0920 -233.6770 3646.3547 38.7738 3635.4224
344.0707 -0.1072 -232.2404 3647.8552 39.2152 3636.9939
344.5304 -0.1230 -230.8122 3649.3557 39.6481 3638.5640
345.0138 -0.1394 -229.3918 3650.8564 40.0728 3640.1331
345.5155 -0.1565 -227.9778 3652.3569 40.4896 3641.7019
346.0291 -0.1740 -226.5679 3653.8574 40.8988 3643.2710
346.5504 -0.1917 -225.1609 3655.3582 41.3008 3644.8408
347.0785 -0.2092 -223.7566 3656.8586 41.6957 3646.4116
347.6146 -0.2265 -222.3552 3658.3591 42.0839 3647.9829
348.1602 -0.2437 -220.9575 3659.8596 42.4655 3649.5540
348.7160 -0.2612 -219.5638 3661.3604 42.8408 3651.1233
349.2824 -0.2794 -218.1743 3662.8608 43.2100 3652.6887
349.8593 -0.2986 -216.7893 3664.3613 43.5733 3654.2500
350.4467 -0.3187 -215.4087 3665.8621 43.9310 3655.8081
351.0444 -0.3395 -214.0325 3667.3625 44.2831 3657.3643
351.6526 -0.3607 -212.6609 3668.8630 44.6298 3658.9189
352.2710 -0.3819 -211.2939 3670.3635 44.9714 3660.4727
352.8997 -0.4024 -209.9316 3671.8643 45.3079 3662.0261
353.5388 -0.4220 -208.5741 3673.3647 45.6395 3663.5793
354.1883 -0.4406 -207.2214 3674.8652 45.9664 3665.1328
354.8479 -0.4582 -205.8737 3676.3660 46.2887 3666.6860
355.5174 -0.4751 -204.5310 3677.8665 46.6064 3668.2395
356.1959 -0.4914 -203.1926 3679.3669 46.9199 3669.7942
356.8822 -0.5075 -201.8582 3680.8674 47.2290 3671.3496
357.5744 -0.5233 -200.5269 3682.3682 47.5341 3672.9062
358.2705 -0.5387 -199.1978 3683.8687 47.8351 3674.4634
358.9698 -0.5535 -197.8702 3685.3691 48.1322 3676.0200
359.6728 -0.5674 -196.5445 3686.8696 48.4254 3677.5730
360.3821 -0.5803 -195.2222 3688.3704 48.7150 3679.1191
361.1009 -0.5922 -193.9051 3689.8708 49.0009 3680.6543
361.8323 -0.6033 -192.5948 3691.3713 49.2832 3682.1799
362.5788 -0.6140 -191.2933 3692.8721 49.4876 3683.7000
363.3418 -0.6248 -190.0013 3694.3726 49.5018 3685.2166
364.1212 -0.6360 -188.7190 3695.8730 49.7780 3686.7324
364.9155 -0.6479 -187.4459 3697.3735 50.0509 3688.2478
365.7219 -0.6604 -186.1806 3698.8743 50.1740 3689.7632
366.5370 -0.6735 -184.9209 3700.3748 49.4691 3691.2786
367.3575 -0.6866 -183.6647 3701.8752 48.7564 3692.7939
368.1806 -0.6992 -182.4102 3703.3760 48.0358 3694.3093
369.0053 -0.7108 -181.1566 3704.8765 47.3068 3695.8247
369.8312 -0.7215 -179.9039 3706.3770 46.5691 3697.3401
370.6584 -0.7315 -178.6520 3707.8774 45.8223 3698.8555
371.4868 -0.7412 -177.4009 3709.3782 45.0677 3700.3718
372.3164 -0.7511 -176.1504 3710.8787 44.3102 3701.8892
373.1469 -0.7612 -174.9006 3712.3792 43.5498 3703.4082
373.9780 -0.7711 -173.6512 3713.8799 42.7864 3704.9282
374.8095 -0.7803 -172.4023 3715.3804 42.0198 3706.4482
375.6407 -0.7887 -171.1531 3716.8809 41.2499 3707.9631
376.4699 -0.7965 -169.9025 3718.3813 40.4766 3709.4634
377.2944 -0.8042 -168.6487 3719.8821 39.6998 3710.9409
378.1103 -0.8122 -167.3893 3721.3826 38.9192 3712.3828
378.9132 -0.8209 -166.1217 3722.8831 38.1347 3713.7952
379.6983 -0.8303 -164.8430 3724.3838 37.3461 3715.1831
380.4604 -0.8400 -163.5505 3725.8843 36.5532 3716.5557
381.1956 -0.8498 -162.2426 3727.3848 35.7558 3717.9202
381.9022 -0.8590 -160.9190 3728.8853 35.9069 3719.2788
382.5799 -0.8674 -159.5803 3730.3860 36.3093 3720.6348
383.2289 -0.8746 -158.2275 3731.8865 36.6928 3721.9902
383.8494 -0.8808 -156.8613 3733.3870 37.1772 3723.3464
384.4420 -0.8860 -155.4828 3734.8877 36.5131 3724.7039
385.0064 -0.8909 -154.0924 3736.3882 35.7155 3726.0649
385.5409 -0.8959 -152.6903 3737.8887 34.9131 3727.4292
386.0434 -0.9014 -151.2764 3739.3892 34.5947 3728.7966
386.5132 -0.9076 -149.8513 3740.8899 35.1148 3730.1650
386.9509 -0.9141 -148.4160 3742.3904 35.6273 3731.5312
387.3571 -0.9206 -146.9714 3743.8909 35.5540 3732.8943
387.7318 -0.9264 -145.5185 3745.3916 34.7506 3734.2512
388.0744 -0.9309 -144.0575 3746.8921 33.9422 3735.6045
388.3832 -0.9340 -142.5890 3748.3926 33.1284 3736.9539
388.6557 -0.9358 -141.1135 3749.8931 32.3090 3738.3022
388.8899 -0.9367 -139.6314 3751.3938 31.9391 3739.6501
389.0848 -0.9370 -138.1436 3752.8943 32.3009 3740.9988
389.2412 -0.9370 -136.6511 3754.3948 32.8579 3742.3491
389.3612 -0.9371 -135.1553 3755.8955 33.4055 3743.7002
389.4480 -0.9374 -133.6574 3757.3960 33.9441 3745.0503
389.5046 -0.9383 -132.1580 3758.8965 34.4742 3746.3992
389.5331 -0.9399 -130.6576 3760.3970 34.9962 3747.7446
389.5341 -0.9423 -129.1570 3761.8977 35.5104 3749.0869
389.5067 -0.9455 -127.6568 3763.3982 36.0171 3750.4270
389.4492 -0.9496 -126.1573 3764.8987 35.8049 3751.7661
389.3597 -0.9545 -124.6595 3766.3994 35.0031 3753.1060
389.2363 -0.9601 -123.1642 3767.8999 34.6862 3754.4468
389.0787 -0.9663 -121.6720 3769.4004 35.2049 3755.7920
388.8879 -0.9726 -120.1836 3770.9009 35.7161 3757.1431
388.6666 -0.9781 -118.6995 3772.4016 36.2199 3758.5027
388.4173 -0.9821 -117.2198 3773.9021 36.7148 3759.8760
388.1418 -0.9840 -115.7448 3775.4026 37.1987 3761.2644
387.8406 -0.9837 -114.2749 3776.9033 37.6723 3762.6711
387.5139 -0.9817 -112.8104 3778.4038 38.1359 3764.0906
387.1615 -0.9787 -111.3519 3779.9043 38.5901 3765.5181
386.7834 -0.9756 -109.8998 3781.4048 39.0351 3766.9485
386.3800 -0.9727 -108.4544 3782.9055 39.4715 3768.3792
385.9523 -0.9702 -107.0160 3784.4060 39.8995 3769.8091
385.5024 -0.9678 -105.5845 3785.9065 40.3195 3771.2375
385.0334 -0.9649 -104.1592 3787.4070 40.7318 3772.6658
384.5487 -0.9610 -102.7392 3788.9077 41.1367 3774.0940
384.0512 -0.9557 -101.3236 3790.4082 41.5345 3775.5266
383.5433 -0.9490 -99.9116 3791.9087 41.9254 3776.9653
383.0277 -0.9410 -98.5024 3793.4094 42.3097 3778.4165
382.5076 -0.9324 -97.0949 3794.9099 42.6875 3779.8853
381.9861 -0.9240 -95.6878 3796.4104 43.0592 3781.3704
381.4653 -0.9162 -94.2804 3797.9109 43.4250 3782.8689
380.9463 -0.9087 -92.8725 3799.4116 43.7849 3784.3728
380.4299 -0.9010 -91.4636 3800.9121 44.1392 3785.8792
379.9163 -0.8926 -90.0537 3802.4126 44.4882 3787.3857
379.4058 -0.8829 -88.6426 3803.9133 44.8318 3788.8916
378.8984 -0.8720 -87.2305 3805.4138 45.1704 3790.3965
378.3938 -0.8602 -85.8174 3806.9143 45.5040 3791.9011
377.8911 -0.8478 -84.4036 3808.4148 45.8328 3793.4055
377.3899 -0.8353 -82.9893 3809.9155 46.1570 3794.9097
376.8893 -0.8225 -81.5747 3811.4160 46.4766 3796.4138
376.3892 -0.8094 -80.1599 3812.9165 46.7918 3797.9180
375.8894 -0.7958 -78.7451 3814.4172 47.1027 3799.4224
375.3899 -0.7820 -77.3302 3815.9177 47.4094 3800.9265
374.8907 -0.7683 -75.9151 3817.4182 47.7121 3802.4307
374.3918 -0.7552 -74.5000 3818.9187 48.0107 3803.9351
373.8934 -0.7432 -73.0847 3820.4194 48.3056 3805.4392
373.3956 -0.7320 -71.6692 3821.9199 48.5966 3806.9434
372.8986 -0.7213 -70.2533 3823.4204 48.8840 3808.4478
372.4027 -0.7103 -68.8371 3824.9211 49.1678 3809.9519
371.9079 -0.6984 -67.4205 3826.4216 49.4481 3811.4561
371.4142 -0.6849 -66.0035 3827.9221 49.7249 3812.9604
370.9218 -0.6696 -64.5861 3829.4226 49.9985 3814.4646
370.4306 -0.6527 -63.1684 3830.9233 50.2687 3815.9685
369.9407 -0.6346 -61.7501 3832.4238 50.5358 3817.4727
369.4524 -0.6160 -60.3313 3833.9243 50.7997 3818.9761
368.9661 -0.5980 -58.9118 3835.4250 51.0606 3820.4795
368.4822 -0.5811 -57.4915 3836.9255 51.3185 3821.9832
368.0013 -0.5659 -56.0703 3838.4260 51.5735 3823.4875
367.5236 -0.5528 -54.6479 3839.9265 51.8257 3824.9944
367.0494 -0.5416 -53.2242 3841.4272 52.0750 3826.5061
366.5790 -0.5322 -51.7993 3842.9277 52.3216 3828.0244
366.1122 -0.5242 -50.3731 3844.4282 52.5655 3829.5486
365.6492 -0.5171 -48.9458 3845.9290 52.8067 3831.0767
365.1898 -0.5107 -47.5174 3847.4294 53.0454 3832.6060
364.7339 -0.5048 -46.0878 3848.9299 53.2815 3834.1360
364.2819 -0.4996 -44.6570 3850.4304 53.5152 3835.6655
363.8343 -0.4950 -43.2248 3851.9312 53.7464 3837.1946
363.3922 -0.4910 -41.7909 3853.4316 53.9753 3838.7231
362.9578 -0.4874 -40.3546 3854.9321 54.2018 3840.2515
362.5341 -0.4835 -38.9150 3856.4329 54.4260 3841.7793
362.1242 -0.4787 -37.4716 3857.9333 54.6006 3843.3071
361.7300 -0.4727 -36.0239 3859.4338 53.9394 3844.8347
361.3519 -0.4650 -34.5718 3860.9343 54.1662 3846.3633
360.9887 -0.4558 -33.1159 3862.4351 54.3908 3847.8950
360.6385 -0.4454 -31.6569 3863.9355 54.6131 3849.4316
360.2982 -0.4343 -30.1955 3865.4360 54.5738 3850.9761
359.9645 -0.4234 -28.7326 3866.9368 53.9124 3852.5308
359.6347 -0.4131 -27.2688 3868.4373 53.2448 3854.0916
359.3080 -0.4038 -25.8043 3869.9377 52.5709 3855.6560
358.9855 -0.3955 -24.3389 3871.4382 51.8906 3857.2209
358.6694 -0.3883 -22.8721 3872.9390 51.2035 3858.7854
358.3618 -0.3818 -21.4033 3874.4395 50.5094 3860.3486
358.0644 -0.3757 -19.9325 3875.9399 49.8080 3861.9102
357.7779 -0.3697 -18.4596 3877.4404 49.0991 3863.4705
357.5031 -0.3637 -16.9845 3878.9412 48.3824 3865.0298
357.2408 -0.3577 -15.5071 3880.4417 47.6574 3866.5886
356.9921 -0.3521 -14.0273 3881.9421 46.9239 3868.1472
356.7579 -0.3474 -12.5450 3883.4429 46.1815 3869.7068
356.5387 -0.3441 -11.0606 3884.9434 45.4299 3871.2690
356.3347 -0.3425 -9.5740 3886.4438 44.6737 3872.8364
356.1458 -0.3428 -8.0853 3887.9443 43.9148 3874.4143
355.9727 -0.3451 -6.5948 3889.4451 43.1528 3876.0034
355.8164 -0.3492 -5.1025 3890.9456 42.3878 3877.6006
355.6789 -0.3546 -3.6083 3892.4460 41.6195 3879.2017
355.5629 -0.3608 -2.1123 3893.9468 40.8479 3880.8020
355.4711 -0.3674 -0.6147 3895.4473 40.0727 3882.4006
355.4058 -0.3739 0.8844 3896.9478 39.2939 3883.9963
355.3685 -0.3800 2.3845 3898.4482 38.8666 3885.5903
355.3597 -0.3854 3.8850 3899.9490 38.8451 3887.1829
355.3794 -0.3902 5.3854 3901.4495 39.2821 3888.7751
355.4271 -0.3943 6.8851 3902.9500 39.7137 3890.3672
355.5015 -0.3978 8.3838 3904.4507 40.1371 3891.9607
355.6008 -0.4006 9.8812 3905.9512 40.5528 3893.5574
355.7219 -0.4031 11.3769 3907.4517 40.9609 3895.1599
355.8623 -0.4053 12.8708 3908.9521 41.3617 3896.7725
356.0212 -0.4076 14.3628 3910.4529 41.7556 3898.4019
356.1992 -0.4101 15.8527 3911.9534 42.1427 3900.0486
356.3979 -0.4133 17.3402 3913.4539 41.9688 3901.7068
356.6192 -0.4172 18.8242 3914.9546 41.1987 3903.3662
356.8644 -0.4220 20.3045 3916.4551 40.4251 3905.0229
357.1346 -0.4274 21.7804 3917.9556 39.6480 3906.6733
357.4308 -0.4334 23.2514 3919.4561 38.8672 3908.3181
357.7545 -0.4399 24.7165 3920.9568 38.0824 3909.9592
358.1070 -0.4467 26.1751 3922.4573 37.7139 3911.5979
358.4885 -0.4536 27.6263 3923.9578 37.7164 3913.2368
358.8990 -0.4607 29.0696 3925.4585 37.8641 3914.8767
359.3380 -0.4678 30.5045 3926.9590 38.0174 3916.5200
359.8052 -0.4750 31.9303 3928.4595 38.0878 3918.1672
360.3005 -0.4825 33.3468 3929.9600 38.0869 3919.8179
360.8235 -0.4910 34.7532 3931.4607 38.1038 3921.4685
361.3741 -0.5008 36.1490 3932.9612 38.2487 3923.1165
361.9518 -0.5123 37.5339 3934.4617 38.7006 3924.7571
362.5557 -0.5257 38.9075 3935.9624 39.1434 3926.3904
363.1846 -0.5410 40.2699 3937.4629 39.5777 3928.0188
363.8364 -0.5576 41.6213 3938.9634 40.0037 3929.6431
364.5092 -0.5751 42.9624 3940.4639 40.4218 3931.2654
365.2019 -0.5931 44.2935 3941.9646 40.8323 3932.8875
365.9134 -0.6113 45.6145 3943.4651 41.2354 3934.5103
366.6432 -0.6294 46.9256 3944.9656 41.6314 3936.1357
367.3910 -0.6474 48.2264 3946.4663 42.0207 3937.7659
368.1563 -0.6655 49.5169 3947.9668 42.4034 3939.4014
368.9393 -0.6835 50.7970 3949.4673 42.7797 3941.0415
369.7398 -0.7012 52.0661 3950.9678 43.1499 3942.6814
370.5581 -0.7182 53.3238 3952.4685 43.5142 3944.3120
371.3938 -0.7345 54.5701 3953.9690 43.8727 3945.9141
372.2457 -0.7498 55.8052 3955.4695 44.2257 3947.4805
373.1126 -0.7645 57.0299 3956.9702 44.5733 3949.0112
373.9928 -0.7787 58.2452 3958.4707 44.9157 3950.5217
374.8841 -0.7927 59.4521 3959.9712 45.2531 3952.0234
375.7841 -0.8069 60.6526 3961.4717 45.5855 3953.5212
376.6902 -0.8214 61.8486 3962.9724 45.9131 3955.0200
377.6011 -0.8366 63.0410 3964.4729 46.2362 3956.5195
378.5174 -0.8523 64.2294 3965.9734 46.5547 3958.0208
379.4411 -0.8686 65.4118 3967.4741 46.8688 3959.5227
380.3748 -0.8853 66.5865 3968.9746 47.1786 3961.0249
381.3199 -0.9023 67.7519 3970.4751 47.4844 3962.5271
382.2769 -0.9192 68.9074 3971.9756 47.7860 3964.0286
383.2452 -0.9360 70.0536 3973.4763 48.0838 3965.5298
384.2228 -0.9526 71.1920 3974.9768 48.3776 3967.0300
385.2061 -0.9688 72.3254 3976.4773 48.1058 3968.5300
386.1905 -0.9849 73.4577 3977.9778 47.3776 3970.0298
387.1719 -1.0009 74.5929 3979.4785 46.6408 3971.5300
388.1471 -1.0170 75.7333 3980.9790 45.8949 3973.0305
389.1151 -1.0332 76.8797 3982.4795 45.1405 3974.5320
390.0765 -1.0497 78.0316 3983.9802 44.3833 3976.0342
391.0327 -1.0663 79.1879 3985.4807 43.6232 3977.5376
391.9850 -1.0830 80.3475 3986.9812 42.8601 3979.0425
392.9340 -1.0995 81.5097 3988.4817 42.0938 3980.5476
393.8798 -1.1155 82.6746 3989.9824 41.3242 3982.0513
394.8218 -1.1310 83.8425 3991.4829 40.5513 3983.5479
395.7590 -1.1460 85.0142 3992.9834 39.7748 3985.0327
396.6898 -1.1605 86.1911 3994.4841 38.9945 3986.4958
397.6117 -1.1745 87.3750 3995.9846 38.2104 3987.9348
398.5214 -1.1881 88.5681 3997.4851 37.4222 3989.3530
399.4151 -1.2014 89.7735 3998.9856 36.6297 3990.7549
400.2889 -1.2144 90.9933 4000.4863 35.8328 3992.1467
401.1393 -1.2272 92.2295 4001.9868 35.0311 3993.5317
401.9633 -1.2401 93.4835 4003.4873 34.2245 3994.9119
402.7579 -1.2533 94.7564 4004.9880 33.4126 3996.2891
403.5211 -1.2667 96.0482 4006.4885 33.6223 3997.6648
404.2530 -1.2804 97.3581 4007.9890 34.1575 3999.0391
404.9555 -1.2943 98.6840 4009.4895 34.6842 4000.4133
405.6320 -1.3082 100.0234 4010.9902 35.2030 4001.7883
406.2857 -1.3219 101.3740 4012.4907 35.7142 4003.1648
406.9173 -1.3353 102.7350 4013.9912 36.2181 4004.5442
407.5253 -1.3484 104.1068 4015.4919 36.3367 4005.9285
408.1071 -1.3613 105.4899 4016.9924 35.5380 4007.3174
408.6602 -1.3741 106.8846 4018.4929 34.7345 4008.7126
409.1820 -1.3872 108.2914 4019.9934 33.9260 4010.1123
409.6701 -1.4008 109.7102 4021.4941 33.3071 4011.5154
410.1231 -1.4155 111.1405 4022.9946 33.5995 4012.9172
410.5414 -1.4314 112.5815 4024.4951 34.1351 4014.3171
410.9271 -1.4486 114.0316 4025.9958 34.6622 4015.7114
411.2835 -1.4672 115.4891 4027.4963 35.1813 4017.1013
411.6147 -1.4867 116.9525 4028.9968 35.6928 4018.4863
411.9230 -1.5069 118.4209 4030.4973 36.1970 4019.8687
412.2084 -1.5272 119.8940 4031.9980 36.6924 4021.2488
412.4687 -1.5473 121.3717 4033.4985 37.1768 4022.6282
412.7019 -1.5666 122.8539 4034.9990 37.6508 4024.0073
412.9065 -1.5844 124.3403 4036.4998 38.1149 4025.3875
413.0819 -1.5998 125.8304 4038.0002 38.4467 4026.7695
413.2285 -1.6123 127.3236 4039.5007 38.8946 4028.1548
413.3467 -1.6217 128.8195 4041.0012 39.2962 4029.5439
413.4370 -1.6283 130.3174 4042.5020 39.3512 4030.9377
413.4994 -1.6329 131.8167 4044.0024 39.7814 4032.3362
413.5345 -1.6366 133.3168 4045.5029 40.2036 4033.7371
413.5442 -1.6404 134.8174 4047.0037 40.6181 4035.1389
413.5307 -1.6450 136.3180 4048.5042 41.0250 4036.5403
413.4955 -1.6507 137.8181 4050.0046 41.4247 4037.9377
413.4381 -1.6575 139.3174 4051.5051 41.8175 4039.3318
413.3575 -1.6654 140.8157 4053.0059 42.2036 4040.7219
413.2530 -1.6745 142.3125 4054.5063 42.5832 4042.1089
413.1249 -1.6845 143.8077 4056.0068 42.9566 4043.4937
412.9747 -1.6955 145.3006 4057.5076 42.7361 4044.8767
412.8028 -1.7074 146.7912 4059.0081 41.9693 4046.2593
412.6089 -1.7202 148.2791 4060.5085 41.1992 4047.6426
412.3923 -1.7338 149.7639 4062.0090 40.4257 4049.0269
412.1530 -1.7483 151.2451 4063.5098 39.6486 4050.4138
411.8918 -1.7635 152.7226 4065.0103 38.8677 4051.8040
411.6096 -1.7794 154.1963 4066.5107 38.0829 4053.1973
411.3072 -1.7960 155.6659 4068.0112 37.2940 4054.5957
410.9845 -1.8133 157.1313 4069.5120 36.5009 4055.9956
410.6408 -1.8313 158.5917 4071.0125 35.7032 4057.3962
410.2746 -1.8499 160.0467 4072.5129 34.9007 4058.7952
409.8838 -1.8690 161.4954 4074.0137 34.0932 4060.1882
409.4655 -1.8885 162.9363 4075.5142 33.2805 4061.5752
409.0171 -1.9083 164.3681 4077.0146 32.4622 4062.9563
408.5356 -1.9282 165.7890 4078.5151 31.6379 4064.3372
408.0181 -1.9481 167.1973 4080.0159 30.8074 4065.7188
407.4617 -1.9681 168.5908 4081.5164 29.9702 4067.1001
406.8645 -1.9883 169.9673 4083.0168 29.4995 4068.4800
406.2259 -2.0086 171.3249 4084.5176 29.4992 4069.8479
405.5464 -2.0291 172.6626 4086.0181 29.7945 4071.2063
404.8274 -2.0498 173.9796 4087.5186 30.3442 4072.5505
404.0706 -2.0708 175.2751 4089.0190 30.9369 4073.8884
403.2784 -2.0919 176.5492 4090.5198 31.5183 4075.2234
402.4537 -2.1132 177.8025 4092.0203 32.0890 4076.5613
401.5993 -2.1347 179.0359 4093.5208 32.6497 4077.9146
400.7182 -2.1563 180.2504 4095.0215 33.2007 4079.2832
399.8135 -2.1782 181.4472 4096.5220 33.7427 4080.6692
398.8878 -2.2003 182.6279 4098.0225 34.2759 4082.0703
397.9428 -2.2226 183.7934 4099.5229 34.8009 4083.4832
396.9799 -2.2451 184.9440 4101.0234 35.3180 4084.9065
395.9997 -2.2677 186.0800 4102.5244 35.8275 4086.3328
395.0032 -2.2902 187.2016 4104.0249 36.3297 4087.7607
393.9915 -2.3125 188.3094 4105.5254 36.8222 4089.1868
392.9660 -2.3346 189.4048 4107.0259 37.3038 4090.6108
391.9282 -2.3564 190.4885 4108.5264 37.7751 4092.0325
390.8793 -2.3779 191.5615 4110.0269 38.2366 4093.4521
389.8204 -2.3991 192.6246 4111.5273 38.6887 4094.8706
388.7525 -2.4199 193.6788 4113.0278 39.1318 4096.2886
387.6764 -2.4403 194.7246 4114.5288 39.5663 4097.7065
386.5923 -2.4603 195.7618 4116.0293 39.9925 4099.1245
385.5005 -2.4798 196.7907 4117.5298 40.4108 4100.5430
384.4017 -2.4989 197.8124 4119.0303 40.8215 4101.9619
383.2976 -2.5174 198.8285 4120.5308 41.2248 4103.3828
382.1895 -2.5354 199.8401 4122.0312 41.6210 4104.8042
381.0779 -2.5527 200.8479 4123.5317 42.0105 4106.2275
379.9628 -2.5693 201.8521 4125.0327 42.3933 4107.6538
378.8436 -2.5853 202.8518 4126.5332 42.7698 4109.0830
377.7194 -2.6006 203.8456 4128.0337 43.1402 4110.5171
376.5883 -2.6153 204.8319 4129.5342 43.5046 4111.9570
375.4490 -2.6294 205.8085 4131.0347 43.8633 4113.4033
374.3002 -2.6430 206.7737 4132.5352 44.2164 4114.8530
373.1411 -2.6560 207.7264 4134.0356 44.5642 4116.3047
371.9713 -2.6685 208.6663 4135.5366 44.9067 4117.7563
370.7912 -2.6804 209.5931 4137.0371 45.2442 4119.2080
369.6010 -2.6917 210.5066 4138.5376 45.5767 4120.6582
368.4007 -2.7023 211.4070 4140.0381 45.9045 4122.1079
367.1906 -2.7121 212.2940 4141.5386 46.2277 4123.5571
365.9707 -2.7213 213.1676 4143.0391 46.5463 4125.0063
364.7414 -2.7299 214.0281 4144.5396 46.8605 4126.4556
363.5036 -2.7379 214.8762 4146.0405 47.1705 4127.9053
362.2583 -2.7454 215.7131 4147.5410 47.4763 4129.3545
361.0063 -2.7524 216.5402 4149.0415 47.7781 4130.8037
359.7485 -2.7590 217.3585 4150.5420 48.0759 4132.2529
358.4857 -2.7653 218.1689 4152.0425 48.3699 4133.7026
357.2182 -2.7714 218.9723 4153.5430 48.6601 4135.1538
355.9471 -2.7775 219.7699 4155.0435 48.9467 4136.6089
354.6732 -2.7839 220.5628 4156.5444 49.2297 4138.0723
353.3969 -2.7907 221.3522 4158.0449 49.5093 4139.5488
352.1191 -2.7978 222.1393 4159.5454 49.7854 4141.0420
350.8410 -2.8052 222.9253 4161.0459 50.0582 4142.5493
349.5630 -2.8125 223.7112 4162.5464 50.3277 4144.0640
348.2849 -2.8199 224.4976 4164.0469 50.5941 4145.5830
347.0071 -2.8274 225.2845 4165.5474 50.8574 4147.1025
345.7297 -2.8350 226.0718 4167.0483 51.1176 4148.6221
344.4526 -2.8424 226.8595 4168.5488 51.3749 4150.1411
343.1757 -2.8499 227.6476 4170.0493 51.6292 4151.6597
341.8989 -2.8574 228.4359 4171.5498 51.8807 4153.1777
340.6222 -2.8652 229.2243 4173.0503 52.1295 4154.6953
339.3454 -2.8731 230.0128 4174.5508 52.3754 4156.2129
338.0686 -2.8814 230.8014 4176.0513 52.6188 4157.7300
336.7920 -2.8900 231.5900 4177.5522 52.8594 4159.2471
335.5154 -2.8989 232.3786 4179.0527 53.0976 4160.7646
334.2387 -2.9080 233.1674 4180.5532 53.3332 4162.2842
332.9623 -2.9173 233.9561 4182.0537 53.5663 4163.8096
331.6860 -2.9270 234.7449 4183.5542 53.7970 4165.3442
330.4096 -2.9370 235.5340 4185.0547 54.0253 4166.8931
329.1332 -2.9475 236.3230 4186.5552 53.7218 4168.4541
327.8567 -2.9584 237.1120 4188.0562 53.0524 4170.0205
326.5800 -2.9699 237.9007 4189.5566 52.3768 4171.5903
325.3030 -2.9816 238.6890 4191.0571 51.6945 4173.1592
324.0262 -2.9935 239.4771 4192.5576 51.0054 4174.7266
322.7500 -3.0055 240.2662 4194.0581 50.3093 4176.2910
321.4754 -3.0177 241.0582 4195.5586 49.6058 4177.8550
320.2046 -3.0307 241.8559 4197.0591 48.8946 4179.4170
318.9397 -3.0451 242.6626 4198.5601 48.1756 4180.9785
317.6823 -3.0612 243.4813 4200.0605 47.4482 4182.5400
316.4340 -3.0789 244.3139 4201.5610 46.7122 4184.1021
315.1962 -3.0982 245.1620 4203.0615 45.9672 4185.6650
313.9699 -3.1187 246.0267 4204.5620 45.2131 4187.2290
312.7565 -3.1402 246.9092 4206.0625 44.4562 4188.7949
311.5565 -3.1627 247.8101 4207.5630 44.8003 4190.3652
310.3699 -3.1859 248.7285 4209.0640 45.1394 4191.9429
309.1961 -3.2095 249.6631 4210.5645 45.4734 4193.5283
308.0344 -3.2334 250.6129 4212.0649 45.8027 4195.1245
306.8854 -3.2571 251.5778 4213.5654 46.1272 4196.7261
305.7495 -3.2802 252.5577 4215.0659 46.4473 4198.3286
304.6266 -3.3028 253.5526 4216.5664 46.7629 4199.9302
303.5165 -3.3246 254.5620 4218.0669 47.0742 4201.5303
302.4188 -3.3459 255.5852 4219.5679 47.3813 4203.1279
301.3326 -3.3666 256.6203 4221.0684 47.6843 4204.7231
300.2568 -3.3868 257.6660 4222.5688 47.9833 4206.3179
299.1906 -3.4067 258.7216 4224.0693 48.2785 4207.9121
298.1337 -3.4265 259.7864 4225.5698 48.5699 4209.5068
297.0863 -3.4462 260.8608 4227.0703 48.8576 4211.1030
296.0486 -3.4659 261.9445 4228.5708 48.2274 4212.7007
295.0212 -3.4856 263.0378 4230.0718 47.5007 4214.3018
294.0051 -3.5055 264.1415 4231.5723 46.7653 4215.9058
293.0017 -3.5257 265.2572 4233.0728 46.0210 4217.5132
292.0129 -3.5459 266.3857 4234.5732 45.2673 4219.1191
291.0405 -3.5662 267.5283 4236.0737 44.5105 4220.7207
290.0855 -3.5866 268.6855 4237.5742 44.2322 4222.3081
289.1483 -3.6071 269.8572 4239.0747 44.5797 4223.8784
288.2288 -3.6273 271.0429 4240.5757 44.9220 4225.4355
287.3262 -3.6474 272.2414 4242.0762 45.2593 4226.9849
286.4386 -3.6672 273.4510 4243.5767 45.5916 4228.5317
285.5624 -3.6868 274.6691 4245.0771 45.9192 4230.0781
284.6937 -3.7062 275.8925 4246.5776 46.2421 4231.6245
283.8297 -3.7254 277.1191 4248.0781 46.5605 4233.1714
282.9701 -3.7445 278.3488 4249.5786 45.9677 4234.7188
282.1176 -3.7635 279.5837 4251.0796 45.2136 4236.2676
281.2771 -3.7825 280.8268 4252.5801 44.4567 4237.8174
280.4532 -3.8014 282.0809 4254.0806 43.6969 4239.3696
279.6489 -3.8203 283.3474 4255.5811 42.9646 4240.9248
278.8651 -3.8390 284.6266 4257.0815 43.3319 4242.4805
278.1002 -3.8577 285.9174 4258.5820 43.6933 4244.0376
277.3516 -3.8762 287.2176 4260.0825 44.0490 4245.5903
276.6155 -3.8945 288.5249 4261.5835 44.3993 4247.1362
275.8882 -3.9125 289.8372 4263.0840 44.7443 4248.6675
275.1662 -3.9299 291.1525 4264.5845 45.0842 4250.1841
274.4472 -3.9468 292.4696 4266.0850 45.4190 4251.6914
273.7304 -3.9628 293.7878 4267.5854 45.7491 4253.1924
273.0158 -3.9780 295.1072 4269.0859 46.0744 4254.6914
272.3045 -3.9925 296.4284 4270.5864 46.3952 4256.1904
271.5976 -4.0064 297.7522 4272.0874 46.7115 4257.6899
270.8961 -4.0199 299.0787 4273.5879 47.0235 4259.1899
270.2003 -4.0329 300.4082 4275.0884 47.3312 4260.6904
269.5103 -4.0456 301.7406 4276.5889 47.6349 4262.1909
268.8256 -4.0579 303.0756 4278.0894 47.9346 4263.6914
268.1457 -4.0698 304.4131 4279.5898 48.2304 4265.1919
267.4699 -4.0812 305.7529 4281.0903 48.5224 4266.6924
266.7979 -4.0921 307.0945 4282.5913 48.8107 4268.1934
266.1291 -4.1026 308.4379 4284.0918 49.0954 4269.6938
265.4626 -4.1125 309.7825 4285.5923 49.3766 4271.1943
264.7974 -4.1219 311.1276 4287.0928 49.6544 4272.6948
264.1327 -4.1308 312.4726 4288.5933 49.9287 4274.1948
263.4679 -4.1391 313.8177 4290.0938 50.1998 4275.6948
262.8029 -4.1468 315.1627 4291.5942 50.4677 4277.1953
262.1374 -4.1539 316.5074 4293.0952 50.7324 4278.6953
261.4712 -4.1604 317.8518 4294.5957 50.9941 4280.1958
260.8038 -4.1663 319.1960 4296.0962 51.2528 4281.6963
260.1349 -4.1716 320.5393 4297.5967 51.5085 4283.1968
259.4648 -4.1761 321.8820 4299.0972 51.7614 4284.6973
258.7940 -4.1799 323.2243 4300.5977 52.0114 4286.1978
258.1230 -4.1827 324.5666 4302.0981 52.2587 4287.6982
257.4521 -4.1845 325.9088 4303.5986 52.5033 4289.1987
256.7814 -4.1851 327.2512 4305.0996 52.7452 4290.6997
256.1107 -4.1849 328.5936 4306.6001 52.9845 4292.2002
255.4398 -4.1843 329.9359 4308.1006 53.2213 4293.7007
254.7681 -4.1837 331.2777 4309.6011 53.4556 4295.2012
254.0950 -4.1834 332.6188 4311.1016 53.6875 4296.7017
253.4202 -4.1835 333.9591 4312.6021 53.9169 4298.2021
252.7439 -4.1837 335.2986 4314.1025 54.1440 4299.7026
252.0665 -4.1837 336.6376 4315.6035 54.3688 4301.2036
251.3887 -4.1831 337.9763 4317.1040 54.5913 4302.7041
250.7107 -4.1818 339.3148 4318.6045 54.8116 4304.2046
250.0326 -4.1800 340.6533 4320.1050 55.0297 4305.7056
249.3545 -4.1782 341.9919 4321.6055 55.2456 4307.2070
248.6762 -4.1771 343.3304 4323.1060 55.4594 4308.7090
247.9979 -4.1771 344.6686 4324.6064 55.6712 4310.2109
247.3193 -4.1784 346.0070 4326.1074 55.8809 4311.7134
246.6405 -4.1808 347.3451 4327.6079 56.0886 4313.2158
245.9616 -4.1838 348.6832 4329.1084 56.2944 4314.7183
245.2825 -4.1869 350.0211 4330.6089 56.4982 4316.2207
244.6033 -4.1897 351.3591 4332.1094 56.7001 4317.7227
243.9238 -4.1921 352.6970 4333.6099 56.9001 4319.2251
243.2443 -4.1940 354.0349 4335.1104 57.0982 4320.7275
242.5646 -4.1955 355.3726 4336.6113 57.2946 4322.2300
241.8847 -4.1969 356.7103 4338.1118 57.4892 4323.7324
241.2048 -4.1983 358.0480 4339.6123 57.6820 4325.2349
240.5247 -4.2000 359.3856 4341.1128 57.8731 4326.7373
239.8446 -4.2019 360.7231 4342.6133 58.0625 4328.2397
239.1643 -4.2042 362.0606 4344.1138 58.2502 4329.7422
238.4838 -4.2068 363.3980 4345.6143 58.4362 4331.2446
237.8032 -4.2097 364.7354 4347.1152 58.6207 4332.7466
237.1224 -4.2129 366.0727 4348.6157 58.8035 4334.2490
236.4415 -4.2165 367.4099 4350.1162 58.9848 4335.7515
235.7603 -4.2203 368.7470 4351.6167 59.1644 4337.2539
235.0791 -4.2243 370.0840 4353.1172 59.3426 4338.7563
234.3976 -4.2286 371.4210 4354.6177 59.5193 4340.2588
233.7161 -4.2329 372.7578 4356.1182 59.6944 4341.7612
233.0343 -4.2371 374.0947 4357.6191 59.8681 4343.2637
232.3525 -4.2410 375.4315 4359.1196 60.0404 4344.7661
231.6706 -4.2445 376.7682 4360.6201 60.2112 4346.2686
230.9885 -4.2476 378.1049 4362.1206 60.3806 4347.7705
230.3063 -4.2503 379.4415 4363.6211 60.5486 4349.2729
229.6240 -4.2527 380.7781 4365.1216 60.7153 4350.7754
228.9416 -4.2553 382.1147 4366.6221 60.8806 4352.2778
228.2591 -4.2582 383.4510 4368.1230 61.0446 4353.7803
227.5765 -4.2618 384.7874 4369.6235 61.2072 4355.2827
226.8939 -4.2662 386.1237 4371.1240 61.3686 4356.7852
226.2113 -4.2718 387.4600 4372.6245 61.5287 4358.2876
225.5287 -4.2782 388.7963 4374.1250 61.6875 4359.7900
224.8461 -4.2854 390.1326 4375.6255 61.8451 4361.2925
224.1635 -4.2930 391.4690 4377.1260 62.0014 4362.7944
223.4809 -4.3004 392.8054 4378.6270 62.1566 4364.2969
222.7983 -4.3074 394.1418 4380.1274 62.3105 4365.7993
222.1158 -4.3138 395.4782 4381.6279 62.4632 4367.3018
221.4332 -4.3193 396.8146 4383.1284 62.6148 4368.8042
220.7507 -4.3241 398.1510 4384.6289 62.7652 4370.3066
220.0682 -4.3285 399.4874 4386.1294 62.9145 4371.8091
219.3856 -4.3328 400.8238 4387.6299 63.0627 4373.3115
218.7030 -4.3373 402.1602 4389.1309 63.2097 4374.8140
218.0203 -4.3424 403.4966 4390.6313 63.3557 4376.3164
217.3377 -4.3485 404.8331 4392.1318 63.5006 4377.8184
216.6551 -4.3554 406.1695 4393.6323 63.6443 4379.3208
215.9725 -4.3631 407.5061 4395.1328 63.7871 4380.8232
215.2900 -4.3714 408.8425 4396.6333 63.9288 4382.3257
214.6078 -4.3801 410.1788 4398.1338 64.0694 4383.8276
213.9256 -4.3888 411.5154 4399.6348 64.2090 4385.3301
213.2434 -4.3975 412.8522 4401.1353 64.3476 4386.8325
212.5614 -4.4061 414.1888 4402.6357 64.4852 4388.3350
211.8795 -4.4145 415.5252 4404.1362 64.6219 4389.8369
211.1976 -4.4230 416.8620 4405.6367 64.7575 4391.3394
210.5157 -4.4316 418.1987 4407.1372 64.8922 4392.8413
209.8340 -4.4404 419.5352 4408.6377 65.0259 4394.3433
209.1522 -4.4494 420.8718 4410.1387 65.1587 4395.8452
208.4705 -4.4585 422.2085 4411.6392 65.2906 4397.3472
207.7888 -4.4676 423.5454 4413.1396 65.4215 4398.8496
207.1074 -4.4765 424.8824 4414.6401 65.5515 4400.3516
206.4263 -4.4851 426.2194 4416.1406 65.6806 4401.8530
205.7455 -4.4932 427.5565 4417.6411 65.8088 4403.3545
205.0649 -4.5010 428.8938 4419.1416 65.9361 4404.8564
204.3846 -4.5085 430.2313 4420.6426 66.0626 4406.3579
203.7047 -4.5159 431.5690 4422.1431 66.1882 4407.8594
203.0250 -4.5232 432.9067 4423.6436 66.3129 4409.3613
202.3457 -4.5307 434.2447 4425.1440 66.4368 4410.8628
201.6666 -4.5381 435.5828 4426.6445 66.5598 4412.3647
200.9877 -4.5456 436.9210 4428.1450 66.6821 4413.8662
200.3092 -4.5532 438.2594 4429.6455 66.8035 4415.3677
199.6309 -4.5609 439.5979 4431.1465 66.9240 4416.8696
198.9530 -4.5688 440.9365 4432.6470 67.0438 4418.3711
198.2755 -4.5769 442.2754 4434.1475 67.1628 4419.8730
197.5985 -4.5853 443.6145 4435.6479 67.2810 4421.3745
196.9221 -4.5940 444.9539 4437.1484 67.3984 4422.8760
196.2462 -4.6029 446.2936 4438.6489 67.5151 4424.3779
195.5711 -4.6121 447.6336 4440.1494 67.6310 4425.8794
194.8966 -4.6214 448.9740 4441.6504 67.7461 4427.3813
194.2230 -4.6308 450.3148 4443.1509 67.8605 4428.8828
193.5502 -4.6401 451.6561 4444.6514 67.9741 4430.3843
192.8785 -4.6490 452.9978 4446.1519 68.0870 4431.8862
192.2077 -4.6573 454.3401 4447.6523 68.1992 4433.3877
191.5381 -4.6650 455.6829 4449.1528 68.3106 4434.8896
190.8697 -4.6722 457.0263 4450.6533 68.4213 4436.3911
190.2028 -4.6792 458.3705 4452.1543 68.5314 4437.8926
189.5376 -4.6863 459.7154 4453.6548 68.6407 4439.3945
188.8741 -4.6937 461.0612 4455.1553 68.7493 4440.8960
188.2123 -4.7015 462.4080 4456.6558 68.8573 4442.3979
187.5523 -4.7096 463.7554 4458.1562 68.9646 4443.8994
186.8937 -4.7178 465.1036 4459.6567 69.0712 4445.4009
186.2362 -4.7259 466.4523 4461.1572 69.1771 4446.9028
185.5792 -4.7340 467.8014 4462.6582 69.2824 4448.4043
184.9225 -4.7419 469.1505 4464.1587 69.3870 4449.9062
184.2658 -4.7498 470.4997 4465.6592 69.4910 4451.4077
183.6091 -4.7577 471.8488 4467.1597 69.5943 4452.9092
182.9523 -4.7654 473.1979 4468.6602 69.6970 4454.4111
182.2956 -4.7731 474.5470 4470.1606 69.7990 4455.9126
181.6389 -4.7805 475.8961 4471.6611 69.9004 4457.4141
180.9822 -4.7877 477.2451 4473.1621 70.0013 4458.9160
180.3255 -4.7945 478.5943 4474.6626 70.1014 4460.4175
179.6686 -4.8011 479.9436 4476.1631 70.2010 4461.9199
179.0118 -4.8077 481.2929 4477.6636 70.3000 4463.4219
178.3550 -4.8143 482.6422 4479.1641 70.3984 4464.9238
177.6982 -4.8213 483.9914 4480.6646 70.4962 4466.4258
177.0413 -4.8289 485.3406 4482.1650 70.5934 4467.9277
176.3843 -4.8372 486.6898 4483.6660 70.6900 4469.4297
175.7267 -4.8463 488.0387 4485.1665 70.7861 4470.9321
175.0677 -4.8561 489.3868 4486.6670 70.8815 4472.4341
174.4061 -4.8665 490.7337 4488.1675 70.9764 4473.9360
173.7404 -4.8771 492.0786 4489.6680 71.0708 4475.4380
173.0695 -4.8878 493.4207 4491.1685 71.1646 4476.9399
172.3921 -4.8984 494.7595 4492.6689 71.2578 4478.4414
171.7076 -4.9089 496.0948 4494.1699 71.3505 4479.9429
171.0172 -4.9193 497.4269 4495.6704 71.4426 4481.4443
170.3233 -4.9298 498.7572 4497.1709 71.5342 4482.9458
169.6281 -4.9407 500.0869 4498.6714 71.6253 4484.4468
168.9327 -4.9520 501.4165 4500.1719 71.7158 4485.9482
168.2377 -4.9635 502.7463 4501.6724 71.8058 4487.4497
167.5431 -4.9753 504.0764 4503.1729 71.8953 4488.9507
166.8487 -4.9870 505.4065 4504.6733 71.9843 4490.4521
166.1545 -4.9984 506.7367 4506.1743 72.0727 4491.9536
165.4606 -5.0094 508.0671 4507.6748 72.1607 4493.4546
164.7669 -5.0202 509.3976 4509.1753 72.2481 4494.9561
164.0740 -5.0312 510.7285 4510.6758 72.3350 4496.4575
163.3822 -5.0426 512.0601 4512.1763 72.4215 4497.9585
162.6925 -5.0548 513.3925 4513.6768 72.5074 4499.4600
162.0050 -5.0679 514.7263 4515.1772 72.5929 4500.9614
161.3202 -5.0816 516.0616 4516.6782 72.6779 4502.4629
160.6378 -5.0953 517.3980 4518.1787 72.7624 4503.9648
159.9570 -5.1083 518.7352 4519.6792 72.8464 4505.4663
159.2769 -5.1199 520.0728 4521.1797 72.9300 4506.9683
158.5972 -5.1295 521.4105 4522.6802 73.0130 4508.4697
157.9175 -5.1370 522.7484 4524.1807 73.0957 4509.9712
157.2378 -5.1427 524.0860 4525.6812 73.1778 4511.4731
156.5580 -5.1474 525.4237 4527.1821 73.2595 4512.9746
155.8781 -5.1519 526.7615 4528.6826 73.3408 4514.4761
155.1983 -5.1572 528.0991 4530.1831 73.4215 4515.9780
154.5184 -5.1639 529.4369 4531.6836 73.5019 4517.4795
153.8385 -5.1721 530.7746 4533.1841 73.5818 4518.9814
153.1587 -5.1816 532.1124 4534.6846 73.6612 4520.4829
152.4789 -5.1921 533.4501 4536.1851 73.7403 4521.9844
151.7993 -5.2034 534.7880 4537.6860 73.8189 4523.4863
151.1197 -5.2150 536.1259 4539.1865 73.8970 4524.9878
150.4402 -5.2268 537.4639 4540.6870 73.9747 4526.4897
149.7608 -5.2386 538.8019 4542.1875 74.0520 4527.9912
149.0814 -5.2505 540.1400 4543.6880 74.1289 4529.4927
148.4021 -5.2623 541.4780 4545.1885 74.2054 4530.9946
147.7228 -5.2742 542.8161 4546.6890 74.2814 4532.4961
147.0435 -5.2862 544.1542 4548.1899 74.3571 4533.9980
146.3643 -5.2982 545.4923 4549.6904 74.4323 4535.4995
145.6850 -5.3102 546.8304 4551.1909 74.5071 4537.0010
145.0057 -5.3223 548.1686 4552.6914 74.5816 4538.5029
144.3264 -5.3344 549.5067 4554.1919 74.6556 4540.0044
143.6471 -5.3464 550.8447 4555.6924 74.7292 4541.5063
142.9677 -5.3584 552.1828 4557.1929 74.8024 4543.0078
142.2883 -5.3701 553.5209 4558.6938 74.8753 4544.5093
141.6088 -5.3816 554.8589 4560.1943 74.9477 4546.0112
140.9294 -5.3926 556.1970 4561.6948 75.0198 4547.5127
140.2501 -5.4031 557.5350 4563.1953 75.0915 4549.0146
139.5709 -5.4132 558.8732 4564.6958 75.1628 4550.5161
138.8920 -5.4230 560.2115 4566.1963 75.2337 4552.0176
138.2134 -5.4326 561.5500 4567.6968 75.3043 4553.5195
137.5352 -5.4421 562.8887 4569.1978 75.3744 4555.0210
136.8575 -5.4518 564.2275 4570.6982 75.4443 4556.5229
136.1802 -5.4618 565.5666 4572.1987 75.5137 4558.0244
135.5034 -5.4721 566.9059 4573.6992 75.5828 4559.5259
134.8269 -5.4825 568.2453 4575.1997 75.6515 4561.0278
134.1508 -5.4930 569.5849 4576.7002 75.7199 4562.5293
133.4750 -5.5032 570.9247 4578.2007 75.7879 4564.0308
132.7995 -5.5130 572.2647 4579.7017 75.8555 4565.5327
132.1242 -5.5225 573.6049 4581.2021 75.9228 4567.0342
131.4493 -5.5317 574.9451 4582.7026 75.9898 4568.5361
130.7746 -5.5408 576.2855 4584.2031 76.0564 4570.0376
130.1003 -5.5496 577.6259 4585.7036 76.1227 4571.5391
129.4264 -5.5584 578.9666 4587.2041 76.1886 4573.0410
128.7529 -5.5671 580.3074 4588.7046 76.2542 4574.5425
128.0801 -5.5756 581.6486 4590.2056 76.3194 4576.0444
127.4083 -5.5838 582.9902 4591.7061 76.3843 4577.5459
126.7376 -5.5918 584.3327 4593.2065 76.4489 4579.0474
126.0686 -5.5998 585.6759 4594.7070 76.5131 4580.5493
125.4013 -5.6077 587.0197 4596.2075 76.5771 4582.0498
124.7356 -5.6159 588.3646 4597.7080 76.6407 4583.5503
124.0712 -5.6245 589.7101 4599.2085 76.7039 4585.0508
123.4079 -5.6335 591.0563 4600.7095 76.7669 4586.5508
122.7454 -5.6427 592.4026 4602.2100 76.8295 4588.0508
122.0831 -5.6519 593.7492 4603.7104 76.8918 4589.5503
121.4210 -5.6608 595.0958 4605.2109 76.9538 4591.0503
120.7589 -5.6695 596.4424 4606.7114 77.0155 4592.5503
120.0967 -5.6779 597.7891 4608.2119 77.0769 4594.0498
119.4345 -5.6865 599.1357 4609.7124 77.1380 4595.5498
118.7723 -5.6954 600.4822 4611.2134 77.1987 4597.0498
118.1101 -5.7047 601.8287 4612.7139 77.2592 4598.5493
117.4480 -5.7139 603.1752 4614.2144 77.3193 4600.0493
116.7859 -5.7227 604.5218 4615.7148 77.3792 4601.5488
116.1239 -5.7309 605.8684 4617.2153 77.4387 4603.0488
115.4619 -5.7383 607.2151 4618.7158 77.4980 4604.5488
114.8000 -5.7451 608.5618 4620.2163 77.5570 4606.0483
114.1380 -5.7518 609.9084 4621.7173 77.6156 4607.5483
113.4760 -5.7586 611.2550 4623.2178 77.6740 4609.0483
112.8140 -5.7658 612.6016 4624.7183 77.7321 4610.5479
112.1519 -5.7734 613.9482 4626.2188 77.7899 4612.0479
111.4898 -5.7813 615.2949 4627.7192 77.8474 4613.5479
110.8278 -5.7893 616.6415 4629.2197 77.9047 4615.0474
110.1657 -5.7970 617.9881 4630.7202 77.9616 4616.5474
109.5037 -5.8043 619.3348 4632.2212 78.0183 4618.0469
108.8417 -5.8110 620.6814 4633.7217 78.0747 4619.5469
108.1797 -5.8171 622.0281 4635.2222 78.1308 4621.0469
107.5178 -5.8230 623.3748 4636.7227 78.1866 4622.5464
106.8559 -5.8290 624.7214 4638.2231 78.2422 4624.0464
106.1940 -5.8352 626.0681 4639.7236 78.2975 4625.5464
105.5320 -5.8420 627.4147 4641.2241 78.3525 4627.0459
104.8700 -5.8493 628.7614 4642.7251 78.4073 4628.5459
104.2080 -5.8570 630.1080 4644.2256 78.4618 4630.0459
103.5461 -5.8650 631.4547 4645.7261 78.5160 4631.5454
102.8842 -5.8729 632.8014 4647.2266 78.5700 4633.0454
102.2223 -5.8804 634.1481 4648.7271 78.6237 4634.5454
101.5605 -5.8875 635.4949 4650.2275 78.6772 4636.0449
100.8987 -5.8942 636.8417 4651.7280 78.7303 4637.5449
100.2369 -5.9006 638.1885 4653.2290 78.7833 4639.0444
99.5751 -5.9072 639.5354 4654.7295 78.8360 4640.5444
98.9133 -5.9139 640.8822 4656.2300 78.8884 4642.0444
98.2514 -5.9209 642.2289 4657.7305 78.9406 4643.5439
97.5891 -5.9282 643.5754 4659.2310 78.9925 4645.0439
96.9264 -5.9357 644.9216 4660.7314 79.0442 4646.5439
96.2630 -5.9431 646.2676 4662.2319 79.0956 4648.0435
95.5990 -5.9503 647.6132 4663.7329 79.1468 4649.5435
94.9343 -5.9573 648.9585 4665.2334 79.1977 4651.0435
94.2688 -5.9639 650.3035 4666.7339 79.2484 4652.5430
93.6027 -5.9701 651.6481 4668.2344 79.2989 4654.0430
92.9360 -5.9761 652.9925 4669.7349 79.3491 4655.5430
92.2687 -5.9820 654.3365 4671.2354 79.3991 4657.0425
91.6011 -5.9880 655.6804 4672.7358 79.4488 4658.5425
90.9331 -5.9944 657.0242 4674.2368 79.4983 4660.0420
90.2649 -6.0014 658.3678 4675.7373 79.5476 4661.5420
89.5967 -6.0090 659.7113 4677.2378 79.5966 4663.0420
88.9285 -6.0171 661.0549 4678.7383 79.6454 4664.5415
88.2603 -6.0256 662.3986 4680.2388 79.6940 4666.0415
87.5921 -6.0341 663.7422 4681.7393 79.7423 4667.5415
86.9240 -6.0426 665.0859 4683.2397 79.7905 4669.0410
86.2559 -6.0508 666.4296 4684.7407 79.8384 4670.5410
85.5879 -6.0588 667.7733 4686.2412 79.8860 4672.0410
84.9198 -6.0668 669.1170 4687.7417 79.9335 4673.5405
84.2519 -6.0750 670.4608 4689.2422 79.9807 4675.0405
83.5839 -6.0837 671.8044 4690.7427 80.0277 4676.5405
82.9160 -6.0932 673.1481 4692.2432 80.0745 4678.0400
82.2479 -6.1034 674.4918 4693.7437 80.1211 4679.5400
81.5799 -6.1144 675.8355 4695.2441 80.1674 4681.0396
80.9118 -6.1261 677.1792 4696.7451 80.2136 4682.5396
80.2437 -6.1382 678.5229 4698.2456 80.2595 4684.0396
79.5756 -6.1505 679.8666 4699.7461 80.3052 4685.5391
78.9075 -6.1630 681.2103 4701.2466 80.3507 4687.0391
78.2395 -6.1757 682.5539 4702.7471 80.3960 4688.5391
77.5715 -6.1885 683.8976 4704.2476 80.4411 4690.0386
76.9036 -6.2016 685.2413 4705.7480 80.4859 4691.5386
76.2357 -6.2152 686.5851 4707.2490 80.5306 4693.0386
75.5677 -6.2294 687.9288 4708.7495 80.5751 4694.5381
74.8997 -6.2443 689.2725 4710.2500 80.6193 4696.0381
74.2316 -6.2596 690.6162 4711.7505 80.6634 4697.5381
73.5635 -6.2754 691.9599 4713.2510 80.7072 4699.0376
72.8955 -6.2913 693.3036 4714.7515 80.7509 4700.5376
72.2278 -6.3073 694.6474 4716.2520 80.7943 4702.0371
71.5609 -6.3232 695.9916 4717.7529 80.8376 4703.5371
70.8955 -6.3389 697.3366 4719.2534 80.8806 4705.0371
70.2323 -6.3544 698.6826 4720.7539 80.9235 4706.5366
69.5713 -6.3695 700.0297 4722.2544 80.9661 4708.0366
68.9120 -6.3844 701.3777 4723.7549 81.0086 4709.5366
68.2535 -6.3992 702.7260 4725.2554 81.0508 4711.0361
67.5954 -6.4144 704.0745 4726.7559 81.0929 4712.5361
66.9371 -6.4301 705.4230 4728.2568 81.1348 4714.0361
66.2788 -6.4468 706.7714 4729.7573 81.1765 4715.5356
65.6203 -6.4643 708.1197 4731.2578 81.2180 4717.0356
64.9617 -6.4826 709.4679 4732.7583 81.2593 4718.5356
64.3030 -6.5010 710.8161 4734.2588 81.3005 4720.0352
63.6444 -6.5191 712.1643 4735.7593 81.3414 4721.5352
62.9857 -6.5366 713.5126 4737.2598 81.3822 4723.0347
62.3271 -6.5532 714.8609 4738.7607 81.4228 4724.5347
61.6685 -6.5692 716.2092 4740.2612 81.4632 4726.0347
61.0101 -6.5849 717.5575 4741.7617 81.5034 4727.5342
60.3517 -6.6004 718.9059 4743.2622 81.5434 4729.0342
59.6934 -6.6161 720.2543 4744.7627 81.5833 4730.5342
59.0352 -6.6321 721.6026 4746.2632 81.6229 4732.0337
58.3769 -6.6483 722.9510 4747.7637 81.6624 4733.5337
57.7186 -6.6647 724.2995 4749.2646 81.7017 4735.0337
57.0603 -6.6811 725.6480 4750.7651 81.7409 4736.5332
56.4020 -6.6974 726.9965 4752.2656 81.7799 4738.0332
55.7437 -6.7134 728.3450 4753.7661 81.8187 4739.5327
55.0855 -6.7292 729.6934 4755.2666 81.8573 4741.0327
54.4273 -6.7447 731.0419 4756.7671 81.8957 4742.5327
53.7691 -6.7602 732.3904 4758.2676 81.9340 4744.0322
53.1110 -6.7759 733.7389 4759.7686 81.9721 4745.5322
52.4530 -6.7920 735.0875 4761.2690 82.0100 4747.0322
51.7949 -6.8088 736.4362 4762.7695 82.0478 4748.5317
51.1369 -6.8262 737.7848 4764.2700 82.0854 4750.0317
50.4789 -6.8441 739.1334 4765.7705 82.1229 4751.5317
49.8209 -6.8624 740.4820 4767.2710 82.1601 4753.0312
49.1628 -6.8810 741.8306 4768.7715 82.1972 4754.5312
48.5047 -6.8998 743.1791 4770.2725 82.2342 4756.0312
47.8466 -6.9186 744.5277 4771.7729 82.2710 4757.5308
47.1886 -6.9375 745.8761 4773.2734 82.2120 4759.0303
46.5305 -6.9563 747.2243 4774.7739 81.7159 4760.5298
45.8724 -6.9749 748.5725 4776.2744 81.2179 4762.0293
45.2143 -6.9930 749.9207 4777.7749 80.7179 4763.5288
44.5559 -7.0105 751.2691 4779.2754 80.2159 4765.0283
43.8975 -7.0272 752.6175 4780.7764 79.7118 4766.5283
43.2390 -7.0434 753.9658 4782.2769 79.2055 4768.0283
42.5806 -7.0590 755.3139 4783.7773 78.6972 4769.5278
41.9223 -7.0745 756.6622 4785.2778 78.1866 4771.0278
41.2639 -7.0900 758.0105 4786.7783 77.6738 4772.5278
40.6057 -7.1056 759.3590 4788.2788 77.1588 4774.0269
39.9476 -7.1213 760.7077 4789.7793 76.6414 4775.5254
39.2895 -7.1368 762.0563 4791.2803 76.1218 4777.0220
38.6313 -7.1519 763.4047 4792.7808 75.5997 4778.5161
37.9723 -7.1663 764.7525 4794.2812 75.0752 4780.0088
37.3114 -7.1797 766.0996 4795.7817 74.5482 4781.5005
36.6474 -7.1920 767.4454 4797.2822 74.0188 4782.9922
35.9797 -7.2032 768.7892 4798.7827 73.4867 4784.4834
35.3084 -7.2136 770.1310 4800.2832 72.9520 4785.9746
34.6341 -7.2234 771.4716 4801.7842 72.4147 4787.4658
33.9582 -7.2326 772.8115 4803.2847 71.8746 4788.9575
33.2816 -7.2415 774.1509 4804.7852 71.3317 4790.4487
32.6049 -7.2502 775.4903 4806.2856 70.7860 4791.9404
31.9284 -7.2588 776.8298 4807.7861 70.2374 4793.4316
31.2522 -7.2673 778.1693 4809.2866 69.6859 4794.9229
30.5763 -7.2758 779.5087 4810.7871 69.1313 4796.4141
29.9006 -7.2841 780.8484 4812.2881 68.5736 4797.9053
29.2251 -7.2922 782.1882 4813.7886 68.0128 4799.3965
28.5499 -7.3000 783.5281 4815.2891 67.4488 4800.8872
27.8748 -7.3072 784.8683 4816.7896 66.8814 4802.3784
27.1995 -7.3138 786.2084 4818.2900 66.3107 4803.8696
26.5234 -7.3197 787.5481 4819.7905 65.7365 4805.3608
25.8452 -7.3251 788.8867 4821.2910 65.1588 4806.8516
25.1636 -7.3298 790.2235 4822.7920 64.5775 4808.3428
24.4767 -7.3340 791.5576 4824.2925 63.9924 4809.8340
23.7825 -7.3378 792.8880 4825.7930 63.4036 4811.3252
23.0791 -7.3412 794.2136 4827.2935 62.8108 4812.8169
22.3650 -7.3443 795.5334 4828.7939 62.2141 4814.3081
21.6396 -7.3471 796.8469 4830.2944 62.3676 4815.7998
20.9036 -7.3495 798.1544 4831.7949 62.5199 4817.2915
20.1580 -7.3514 799.4567 4833.2959 62.6710 4818.7837
19.4046 -7.3526 800.7545 4834.7964 62.8210 4820.2764
18.6452 -7.3530 802.0490 4836.2969 62.9699 4821.7700
17.8817 -7.3523 803.3408 4837.7974 63.1176 4823.2642
17.1159 -7.3505 804.6312 4839.2979 63.2643 4824.7588
16.3493 -7.3476 805.9210 4840.7983 63.4098 4826.2534
15.5824 -7.3440 807.2109 4842.2988 63.5543 4827.7485
14.8158 -7.3397 808.5010 4843.7998 63.6977 4829.2437
14.0497 -7.3350 809.7912 4845.3003 63.8400 4830.7388
13.2841 -7.3300 811.0816 4846.8008 63.9813 4832.2339
12.5195 -7.3247 812.3726 4848.3013 64.1216 4833.7290
11.7561 -7.3190 813.6645 4849.8018 64.2608 4835.2241
10.9943 -7.3130 814.9575 4851.3022 64.3991 4836.7197
10.2346 -7.3066 816.2514 4852.8027 64.5363 4838.2153
9.4764 -7.2999 817.5463 4854.3037 64.6726 4839.7109
8.7194 -7.2930 818.8417 4855.8042 64.8078 4841.2061
7.9630 -7.2858 820.1376 4857.3047 64.9422 4842.7017
7.2070 -7.2787 821.4340 4858.8052 65.0755 4844.1978
6.4514 -7.2715 822.7303 4860.3057 65.2080 4845.6934
5.6961 -7.2642 824.0269 4861.8062 65.3395 4847.1890
4.9412 -7.2569 825.3236 4863.3066 65.4701 4848.6851
4.1868 -7.2493 826.6205 4864.8076 65.5997 4850.1807
3.4327 -7.2412 827.9177 4866.3081 65.7285 4851.6768
2.6791 -7.2325 829.2151 4867.8086 65.8564 4853.1724
1.9259 -7.2233 830.5128 4869.3091 65.9834 4854.6685
1.1730 -7.2134 831.8110 4870.8096 66.1095 4856.1646
0.4205 -7.2030 833.1093 4872.3101 66.2348 4857.6606
-0.3315 -7.1924 834.4077 4873.8105 66.3592 4859.1567
-1.0832 -7.1816 835.7064 4875.3115 66.4828 4860.6533
-1.8346 -7.1708 837.0053 4876.8120 66.6055 4862.1494
-2.5855 -7.1599 838.3043 4878.3125 66.7274 4863.6450
-3.3361 -7.1489 839.6036 4879.8130 66.8485 4865.1406
-4.0862 -7.1374 840.9032 4881.3135 66.9688 4866.6357
-4.8359 -7.1252 842.2029 4882.8140 67.0883 4868.1304
-5.5853 -7.1119 843.5029 4884.3145 67.2070 4869.6250
-6.3342 -7.0975 844.8030 4885.8149 67.3249 4871.1187
-7.0828 -7.0821 846.1035 4887.3159 67.4420 4872.6128
-7.8311 -7.0656 847.4041 4888.8164 67.5584 4874.1069
-8.5788 -7.0483 848.7048 4890.3169 67.6740 4875.6006
-9.3262 -7.0304 850.0057 4891.8174 67.7888 4877.0942
-10.0732 -7.0121 851.3069 4893.3179 67.9029 4878.5879
-10.8198 -6.9935 852.6085 4894.8184 68.0163 4880.0815
-11.5660 -6.9746 853.9105 4896.3188 68.1289 4881.5752
-12.3117 -6.9555 855.2124 4897.8198 68.2408 4883.0684
