VERSION 0.7
FIELDS x y z arclength speed lapdistance
SIZE 4 4 4 4 4 4
TYPE F F F F F F
COUNT 1 1 1 1 1 1
WIDTH 882
HEIGHT 1
VIEWPOINT 0.000 0.000 0.000 1.000 0.000 0.000 0.000
POINTS 882
DATA ascii
239.8517 -1.2161 -706.8778 3095.4648 58.3024 3143.3853
240.9420 -1.2091 -705.8469 3096.9653 58.4880 3144.9395
242.0223 -1.2028 -704.8056 3098.4658 58.3698 3146.4915
243.0925 -1.1970 -703.7538 3099.9663 58.5547 3148.0439
244.1524 -1.1912 -702.6920 3101.4668 58.5773 3149.5952
245.2020 -1.1854 -701.6197 3102.9673 58.5225 3151.1350
246.2409 -1.1792 -700.5373 3104.4678 58.5159 3152.6514
247.2693 -1.1727 -699.4448 3105.9683 58.6996 3154.1621
248.2873 -1.1656 -698.3425 3107.4688 58.3685 3155.6646
249.2944 -1.1581 -697.2301 3108.9692 58.5535 3157.1616
250.2910 -1.1507 -696.1083 3110.4697 58.3788 3158.6509
251.2766 -1.1436 -694.9772 3111.9702 58.5638 3160.1350
252.2517 -1.1370 -693.8369 3113.4705 58.7471 3161.6130
253.2160 -1.1312 -692.6873 3114.9709 58.9288 3163.0864
254.1692 -1.1260 -691.5287 3116.4714 59.1089 3164.5552
255.1114 -1.1208 -690.3610 3117.9719 58.7159 3166.0210
256.0423 -1.1154 -689.1841 3119.4724 58.6378 3167.4819
256.9617 -1.1092 -687.9983 3120.9729 58.8139 3168.9412
257.8696 -1.1015 -686.8036 3122.4734 58.1901 3170.3970
258.7656 -1.0925 -685.6002 3123.9739 58.3767 3171.8521
259.6502 -1.0826 -684.3883 3125.4744 58.5616 3173.3066
260.5235 -1.0725 -683.1682 3126.9749 58.7450 3174.7622
261.3856 -1.0634 -681.9400 3128.4753 58.9267 3176.2200
262.2366 -1.0563 -680.7043 3129.9758 59.1069 3177.6790
263.0767 -1.0512 -679.4612 3131.4761 59.2855 3179.1387
263.9051 -1.0472 -678.2101 3132.9766 58.9067 3180.6003
264.7217 -1.0432 -676.9513 3134.4771 58.2816 3182.0635
265.5258 -1.0375 -675.6844 3135.9775 58.4673 3183.5283
266.3175 -1.0296 -674.4100 3137.4780 58.4754 3184.9944
267.0967 -1.0194 -673.1279 3138.9785 58.6594 3186.4612
267.8636 -1.0079 -671.8383 3140.4790 58.8419 3187.9302
268.6184 -0.9963 -670.5416 3141.9795 59.0228 3189.4004
269.3613 -0.9857 -669.2379 3143.4800 59.2022 3190.8708
270.0923 -0.9764 -667.9278 3144.9805 59.3800 3192.3423
270.8113 -0.9687 -666.6109 3146.4810 59.5563 3193.8162
271.5182 -0.9619 -665.2874 3147.9814 59.7312 3195.2900
272.2127 -0.9552 -663.9572 3149.4817 59.8366 3196.7649
272.8947 -0.9474 -662.6207 3150.9822 60.0091 3198.2407
273.5643 -0.9376 -661.2779 3152.4827 60.1801 3199.7175
274.2216 -0.9254 -659.9293 3153.9832 60.3498 3201.1948
274.8670 -0.9111 -658.5749 3155.4836 60.5181 3202.6733
275.5010 -0.8959 -657.2150 3156.9841 60.6850 3204.1516
276.1238 -0.8809 -655.8499 3158.4846 60.8505 3205.6323
276.7356 -0.8672 -654.4799 3159.9851 61.0147 3207.1116
277.3364 -0.8553 -653.1051 3161.4856 61.1776 3208.5925
277.9263 -0.8452 -651.7255 3162.9861 61.3392 3210.0735
278.5051 -0.8363 -650.3412 3164.4866 61.4995 3211.5552
279.0726 -0.8284 -648.9521 3165.9871 61.6585 3213.0376
279.6285 -0.8212 -647.5584 3167.4873 61.8163 3214.5198
280.1731 -0.8143 -646.1602 3168.9878 61.9729 3216.0029
280.7066 -0.8073 -644.7578 3170.4883 62.1282 3217.4868
281.2296 -0.7999 -643.3515 3171.9888 62.2824 3218.9702
281.7432 -0.7915 -641.9417 3173.4893 62.4353 3220.4551
282.2482 -0.7826 -640.5288 3174.9897 62.5871 3221.9395
282.7454 -0.7732 -639.1132 3176.4902 62.7378 3223.4238
283.2350 -0.7633 -637.6948 3177.9907 62.8872 3224.9089
283.7176 -0.7525 -636.2741 3179.4912 63.0356 3226.3940
284.1934 -0.7402 -634.8511 3180.9917 63.1828 3227.8799
284.6627 -0.7262 -633.4260 3182.4922 63.3290 3229.3635
285.1261 -0.7112 -631.9989 3183.9927 63.4740 3230.8477
285.5839 -0.6962 -630.5699 3185.4929 63.6180 3232.3313
286.0366 -0.6824 -629.1394 3186.9934 63.7609 3233.8152
286.4843 -0.6706 -627.7075 3188.4939 63.9028 3235.2986
286.9278 -0.6612 -626.2740 3189.9944 64.0436 3236.7817
287.3671 -0.6541 -624.8393 3191.4949 64.1834 3238.2649
287.8027 -0.6484 -623.4034 3192.9954 64.3222 3239.7483
288.2348 -0.6430 -621.9664 3194.4958 64.4600 3241.2317
288.6638 -0.6363 -620.5284 3195.9963 64.5968 3242.7148
289.0898 -0.6274 -619.0898 3197.4968 64.7326 3244.1980
289.5128 -0.6164 -617.6502 3198.9973 64.8675 3245.6814
289.9327 -0.6045 -616.2098 3200.4978 65.0014 3247.1643
290.3495 -0.5927 -614.7683 3201.9983 65.1343 3248.6472
290.7628 -0.5816 -613.3259 3203.4985 65.2663 3250.1301
291.1726 -0.5710 -611.8825 3204.9990 65.3974 3251.6133
291.5785 -0.5603 -610.4380 3206.4995 65.5276 3253.0967
291.9802 -0.5485 -608.9923 3208.0000 65.6568 3254.5796
292.3777 -0.5355 -607.5455 3209.5005 65.7852 3256.0625
292.7708 -0.5217 -606.0975 3211.0010 65.9127 3257.5461
293.1594 -0.5081 -604.6483 3212.5015 66.0393 3259.0300
293.5435 -0.4957 -603.1981 3214.0020 66.1650 3260.5129
293.9229 -0.4845 -601.7464 3215.5024 66.2899 3261.9966
294.2976 -0.4740 -600.2936 3217.0029 66.4139 3263.4810
294.6676 -0.4635 -598.8395 3218.5034 66.5371 3264.9648
295.0327 -0.4522 -597.3842 3220.0039 66.6595 3266.4492
295.3930 -0.4400 -595.9277 3221.5042 66.7810 3267.9331
295.7484 -0.4269 -594.4700 3223.0046 66.9018 3269.4182
296.0992 -0.4137 -593.0111 3224.5051 67.0217 3270.9033
296.4453 -0.4012 -591.5511 3226.0056 67.1408 3272.3884
296.7866 -0.3901 -590.0900 3227.5061 67.2592 3273.8738
297.1235 -0.3810 -588.6279 3229.0066 67.3767 3275.3591
297.4559 -0.3737 -587.1647 3230.5071 67.4935 3276.8494
297.7841 -0.3676 -585.7006 3232.0076 67.6095 3278.3403
298.1081 -0.3611 -584.2355 3233.5081 67.7248 3279.8320
298.4280 -0.3535 -582.7694 3235.0085 67.8393 3281.3232
298.7438 -0.3439 -581.3026 3236.5090 67.9530 3282.8145
299.0556 -0.3326 -579.8348 3238.0093 68.0661 3284.3049
299.3633 -0.3198 -578.3663 3239.5098 68.1784 3285.7964
299.6669 -0.3066 -576.8970 3241.0103 68.2899 3287.2869
299.9664 -0.2935 -575.4268 3242.5107 68.4008 3288.7778
300.2620 -0.2811 -573.9557 3244.0112 68.5110 3290.2690
300.5537 -0.2694 -572.4839 3245.5117 68.6204 3291.7595
300.8417 -0.2583 -571.0114 3247.0122 68.7292 3293.2507
301.1261 -0.2471 -569.5382 3248.5127 68.8372 3294.7415
301.4072 -0.2357 -568.0645 3250.0132 68.9446 3296.2329
301.6850 -0.2237 -566.5900 3251.5137 69.0514 3297.7239
301.9596 -0.2115 -565.1149 3253.0142 69.1574 3299.2153
302.2310 -0.1994 -563.6392 3254.5146 69.2628 3300.7068
302.4993 -0.1876 -562.1629 3256.0149 69.3675 3302.1975
302.7643 -0.1762 -560.6862 3257.5154 69.4716 3303.6890
303.0261 -0.1651 -559.2087 3259.0159 69.5750 3305.1812
303.2848 -0.1537 -557.7308 3260.5164 69.6778 3306.6724
303.5402 -0.1419 -556.2521 3262.0168 69.7800 3308.1638
303.7924 -0.1297 -554.7729 3263.5173 69.8815 3309.6555
304.0414 -0.1174 -553.2934 3265.0178 69.9825 3311.1475
304.2869 -0.1055 -551.8131 3266.5183 70.0828 3312.6389
304.5293 -0.0943 -550.3323 3268.0188 70.1825 3314.1313
304.7683 -0.0837 -548.8511 3269.5193 70.2815 3315.6240
305.0041 -0.0736 -547.3693 3271.0198 70.3800 3317.1155
305.2367 -0.0636 -545.8870 3272.5203 70.4779 3318.6067
305.4661 -0.0532 -544.4042 3274.0205 70.5752 3320.0979
305.6921 -0.0424 -542.9208 3275.5210 70.6720 3321.5894
305.9150 -0.0309 -541.4371 3277.0215 70.7681 3323.0803
306.1346 -0.0194 -539.9528 3278.5220 70.8637 3324.5725
306.3510 -0.0080 -538.4681 3280.0225 70.9587 3326.0640
306.5641 0.0028 -536.9828 3281.5229 71.0531 3327.5557
306.7740 0.0131 -535.4973 3283.0234 71.1470 3329.0466
306.9805 0.0230 -534.0112 3284.5239 71.2403 3330.5386
307.1836 0.0330 -532.5247 3286.0244 71.3331 3332.0300
307.3834 0.0438 -531.0376 3287.5249 71.4253 3333.5217
307.5798 0.0557 -529.5500 3289.0254 71.5170 3335.0139
307.7728 0.0687 -528.0620 3290.5259 71.6082 3336.5061
307.9623 0.0821 -526.5738 3292.0261 71.6988 3337.9978
308.1485 0.0951 -525.0850 3293.5266 71.7889 3339.4897
308.3314 0.1072 -523.5958 3295.0271 71.8785 3340.9819
308.5111 0.1183 -522.1063 3296.5276 71.9676 3342.4746
308.6877 0.1286 -520.6163 3298.0281 72.0561 3343.9675
308.8613 0.1388 -519.1259 3299.5286 72.1441 3345.4602
309.0321 0.1495 -517.6352 3301.0291 72.2317 3346.9536
309.2001 0.1607 -516.1442 3302.5295 72.3187 3348.4465
309.3651 0.1726 -514.6530 3304.0300 72.4052 3349.9397
309.5275 0.1847 -513.1614 3305.5305 72.4913 3351.4331
309.6870 0.1966 -511.6696 3307.0310 72.5768 3352.9270
309.8438 0.2082 -510.1775 3308.5315 72.6619 3354.4211
309.9980 0.2194 -508.6850 3310.0317 72.7465 3355.9158
310.1494 0.2307 -507.1923 3311.5322 72.8306 3357.4099
310.2981 0.2420 -505.6993 3313.0327 72.9142 3358.9050
310.4442 0.2539 -504.2060 3314.5332 72.9974 3360.3997
310.5875 0.2666 -502.7126 3316.0337 73.0801 3361.8948
310.7281 0.2799 -501.2188 3317.5342 73.1623 3363.3909
310.8663 0.2934 -499.7247 3319.0347 73.2441 3364.8867
311.0016 0.3068 -498.2304 3320.5352 73.3254 3366.3828
311.1345 0.3196 -496.7359 3322.0356 73.4063 3367.8792
311.2648 0.3317 -495.2412 3323.5361 73.4867 3369.3762
311.3928 0.3434 -493.7463 3325.0366 73.5667 3370.8733
311.5185 0.3548 -492.2512 3326.5371 73.6462 3372.3708
311.6421 0.3659 -490.7558 3328.0374 73.7253 3373.8689
311.7638 0.3770 -489.2604 3329.5378 73.8040 3375.3672
311.8835 0.3876 -487.7647 3331.0383 73.8822 3376.8660
312.0014 0.3977 -486.2688 3332.5388 73.9600 3378.3655
312.1177 0.4077 -484.7728 3334.0393 74.0374 3379.8643
312.2325 0.4182 -483.2767 3335.5398 74.1144 3381.3630
312.3456 0.4297 -481.7805 3337.0403 74.1909 3382.8613
312.4574 0.4427 -480.2843 3338.5408 74.2670 3384.3599
312.5676 0.4571 -478.7880 3340.0413 74.3427 3385.8589
312.6765 0.4723 -477.2916 3341.5417 74.4181 3387.3577
312.7840 0.4874 -475.7951 3343.0422 74.4929 3388.8564
312.8903 0.5016 -474.2985 3344.5427 74.5674 3390.3547
312.9954 0.5145 -472.8018 3346.0430 74.6415 3391.8540
313.0992 0.5259 -471.3050 3347.5435 74.7152 3393.3530
313.2022 0.5361 -469.8081 3349.0439 74.7885 3394.8523
313.3044 0.5456 -468.3111 3350.5444 74.8614 3396.3508
313.4057 0.5552 -466.8140 3352.0449 74.9340 3397.8511
313.5063 0.5650 -465.3170 3353.5454 75.0061 3399.3503
313.6060 0.5752 -463.8198 3355.0459 75.0779 3400.8501
313.7047 0.5857 -462.3227 3356.5464 75.1492 3402.3496
313.8024 0.5960 -460.8253 3358.0469 75.2202 3403.8494
313.8990 0.6058 -459.3279 3359.5474 75.2908 3405.3491
313.9944 0.6151 -457.8305 3361.0479 75.3611 3406.8496
314.0887 0.6241 -456.3329 3362.5483 75.4310 3408.3496
314.1821 0.6331 -454.8354 3364.0486 75.5005 3409.8496
314.2742 0.6420 -453.3378 3365.5491 75.5696 3411.3503
314.3654 0.6509 -451.8401 3367.0496 75.6384 3412.8508
314.4557 0.6594 -450.3425 3368.5500 75.7068 3414.3523
314.5453 0.6672 -448.8447 3370.0505 75.7749 3415.8530
314.6340 0.6744 -447.3469 3371.5510 75.8426 3417.3530
314.7223 0.6809 -445.8491 3373.0515 75.9100 3418.8538
314.8102 0.6871 -444.3512 3374.5520 75.9770 3420.3545
314.8977 0.6932 -442.8532 3376.0525 76.0437 3421.8557
314.9852 0.6996 -441.3553 3377.5530 76.1100 3423.3572
315.0726 0.7061 -439.8573 3379.0535 76.1760 3424.8584
315.1599 0.7125 -438.3593 3380.5540 76.2416 3426.3599
315.2475 0.7184 -436.8613 3382.0542 76.3069 3427.8621
315.3352 0.7238 -435.3634 3383.5547 76.3719 3429.3645
315.4232 0.7287 -433.8654 3385.0552 76.4365 3430.8672
315.5115 0.7330 -432.3677 3386.5557 76.5008 3432.3694
315.6003 0.7373 -430.8698 3388.0562 76.5648 3433.8726
315.6894 0.7418 -429.3721 3389.5566 76.6285 3435.3750
315.7788 0.7466 -427.8743 3391.0571 76.6918 3436.8787
315.8686 0.7517 -426.3766 3392.5576 76.7548 3438.3821
315.9585 0.7571 -424.8789 3394.0581 76.8175 3439.8850
316.0486 0.7624 -423.3813 3395.5586 76.8799 3441.3892
316.1388 0.7677 -421.8836 3397.0591 76.9419 3442.8931
316.2290 0.7726 -420.3859 3398.5593 77.0037 3444.3975
316.3193 0.7772 -418.8881 3400.0598 77.0651 3445.9019
316.4096 0.7817 -417.3905 3401.5603 77.1262 3447.4060
316.4998 0.7860 -415.8928 3403.0608 77.1870 3448.9109
316.5899 0.7903 -414.3951 3404.5613 77.2476 3450.4163
316.6801 0.7948 -412.8973 3406.0618 77.3078 3451.9192
316.7701 0.7996 -411.3996 3407.5623 77.3677 3453.4202
316.8602 0.8045 -409.9018 3409.0627 77.4273 3454.9219
316.9503 0.8091 -408.4041 3410.5632 77.4866 3456.4229
317.0404 0.8133 -406.9063 3412.0637 77.5456 3457.9233
317.1305 0.8165 -405.4086 3413.5642 77.6043 3459.4246
317.2206 0.8188 -403.9108 3415.0647 77.6628 3460.9258
317.3106 0.8203 -402.4130 3416.5649 77.7209 3462.4270
317.4007 0.8214 -400.9153 3418.0654 77.7788 3463.9285
317.4907 0.8222 -399.4176 3419.5659 77.8363 3465.4299
317.5806 0.8230 -397.9199 3421.0664 77.8936 3466.9309
317.6707 0.8236 -396.4222 3422.5669 77.9506 3468.4319
317.7607 0.8237 -394.9244 3424.0674 78.0073 3469.9336
317.8508 0.8224 -393.4268 3425.5679 78.0638 3471.4346
317.9410 0.8191 -391.9290 3427.0684 78.1200 3472.9353
318.0311 0.8135 -390.4312 3428.5688 78.1759 3474.4365
318.1214 0.8060 -388.9335 3430.0693 78.2315 3475.9380
318.2117 0.7977 -387.4358 3431.5698 78.2868 3477.4392
318.3022 0.7895 -385.9381 3433.0703 78.3419 3478.9404
318.3930 0.7822 -384.4403 3434.5706 78.3967 3480.4417
318.4839 0.7762 -382.9426 3436.0710 78.4513 3481.9436
318.5750 0.7709 -381.4448 3437.5715 78.5055 3483.4453
318.6664 0.7658 -379.9470 3439.0720 78.5596 3484.9465
318.7578 0.7605 -378.4493 3440.5725 78.6133 3486.4478
318.8495 0.7546 -376.9518 3442.0730 78.6668 3487.9495
318.9413 0.7481 -375.4541 3443.5735 78.7200 3489.4507
319.0334 0.7414 -373.9566 3445.0740 78.7730 3490.9524
319.1258 0.7347 -372.4590 3446.5745 78.8258 3492.4539
319.2186 0.7283 -370.9614 3448.0750 78.8782 3493.9556
319.3119 0.7222 -369.4639 3449.5754 78.9304 3495.4565
319.4058 0.7163 -367.9663 3451.0759 78.9824 3496.9578
319.5004 0.7103 -366.4689 3452.5762 79.0341 3498.4600
319.5956 0.7043 -364.9714 3454.0767 79.0856 3499.9614
319.6919 0.6981 -363.4740 3455.5771 79.1368 3501.4631
319.7890 0.6918 -361.9767 3457.0776 79.1878 3502.9644
319.8872 0.6855 -360.4796 3458.5781 79.2386 3504.4661
319.9865 0.6791 -358.9823 3460.0786 79.2891 3505.9675
320.0869 0.6727 -357.4854 3461.5791 79.3393 3507.4692
320.1887 0.6666 -355.9884 3463.0796 79.3893 3508.9705
320.2919 0.6604 -354.4916 3464.5801 79.4391 3510.4722
320.3965 0.6541 -352.9948 3466.0806 79.4887 3511.9736
320.5026 0.6479 -351.4981 3467.5811 79.5380 3513.4756
320.6102 0.6416 -350.0017 3469.0815 79.5871 3514.9766
320.7193 0.6352 -348.5052 3470.5818 79.6359 3516.4771
320.8299 0.6289 -347.0088 3472.0823 79.6845 3517.9766
320.9421 0.6225 -345.5126 3473.5828 79.7329 3519.4763
321.0561 0.6161 -344.0166 3475.0833 79.7811 3520.9761
321.1721 0.6098 -342.5208 3476.5837 79.8290 3522.4756
321.2905 0.6034 -341.0250 3478.0842 79.8767 3523.9749
321.4115 0.5970 -339.5295 3479.5847 79.9242 3525.4744
321.5354 0.5906 -338.0341 3481.0852 79.9715 3526.9749
321.6622 0.5841 -336.5389 3482.5857 80.0185 3528.4739
321.7921 0.5776 -335.0440 3484.0862 80.0654 3529.9736
321.9252 0.5711 -333.5496 3485.5867 80.1120 3531.4734
322.0618 0.5645 -332.0554 3487.0872 80.1584 3532.9722
322.2018 0.5580 -330.5616 3488.5874 80.2046 3534.4722
322.3455 0.5515 -329.0681 3490.0879 80.2505 3535.9712
322.4930 0.5448 -327.5750 3491.5884 80.2963 3537.4705
322.6445 0.5382 -326.0822 3493.0889 80.3418 3538.9695
322.8000 0.5315 -324.5899 3494.5894 80.3871 3540.4685
322.9597 0.5248 -323.0979 3496.0898 80.4322 3541.9670
323.1234 0.5180 -321.6064 3497.5903 80.4772 3543.4663
323.2913 0.5113 -320.1155 3499.0908 80.5219 3544.9648
323.4634 0.5044 -318.6248 3500.5913 80.5664 3546.4639
323.6398 0.4976 -317.1349 3502.0918 80.6106 3547.9612
323.8206 0.4908 -315.6453 3503.5923 80.6547 3549.4597
324.0059 0.4838 -314.1563 3505.0928 80.6986 3550.9575
324.1956 0.4769 -312.6679 3506.5930 80.7423 3552.4561
324.3898 0.4699 -311.1802 3508.0935 80.7858 3553.9531
324.5884 0.4629 -309.6930 3509.5940 80.8291 3555.4509
324.7916 0.4558 -308.2062 3511.0945 80.8722 3556.9475
324.9994 0.4488 -306.7202 3512.5950 80.9150 3558.4448
325.2119 0.4416 -305.2349 3514.0955 80.9577 3559.9414
325.4294 0.4345 -303.7502 3515.5959 81.0002 3561.4380
325.6523 0.4273 -302.2663 3517.0964 81.0425 3562.9341
325.8805 0.4200 -300.7832 3518.5969 81.0847 3564.4299
326.1142 0.4128 -299.3010 3520.0974 81.1266 3565.9248
326.3537 0.4055 -297.8197 3521.5979 81.1683 3567.4199
326.5991 0.3980 -296.3394 3523.0984 81.2098 3568.9141
326.8508 0.3906 -294.8601 3524.5986 81.2512 3570.4077
327.1088 0.3832 -293.3820 3526.0991 81.2924 3571.9014
327.3733 0.3756 -291.9052 3527.5996 81.3334 3573.3936
327.6447 0.3681 -290.4294 3529.1001 81.3742 3574.8855
327.9230 0.3604 -288.9550 3530.6006 81.4148 3576.3774
328.2081 0.3527 -287.4820 3532.1011 81.4552 3577.8679
328.5004 0.3449 -286.0104 3533.6016 81.4954 3579.3577
328.7999 0.3372 -284.5401 3535.1021 81.5355 3580.8462
329.1064 0.3293 -283.0713 3536.6025 81.5754 3582.3345
329.4199 0.3214 -281.6040 3538.1030 81.6151 3583.8220
329.7405 0.3134 -280.1382 3539.6035 81.6546 3585.3086
330.0680 0.3054 -278.6740 3541.1040 81.6940 3586.7939
330.4024 0.2973 -277.2114 3542.6042 81.7332 3588.2786
330.7437 0.2892 -275.7502 3544.1047 81.7722 3589.7620
331.0916 0.2809 -274.2907 3545.6052 81.8110 3591.2439
331.4461 0.2727 -272.8328 3547.1057 81.8496 3592.7266
331.8072 0.2643 -271.3763 3548.6062 81.8881 3594.2073
332.1747 0.2560 -269.9217 3550.1067 81.9264 3595.6860
332.5484 0.2477 -268.4686 3551.6072 81.9646 3597.1650
332.9287 0.2393 -267.0171 3553.1077 82.0025 3598.6426
333.3152 0.2309 -265.5672 3554.6082 82.0403 3600.1201
333.7081 0.2222 -264.1190 3556.1086 82.0780 3601.5950
334.1072 0.2129 -262.6726 3557.6091 82.1154 3603.0747
334.5125 0.2024 -261.2278 3559.1094 82.1527 3604.5840
334.9241 0.1906 -259.7849 3560.6099 82.1899 3606.0930
335.3421 0.1773 -258.3438 3562.1104 82.2268 3607.6045
335.7663 0.1627 -256.9046 3563.6108 82.2636 3609.1187
336.1968 0.1472 -255.4672 3565.1113 82.3003 3610.6353
336.6338 0.1312 -254.0318 3566.6118 82.3368 3612.1543
337.0767 0.1149 -252.5984 3568.1123 82.3731 3613.6765
337.5255 0.0980 -251.1667 3569.6128 82.4093 3615.2026
337.9799 0.0806 -249.7369 3571.1133 82.4453 3616.7319
338.4399 0.0626 -248.3087 3572.6138 82.4811 3618.2642
338.9055 0.0436 -246.8824 3574.1143 82.5168 3619.8015
339.3770 0.0242 -245.4580 3575.6147 82.5523 3621.3418
339.8543 0.0044 -244.0355 3577.1150 82.5877 3622.8862
340.3379 -0.0153 -242.6152 3578.6155 82.6229 3624.4348
340.8279 -0.0346 -241.1970 3580.1160 82.6580 3625.9883
341.3242 -0.0531 -239.7811 3581.6165 82.6929 3627.5500
341.8268 -0.0702 -238.3676 3583.1169 82.7277 3629.1162
342.3360 -0.0858 -236.9563 3584.6174 82.7623 3630.6816
342.8517 -0.0996 -235.5471 3586.1179 82.7967 3632.2468
343.3739 -0.1123 -234.1405 3587.6184 82.8310 3633.8127
343.9026 -0.1248 -232.7365 3589.1189 82.8652 3635.3784
344.4380 -0.1382 -231.3349 3590.6194 82.8992 3636.9448
344.9798 -0.1534 -229.9358 3592.1199 82.7752 3638.5115
345.5279 -0.1704 -228.5391 3593.6204 82.2814 3640.0801
346.0820 -0.1891 -227.1447 3595.1206 81.7857 3641.6487
346.6415 -0.2087 -225.7526 3596.6211 81.2880 3643.2195
347.2061 -0.2288 -224.3625 3598.1216 80.7883 3644.7913
347.7750 -0.2488 -222.9744 3599.6221 80.2865 3646.3650
348.3483 -0.2677 -221.5879 3601.1226 79.7827 3647.9404
348.9254 -0.2851 -220.2030 3602.6230 79.2768 3649.5176
349.5063 -0.3011 -218.8198 3604.1235 78.7688 3651.0920
350.0906 -0.3169 -217.4378 3605.6240 78.2586 3652.6541
350.6779 -0.3341 -216.0572 3607.1245 77.7461 3654.2153
351.2679 -0.3541 -214.6776 3608.6250 77.2315 3655.7751
351.8597 -0.3769 -213.2991 3610.1255 76.7145 3657.3337
352.4531 -0.4014 -211.9212 3611.6260 76.1952 3658.8923
353.0477 -0.4255 -210.5438 3613.1262 75.6735 3660.4487
353.6432 -0.4474 -209.1666 3614.6267 75.1494 3662.0044
354.2392 -0.4661 -207.7897 3616.1272 74.6228 3663.5588
354.8354 -0.4817 -206.4129 3617.6277 74.0937 3665.1121
355.4314 -0.4957 -205.0358 3619.1282 73.5620 3666.6653
356.0268 -0.5094 -203.6586 3620.6287 73.0277 3668.2166
356.6210 -0.5241 -202.2807 3622.1292 72.4908 3669.7673
357.2136 -0.5401 -200.9024 3623.6296 71.9511 3671.3159
357.8043 -0.5573 -199.5232 3625.1301 71.4087 3672.8630
358.3929 -0.5748 -198.1432 3626.6306 70.8635 3674.4092
358.9797 -0.5916 -196.7623 3628.1311 70.3153 3675.9551
359.5646 -0.6063 -195.3806 3629.6316 69.7642 3677.4980
360.1473 -0.6186 -193.9979 3631.1318 69.2101 3679.0259
360.7271 -0.6279 -192.6141 3632.6323 68.6529 3680.5278
361.3033 -0.6351 -191.2286 3634.1328 68.0926 3682.0286
361.8743 -0.6409 -189.8412 3635.6333 67.5290 3683.5273
362.4391 -0.6469 -188.4511 3637.1338 66.9622 3685.0239
362.9968 -0.6539 -187.0581 3638.6343 66.3920 3686.5176
363.5463 -0.6625 -185.6619 3640.1348 65.8183 3688.0083
364.0869 -0.6726 -184.2623 3641.6353 65.2412 3689.4963
364.6182 -0.6839 -182.8591 3643.1357 64.6604 3690.9814
365.1398 -0.6953 -181.4522 3644.6362 64.0759 3692.4631
365.6510 -0.7060 -180.0417 3646.1367 63.4876 3693.9409
366.1517 -0.7150 -178.6272 3647.6372 62.8955 3695.4155
366.6413 -0.7218 -177.2088 3649.1375 62.2993 3696.8853
367.1193 -0.7266 -175.7864 3650.6379 61.6991 3698.3508
367.5853 -0.7304 -174.3601 3652.1384 61.0947 3699.8120
368.0389 -0.7345 -172.9298 3653.6389 60.4859 3701.2690
368.4799 -0.7401 -171.4957 3655.1394 59.8728 3702.7192
368.9081 -0.7472 -170.0575 3656.6399 59.2550 3704.1650
369.3229 -0.7552 -168.6155 3658.1404 58.6326 3705.6047
369.7239 -0.7629 -167.1697 3659.6409 58.8153 3707.0383
370.1110 -0.7694 -165.7200 3661.1414 58.6033 3708.4661
370.4841 -0.7746 -164.2666 3662.6418 58.7863 3709.8884
370.8434 -0.7794 -162.8097 3664.1423 58.9677 3711.3604
371.1889 -0.7847 -161.3496 3665.6428 59.1475 3712.8760
371.5210 -0.7917 -159.8864 3667.1431 59.3258 3714.3975
371.8394 -0.8000 -158.4201 3668.6436 58.8620 3715.9309
372.1436 -0.8090 -156.9508 3670.1440 58.2365 3717.4749
372.4333 -0.8173 -155.4788 3671.6445 57.6061 3719.0317
372.7083 -0.8238 -154.0038 3673.1450 57.7979 3720.6030
372.9686 -0.8282 -152.5262 3674.6455 57.9771 3722.1895
373.2143 -0.8308 -151.0459 3676.1460 58.1655 3723.7930
373.4456 -0.8325 -149.5634 3677.6465 58.3523 3725.4141
373.6629 -0.8345 -148.0787 3679.1470 58.5375 3727.0559
373.8668 -0.8377 -146.5922 3680.6475 58.7210 3728.7271
374.0575 -0.8430 -145.1040 3682.1479 58.9030 3730.4021
374.2355 -0.8503 -143.6141 3683.6484 59.0834 3732.0784
374.4007 -0.8591 -142.1227 3685.1487 59.2622 3733.7556
374.5533 -0.8689 -140.6302 3686.6492 59.4395 3735.4343
374.6930 -0.8783 -139.1361 3688.1497 59.6153 3737.1184
374.8201 -0.8861 -137.6411 3689.6501 59.7897 3738.8066
374.9340 -0.8903 -136.1449 3691.1506 59.9626 3740.5000
375.0347 -0.8901 -134.6478 3692.6511 59.6705 3742.2009
375.1222 -0.8863 -133.1499 3694.1516 59.0512 3743.9106
375.1968 -0.8811 -131.6513 3695.6521 58.4272 3745.6123
375.2590 -0.8771 -130.1521 3697.1526 57.7984 3747.3049
375.3095 -0.8764 -128.6524 3698.6531 57.1645 3748.9907
375.3478 -0.8792 -127.1524 3700.1536 56.5254 3750.6711
375.3729 -0.8845 -125.6522 3701.6541 55.8811 3752.3464
375.3834 -0.8901 -124.1517 3703.1543 55.2312 3754.0178
375.3784 -0.8945 -122.6514 3704.6548 54.5756 3755.6882
375.3570 -0.8963 -121.1509 3706.1553 54.7960 3757.3582
375.3195 -0.8959 -119.6509 3707.6558 55.0143 3759.0281
375.2662 -0.8939 -118.1513 3709.1562 55.2303 3760.6565
375.1975 -0.8919 -116.6525 3710.6567 55.4443 3762.1897
375.1141 -0.8908 -115.1543 3712.1572 55.6562 3763.7168
375.0161 -0.8912 -113.6569 3713.6577 55.8660 3765.2407
374.9037 -0.8930 -112.1608 3715.1582 56.0739 3766.7607
374.7769 -0.8961 -110.6658 3716.6587 56.2798 3768.2786
374.6356 -0.8997 -109.1721 3718.1592 56.4837 3769.7932
374.4800 -0.9023 -107.6796 3719.6594 56.6857 3771.3047
374.3102 -0.9030 -106.1889 3721.1599 56.8858 3772.8140
374.1263 -0.9009 -104.6996 3722.6604 57.0841 3774.3225
373.9288 -0.8957 -103.2121 3724.1609 57.2806 3775.8286
373.7182 -0.8882 -101.7264 3725.6614 57.4753 3777.3333
373.4944 -0.8793 -100.2427 3727.1619 57.6682 3778.8215
373.2581 -0.8701 -98.7612 3728.6624 57.8594 3780.2974
373.0093 -0.8613 -97.2814 3730.1628 58.0489 3781.7756
372.7485 -0.8535 -95.8038 3731.6633 58.2368 3783.2559
372.4754 -0.8464 -94.3285 3733.1638 58.4229 3784.7385
372.1900 -0.8396 -92.8555 3734.6643 58.6075 3786.2224
371.8925 -0.8324 -91.3848 3736.1648 58.7904 3787.7087
371.5829 -0.8239 -89.9168 3737.6650 58.9717 3789.1970
371.2614 -0.8140 -88.4512 3739.1655 59.1515 3790.6873
370.9285 -0.8030 -86.9881 3740.6660 59.3298 3792.1787
370.5845 -0.7913 -85.5277 3742.1665 59.5065 3793.6711
370.2296 -0.7798 -84.0699 3743.6670 59.6818 3795.1655
369.8640 -0.7686 -82.6146 3745.1675 59.8556 3796.6604
369.4877 -0.7575 -81.1621 3746.6680 60.0279 3798.1567
369.1009 -0.7461 -79.7123 3748.1685 60.1988 3799.6541
368.7041 -0.7339 -78.2652 3749.6689 60.3683 3801.1521
368.2983 -0.7213 -76.8208 3751.1694 60.5365 3802.6504
367.8848 -0.7089 -75.3785 3752.6699 60.7032 3804.1497
367.4651 -0.6977 -73.9381 3754.1704 60.8686 3805.6489
367.0407 -0.6880 -72.4989 3755.6707 61.0327 3807.1489
366.6129 -0.6798 -71.0608 3757.1711 61.1954 3808.6489
366.1822 -0.6727 -69.6234 3758.6716 61.3569 3810.1482
365.7490 -0.6654 -68.1869 3760.1721 61.5170 3811.6489
365.3135 -0.6572 -66.7510 3761.6726 61.6759 3813.1492
364.8765 -0.6472 -65.3157 3763.1731 61.8336 3814.6499
364.4390 -0.6349 -63.8805 3764.6736 61.9900 3816.1504
364.0021 -0.6205 -62.4450 3766.1741 62.1452 3817.6511
363.5670 -0.6050 -61.0090 3767.6746 62.2992 3819.1514
363.1340 -0.5898 -59.5723 3769.1750 62.4521 3820.6528
362.7039 -0.5759 -58.1349 3770.6755 62.6037 3822.1528
362.2767 -0.5641 -56.6968 3772.1760 62.7542 3823.6531
361.8523 -0.5541 -55.2576 3773.6763 62.9036 3825.1536
361.4312 -0.5458 -53.8175 3775.1768 63.0518 3826.6565
361.0142 -0.5383 -52.3760 3776.6772 63.1989 3828.1631
360.6022 -0.5314 -50.9332 3778.1777 63.3450 3829.6694
360.1963 -0.5246 -49.4885 3779.6782 63.4899 3831.1750
359.7978 -0.5182 -48.0421 3781.1787 63.6338 3832.6816
359.4074 -0.5122 -46.5932 3782.6792 63.0997 3834.1875
359.0260 -0.5071 -45.1420 3784.1797 62.5049 3835.6934
358.6541 -0.5029 -43.6884 3785.6802 61.9061 3837.1995
358.2921 -0.4995 -42.2322 3787.1807 61.3032 3838.7058
357.9403 -0.4965 -40.7734 3788.6812 60.6959 3840.2124
357.5993 -0.4932 -39.3122 3790.1816 60.0843 3841.7188
357.2695 -0.4891 -37.8484 3791.6819 59.4681 3843.2249
356.9516 -0.4831 -36.3819 3793.1824 58.8473 3844.7314
356.6464 -0.4751 -34.9128 3794.6829 58.2218 3846.2388
356.3544 -0.4650 -33.4410 3796.1833 57.5913 3847.7454
356.0764 -0.4534 -31.9665 3797.6838 56.9557 3849.2532
355.8127 -0.4415 -30.4893 3799.1843 56.3149 3850.7727
355.5635 -0.4302 -29.0096 3800.6848 55.6688 3852.2959
355.3290 -0.4204 -27.5277 3802.1853 55.0170 3853.8193
355.1096 -0.4123 -26.0432 3803.6858 54.3596 3855.3413
354.9059 -0.4058 -24.5566 3805.1863 53.6961 3856.8628
354.7183 -0.4003 -23.0679 3806.6868 53.0266 3858.3828
354.5475 -0.3955 -21.5773 3808.1873 52.3507 3859.9041
354.3939 -0.3907 -20.0847 3809.6875 51.8600 3861.4248
354.2581 -0.3857 -18.5902 3811.1880 51.7953 3862.9465
354.1401 -0.3802 -17.0945 3812.6885 51.3301 3864.4675
354.0402 -0.3742 -15.5973 3814.1890 51.3554 3865.9900
353.9583 -0.3684 -14.0990 3815.6895 51.6099 3867.5132
353.8938 -0.3633 -12.5998 3817.1899 51.8616 3869.0376
353.8468 -0.3597 -11.1001 3818.6904 52.1105 3870.5627
353.8170 -0.3580 -9.5999 3820.1909 52.3567 3872.0903
353.8044 -0.3583 -8.0995 3821.6914 52.5422 3873.6226
353.8089 -0.3608 -6.5991 3823.1919 51.8616 3875.1873
353.8311 -0.3651 -5.0989 3824.6924 51.1743 3876.7505
353.8711 -0.3710 -3.5990 3826.1929 50.4799 3878.3140
353.9294 -0.3779 -2.0997 3827.6931 50.0939 3879.8760
354.0065 -0.3854 -0.6013 3829.1936 49.9882 3881.4385
354.1021 -0.3929 0.8959 3830.6941 49.2813 3883.0027
354.2168 -0.4000 2.3919 3832.1946 49.5602 3884.5671
354.3504 -0.4062 3.8864 3833.6951 49.8356 3886.1343
354.5026 -0.4114 5.3790 3835.1956 50.1078 3887.7024
354.6732 -0.4155 6.8697 3836.6960 50.3768 3889.2747
354.8620 -0.4185 8.3583 3838.1965 50.6426 3890.8511
355.0688 -0.4204 9.8446 3839.6970 50.9053 3892.4326
355.2932 -0.4213 11.3283 3841.1975 51.1649 3894.0173
355.5347 -0.4216 12.8091 3842.6980 51.4216 3895.6082
355.7927 -0.4219 14.2873 3844.1985 51.6755 3897.2026
356.0667 -0.4229 15.7624 3845.6987 51.9264 3898.8635
356.3562 -0.4253 17.2348 3847.1992 52.1746 3900.5256
356.6612 -0.4293 18.7040 3848.6997 52.4201 3902.1831
356.9818 -0.4350 20.1698 3850.2002 52.6557 3903.8350
357.3183 -0.4422 21.6321 3851.7007 51.9762 3905.4846
357.6715 -0.4498 23.0905 3853.2012 51.2900 3907.1321
358.0417 -0.4575 24.5444 3854.7017 50.5968 3908.7781
358.4297 -0.4647 25.9939 3856.2021 50.8600 3910.4241
358.8351 -0.4712 27.4386 3857.7026 51.1202 3912.0698
359.2577 -0.4770 28.8784 3859.2031 51.3774 3913.7183
359.6966 -0.4830 30.3133 3860.7036 51.6317 3915.3684
360.1516 -0.4898 31.7431 3862.2041 51.3276 3917.0227
360.6231 -0.4973 33.1674 3863.7043 50.6348 3918.6816
361.1121 -0.5048 34.5859 3865.2048 50.0245 3920.3455
361.6189 -0.5120 35.9984 3866.7053 50.2944 3922.0059
362.1422 -0.5196 37.4046 3868.2058 49.7251 3923.6458
362.6805 -0.5299 38.8052 3869.7063 49.0154 3925.2781
363.2325 -0.5446 40.2005 3871.2068 48.2977 3926.9050
363.7983 -0.5640 41.5901 3872.7073 47.5718 3928.5256
364.3795 -0.5863 42.9732 3874.2078 46.8373 3930.1426
364.9784 -0.6093 44.3488 3875.7083 46.0939 3931.7559
365.5966 -0.6307 45.7156 3877.2087 45.3412 3933.3669
366.2349 -0.6499 47.0735 3878.7092 45.6723 3934.9768
366.8922 -0.6677 48.4224 3880.2095 45.9987 3936.5872
367.5673 -0.6855 49.7622 3881.7100 46.3205 3938.1975
368.2591 -0.7039 51.0935 3883.2104 46.6378 3939.8093
368.9665 -0.7225 52.4167 3884.7109 46.9508 3941.4233
369.6883 -0.7406 53.7321 3886.2114 47.2595 3943.0396
370.4224 -0.7575 55.0407 3887.7119 47.5642 3944.6594
371.1670 -0.7734 56.3434 3889.2124 47.8648 3946.2056
371.9207 -0.7886 57.6407 3890.7129 48.1614 3947.6943
372.6825 -0.8038 58.9332 3892.2134 48.4543 3949.1843
373.4514 -0.8197 60.2216 3893.7139 48.7435 3950.6750
374.2256 -0.8369 61.5068 3895.2144 49.0290 3952.1663
375.0031 -0.8549 62.7900 3896.7148 49.3110 3953.6587
375.7824 -0.8733 64.0721 3898.2151 49.5895 3955.1514
376.5620 -0.8911 65.3538 3899.7156 49.8646 3956.6426
377.3413 -0.9082 66.6359 3901.2161 50.1365 3958.1345
378.1200 -0.9247 67.9182 3902.7166 50.4051 3959.6270
378.8985 -0.9416 69.2010 3904.2170 50.6705 3961.1184
379.6764 -0.9594 70.4840 3905.7175 50.9329 3962.6104
380.4535 -0.9784 71.7675 3907.2180 51.1922 3964.1011
381.2282 -0.9980 73.0525 3908.7185 51.4486 3965.5925
381.9990 -1.0175 74.3396 3910.2190 51.7022 3967.0828
382.7643 -1.0368 75.6301 3911.7195 51.9528 3968.5715
383.5226 -1.0557 76.9247 3913.2200 52.2007 3970.0608
384.2728 -1.0744 78.2241 3914.7205 52.4459 3971.5474
385.0139 -1.0932 79.5286 3916.2207 52.6885 3973.0332
385.7449 -1.1119 80.8388 3917.7212 52.9284 3974.5159
386.4650 -1.1305 82.1551 3919.2217 53.1658 3975.9980
387.1738 -1.1489 83.4774 3920.7222 53.4006 3977.4768
387.8711 -1.1667 84.8059 3922.2227 53.4142 3978.9534
388.5567 -1.1840 86.1405 3923.7231 52.7420 3980.4282
389.2297 -1.2006 87.4817 3925.2236 52.0633 3981.9001
389.8893 -1.2172 88.8293 3926.7241 51.3780 3983.3687
390.5353 -1.2348 90.1834 3928.2246 50.6857 3984.8308
391.1673 -1.2545 91.5441 3929.7251 49.9863 3986.3435
391.7847 -1.2763 92.9115 3931.2256 49.2793 3987.8708
392.3859 -1.2993 94.2861 3932.7261 48.5646 3989.3982
392.9695 -1.3221 95.6681 3934.2263 47.8418 3990.9272
393.5346 -1.3433 97.0580 3935.7268 47.9645 3992.4578
394.0807 -1.3629 98.4555 3937.2273 47.2347 3993.9922
394.6076 -1.3816 99.8602 3938.7278 46.9556 3995.5303
395.1158 -1.4006 101.2719 3940.2283 46.2137 3997.0750
395.6049 -1.4204 102.6904 3941.7288 45.4624 3998.6248
396.0738 -1.4406 104.1155 3943.2292 44.7065 4000.1829
396.5216 -1.4609 105.5476 3944.7297 44.4902 4001.7490
396.9476 -1.4809 106.9862 3946.2302 44.8338 4003.3247
397.3518 -1.5002 108.4310 3947.7307 44.7288 4004.9111
397.7340 -1.5195 109.8819 3949.2312 44.8179 4006.5107
398.0945 -1.5387 111.3384 3950.7317 44.8445 4008.1230
398.4331 -1.5579 112.8000 3952.2319 44.8242 4009.7502
398.7497 -1.5771 114.2666 3953.7324 44.6690 4011.3767
399.0441 -1.5965 115.7377 3955.2329 44.4405 4012.9983
399.3164 -1.6159 117.2131 3956.7334 44.2141 4014.6155
399.5662 -1.6357 118.6924 3958.2339 44.5618 4016.2307
399.7935 -1.6555 120.1753 3959.7344 43.9422 4017.8438
399.9980 -1.6755 121.6615 3961.2349 44.2941 4019.4575
400.1800 -1.6956 123.1506 3962.7354 44.2475 4021.0713
400.3394 -1.7159 124.6424 3964.2358 43.4869 4022.6865
400.4756 -1.7357 126.1365 3965.7363 43.1310 4024.3066
400.5881 -1.7537 127.6328 3967.2368 42.3659 4025.9299
400.6759 -1.7676 129.1306 3968.7373 42.3468 4027.5591
400.7392 -1.7760 130.6296 3970.2375 42.7241 4029.1956
400.7793 -1.7791 132.1295 3971.7380 43.0952 4030.8398
400.7979 -1.7795 133.6299 3973.2385 43.4603 4032.4944
400.7961 -1.7797 135.1305 3974.7390 43.8197 4034.1462
400.7746 -1.7820 136.6306 3976.2395 44.1734 4035.7900
400.7332 -1.7876 138.1306 3977.7400 44.0598 4037.4258
400.6704 -1.7957 139.6297 3979.2405 43.2985 4039.0571
400.5851 -1.8055 141.1276 3980.7410 42.5341 4040.6826
400.4761 -1.8164 142.6241 3982.2415 42.9083 4042.3057
400.3434 -1.8281 144.1185 3983.7419 43.2764 4043.9268
400.1871 -1.8410 145.6105 3985.2424 43.4958 4045.5464
400.0074 -1.8555 147.1001 3986.7429 43.4355 4047.1660
399.8041 -1.8715 148.5866 3988.2432 42.7969 4048.7878
399.5768 -1.8888 150.0698 3989.7437 42.0304 4050.4111
399.3248 -1.9067 151.5489 3991.2441 41.5184 4052.0396
399.0476 -1.9246 153.0235 3992.7446 41.1595 4053.6724
398.7456 -1.9424 154.4931 3994.2451 41.5569 4055.3110
398.4196 -1.9610 155.9574 3995.7456 41.9474 4056.9641
398.0704 -1.9809 157.4165 3997.2461 42.3313 4058.6665
397.6981 -2.0019 158.8701 3998.7466 42.7088 4060.3564
397.3025 -2.0238 160.3173 4000.2471 42.7012 4062.0293
396.8834 -2.0454 161.7577 4001.7476 42.5642 4063.6875
396.4408 -2.0665 163.1912 4003.2480 42.9379 4065.3350
395.9755 -2.0871 164.6176 4004.7485 43.3056 4066.9695
395.4883 -2.1075 166.0367 4006.2488 43.6674 4068.5969
394.9802 -2.1283 167.4482 4007.7493 44.0235 4070.2158
394.4516 -2.1496 168.8522 4009.2498 44.3742 4071.8289
393.9023 -2.1712 170.2483 4010.7502 44.5751 4073.4377
393.3324 -2.1926 171.6363 4012.2507 44.9175 4075.0435
392.7418 -2.2136 173.0156 4013.7512 45.2531 4076.6479
392.1310 -2.2343 174.3858 4015.2517 45.5855 4078.2522
391.5005 -2.2548 175.7471 4016.7522 45.9132 4079.8579
390.8507 -2.2757 177.0992 4018.2527 46.2362 4081.4673
390.1819 -2.2972 178.4423 4019.7532 45.9814 4083.0720
389.4940 -2.3191 179.7756 4021.2537 46.2902 4084.5903
388.7869 -2.3412 181.0988 4022.7542 45.5399 4086.1042
388.0605 -2.3629 182.4116 4024.2544 44.7843 4087.6091
387.3146 -2.3842 183.7134 4025.7549 45.1235 4089.1077
386.5496 -2.4047 185.0040 4027.2554 45.4578 4090.5996
385.7657 -2.4248 186.2833 4028.7559 45.7872 4092.0867
384.9636 -2.4443 187.5510 4030.2563 45.3293 4093.5681
384.1430 -2.4635 188.8072 4031.7568 45.6606 4095.0444
383.3046 -2.4822 190.0515 4033.2573 45.9871 4096.5181
382.4486 -2.5005 191.2836 4034.7578 45.9180 4097.9858
381.5752 -2.5186 192.5036 4036.2583 46.2410 4099.4526
380.6846 -2.5365 193.7110 4037.7588 46.5594 4100.9165
379.7770 -2.5539 194.9058 4039.2593 46.4093 4102.3784
378.8526 -2.5710 196.0876 4040.7595 46.7254 4103.8389
377.9118 -2.5873 197.2564 4042.2600 47.0371 4105.2983
376.9552 -2.6028 198.4122 4043.7605 47.3274 4106.7568
375.9831 -2.6175 199.5550 4045.2610 47.6311 4108.2168
374.9963 -2.6315 200.6854 4046.7615 47.9308 4109.6768
373.9955 -2.6448 201.8034 4048.2620 48.2266 4111.1367
372.9809 -2.6576 202.9089 4049.7625 48.5187 4112.5947
371.9528 -2.6698 204.0015 4051.2629 48.8070 4114.0503
370.9110 -2.6817 205.0814 4052.7634 49.0917 4115.5054
369.8565 -2.6931 206.1485 4054.2639 49.3729 4116.9604
368.7895 -2.7043 207.2034 4055.7644 49.6507 4118.4141
367.7106 -2.7149 208.2459 4057.2649 49.9251 4119.8662
366.6202 -2.7252 209.2766 4058.7651 50.1962 4121.3169
365.5183 -2.7348 210.2952 4060.2656 50.4641 4122.7681
364.4056 -2.7439 211.3016 4061.7661 50.7289 4124.2183
363.2820 -2.7525 212.2959 4063.2666 50.9906 4125.6670
362.1475 -2.7606 213.2779 4064.7671 51.2493 4127.1172
361.0025 -2.7683 214.2478 4066.2676 51.5050 4128.5659
359.8475 -2.7757 215.2053 4067.7681 51.7579 4130.0156
358.6823 -2.7829 216.1508 4069.2686 52.0080 4131.4653
357.5075 -2.7896 217.0844 4070.7690 52.2553 4132.9155
356.3235 -2.7959 218.0058 4072.2695 52.4999 4134.3662
355.1298 -2.8018 218.9151 4073.7700 52.7418 4135.8174
353.9268 -2.8075 219.8118 4075.2705 52.9812 4137.2681
352.7144 -2.8130 220.6958 4076.7708 53.2180 4138.7305
351.4930 -2.8184 221.5672 4078.2712 53.4523 4140.2368
350.2629 -2.8237 222.4265 4079.7717 53.6842 4141.7461
349.0251 -2.8293 223.2746 4081.2722 53.9137 4143.2578
347.7804 -2.8350 224.1125 4082.7727 54.1408 4144.7700
346.5297 -2.8410 224.9416 4084.2732 54.3656 4146.2842
345.2741 -2.8471 225.7630 4085.7737 54.5881 4147.7983
344.0143 -2.8534 226.5779 4087.2742 54.8084 4149.3140
342.7507 -2.8599 227.3871 4088.7747 55.0265 4150.8306
341.4836 -2.8669 228.1907 4090.2751 55.2425 4152.3467
340.2132 -2.8742 228.9892 4091.7756 55.4563 4153.8623
338.9402 -2.8819 229.7834 4093.2761 55.6681 4155.3804
337.6653 -2.8899 230.5748 4094.7764 55.8778 4156.8970
336.3898 -2.8982 231.3645 4096.2769 56.0855 4158.4141
335.1142 -2.9072 232.1548 4097.7773 56.2913 4159.9316
333.8397 -2.9166 232.9469 4099.2778 56.4951 4161.4497
332.5672 -2.9265 233.7421 4100.7783 56.6970 4162.9678
331.2971 -2.9362 234.5409 4102.2788 56.8971 4164.4854
330.0298 -2.9459 235.3440 4103.7793 57.0953 4166.0488
328.7653 -2.9560 236.1512 4105.2798 57.2916 4167.6167
327.5033 -2.9672 236.9627 4106.7803 57.4862 4169.1831
326.2444 -2.9789 237.7791 4108.2808 57.6791 4170.7495
324.9887 -2.9908 238.6010 4109.7812 57.8702 4172.3154
323.7372 -3.0028 239.4289 4111.2817 58.0596 4173.8799
322.4900 -3.0155 240.2629 4112.7822 58.2473 4175.4443
321.2474 -3.0298 241.1036 4114.2827 58.4334 4177.0083
320.0097 -3.0453 241.9518 4115.7832 58.6178 4178.5723
318.7776 -3.0616 242.8076 4117.2837 58.8007 4180.1367
317.5506 -3.0784 243.6714 4118.7842 58.9819 4181.7021
316.3293 -3.0961 244.5425 4120.2847 59.1616 4183.2671
315.1131 -3.1153 245.4210 4121.7847 59.3398 4184.8340
313.9019 -3.1364 246.3069 4123.2852 59.5165 4186.4023
312.6963 -3.1596 247.2002 4124.7856 59.6916 4187.9702
311.4967 -3.1834 248.1012 4126.2861 59.8653 4189.5405
310.3029 -3.2070 249.0101 4127.7866 60.0376 4191.1138
309.1153 -3.2295 249.9269 4129.2871 60.2084 4192.6973
307.9337 -3.2517 250.8510 4130.7876 60.3779 4194.3066
306.7575 -3.2745 251.7824 4132.2881 60.5459 4195.9116
305.5872 -3.2978 252.7211 4133.7886 60.7126 4197.5112
304.4232 -3.3214 253.6675 4135.2891 60.8779 4199.1069
303.2654 -3.3443 254.6220 4136.7896 61.0419 4200.6982
302.1144 -3.3660 255.5845 4138.2900 61.2046 4202.2856
300.9702 -3.3867 256.5548 4139.7905 61.3659 4203.8701
299.8329 -3.4068 257.5332 4141.2910 61.5260 4205.4521
298.7024 -3.4270 258.5194 4142.7915 61.6849 4207.0303
297.5786 -3.4474 259.5135 4144.2920 61.8424 4208.6079
296.4621 -3.4678 260.5153 4145.7925 61.9988 4210.1836
295.3524 -3.4877 261.5250 4147.2930 62.1539 4211.7578
294.2495 -3.5067 262.5426 4148.7935 62.3079 4213.3315
293.1539 -3.5249 263.5675 4150.2939 62.4607 4214.9048
292.0650 -3.5424 264.5999 4151.7944 62.6122 4216.4780
290.9831 -3.5598 265.6389 4153.2949 62.7627 4218.0518
289.9075 -3.5776 266.6852 4154.7954 62.9120 4219.6255
288.8388 -3.5959 267.7379 4156.2959 63.0602 4221.1924
287.7767 -3.6142 268.7976 4157.7959 63.2072 4222.7065
286.7216 -3.6317 269.8641 4159.2964 63.3532 4224.2173
285.6732 -3.6487 270.9376 4160.7969 63.4980 4225.7266
284.6318 -3.6651 272.0175 4162.2974 63.6418 4227.2329
283.5970 -3.6813 273.1040 4163.7979 63.7846 4228.7388
282.5688 -3.6975 274.1969 4165.2983 63.9263 4230.2417
281.5474 -3.7139 275.2958 4166.7988 64.0669 4231.7432
280.5322 -3.7303 276.4007 4168.2993 64.2066 4233.2432
279.5236 -3.7470 277.5113 4169.7998 64.3452 4234.7417
278.5211 -3.7639 278.6276 4171.3003 64.4828 4236.2388
277.5249 -3.7813 279.7499 4172.8008 64.6194 4237.7358
276.5355 -3.7993 280.8774 4174.3013 64.7551 4239.2300
275.5527 -3.8175 282.0110 4175.8018 64.8898 4240.7236
274.5765 -3.8356 283.1504 4177.3022 65.0235 4242.2168
273.6070 -3.8528 284.2958 4178.8027 65.1563 4243.7104
272.6446 -3.8690 285.4468 4180.3032 65.2882 4245.2026
271.6891 -3.8844 286.6035 4181.8037 65.4191 4246.6953
270.7406 -3.8994 287.7658 4183.3042 65.5491 4248.1694
269.7987 -3.9143 288.9340 4184.8047 65.6782 4249.6401
268.8642 -3.9289 290.1074 4186.3052 65.8065 4251.1143
267.9367 -3.9427 291.2867 4187.8057 65.9338 4252.5889
267.0163 -3.9553 292.4716 4189.3062 66.0603 4254.0649
266.1031 -3.9666 293.6618 4190.8066 66.1859 4255.5439
265.1968 -3.9770 294.8574 4192.3071 66.3106 4257.0225
264.2974 -3.9870 296.0581 4193.8071 66.4345 4258.5039
263.4050 -3.9970 297.2639 4195.3076 66.5575 4259.9854
262.5191 -4.0072 298.4752 4196.8081 66.6798 4261.4692
261.6400 -4.0172 299.6914 4198.3086 66.8012 4262.9546
260.7679 -4.0268 300.9125 4199.8091 66.9218 4264.4409
259.9026 -4.0358 302.1385 4201.3096 67.0416 4265.9272
259.0439 -4.0442 303.3691 4202.8101 67.1605 4267.4165
258.1921 -4.0521 304.6041 4204.3105 67.2788 4268.9048
257.3466 -4.0595 305.8439 4205.8110 67.3962 4270.3955
256.5078 -4.0666 307.0879 4207.3115 67.5128 4271.8857
255.6752 -4.0732 308.3364 4208.8120 67.6287 4273.3779
254.8493 -4.0793 309.5892 4210.3125 67.7439 4274.8706
254.0299 -4.0850 310.8462 4211.8130 67.8582 4276.3643
253.2169 -4.0901 312.1071 4213.3135 67.9719 4277.8579
252.4101 -4.0948 313.3719 4214.8140 68.0848 4279.3535
251.6090 -4.0988 314.6409 4216.3145 68.1970 4280.8481
250.8139 -4.1023 315.9134 4217.8149 68.3084 4282.3442
250.0243 -4.1054 317.1892 4219.3154 68.4192 4283.8413
249.2402 -4.1079 318.4681 4220.8159 68.5292 4285.3369
248.4612 -4.1097 319.7505 4222.3164 68.6385 4286.8335
247.6874 -4.1110 321.0362 4223.8169 68.7472 4288.3311
246.9188 -4.1114 322.3248 4225.3174 68.8551 4289.8296
246.1552 -4.1111 323.6164 4226.8179 68.9624 4291.3281
245.3965 -4.1101 324.9108 4228.3179 69.0690 4292.8262
244.6426 -4.1089 326.2082 4229.8184 69.1750 4294.3247
243.8934 -4.1081 327.5081 4231.3188 69.2803 4295.8237
243.1488 -4.1079 328.8107 4232.8193 69.3849 4297.3232
242.4088 -4.1086 330.1162 4234.3198 69.4888 4298.8228
241.6737 -4.1097 331.4242 4235.8203 69.5922 4300.3223
240.9431 -4.1112 332.7350 4237.3208 69.6949 4301.8223
240.2173 -4.1127 334.0483 4238.8213 69.7969 4303.3213
239.4960 -4.1142 335.3638 4240.3218 69.8984 4304.8213
238.7788 -4.1162 336.6816 4241.8223 69.9992 4306.3213
238.0655 -4.1187 338.0016 4243.3228 70.0994 4307.8208
237.3556 -4.1221 339.3239 4244.8232 70.1990 4309.3193
236.6495 -4.1265 340.6478 4246.3237 70.2980 4310.8198
235.9470 -4.1316 341.9734 4247.8242 70.3963 4312.3179
235.2482 -4.1367 343.3012 4249.3247 70.4941 4313.8184
234.5532 -4.1413 344.6311 4250.8252 70.5914 4315.3179
233.8617 -4.1451 345.9630 4252.3257 70.6880 4316.8169
233.1740 -4.1476 347.2967 4253.8262 70.7840 4318.3169
232.4894 -4.1493 348.6317 4255.3267 70.8795 4319.8154
231.8076 -4.1507 349.9684 4256.8271 70.9744 4321.3154
231.1284 -4.1523 351.3062 4258.3276 71.0688 4322.8145
230.4515 -4.1546 352.6451 4259.8281 71.1626 4324.3135
229.7764 -4.1580 353.9852 4261.3286 71.2558 4325.8125
229.1033 -4.1624 355.3260 4262.8291 71.3485 4327.3110
228.4319 -4.1677 356.6679 4264.3291 71.4406 4328.8105
227.7622 -4.1734 358.0105 4265.8296 71.5322 4330.3091
227.0941 -4.1793 359.3539 4267.3301 71.6233 4331.8086
226.4275 -4.1850 360.6983 4268.8306 71.7138 4333.3076
225.7625 -4.1903 362.0430 4270.3311 71.8038 4334.8066
225.0989 -4.1952 363.3888 4271.8315 71.8933 4336.3062
224.4367 -4.1998 364.7352 4273.3320 71.9823 4337.8047
223.7758 -4.2043 366.0826 4274.8325 72.0708 4339.3037
223.1166 -4.2086 367.4302 4276.3330 72.1587 4340.8027
222.4585 -4.2127 368.7788 4277.8335 72.2462 4342.3008
221.8020 -4.2166 370.1279 4279.3340 72.3331 4343.8008
221.1468 -4.2203 371.4780 4280.8345 72.4196 4345.2993
220.4930 -4.2238 372.8283 4282.3350 72.5055 4346.7983
219.8403 -4.2271 374.1794 4283.8354 72.5910 4348.2969
219.1889 -4.2305 375.5309 4285.3359 72.6760 4349.7954
218.5385 -4.2338 376.8833 4286.8364 72.7605 4351.2949
217.8893 -4.2374 378.2360 4288.3369 72.8445 4352.7935
217.2411 -4.2413 379.5894 4289.8374 72.9281 4354.2920
216.5940 -4.2456 380.9432 4291.3379 73.0112 4355.7910
215.9479 -4.2506 382.2975 4292.8384 73.0938 4357.2896
215.3025 -4.2567 383.6523 4294.3389 73.1760 4358.7886
214.6580 -4.2640 385.0073 4295.8394 73.2577 4360.2866
214.0140 -4.2722 386.3628 4297.3398 73.3389 4361.7861
213.3707 -4.2812 387.7182 4298.8403 73.4197 4363.2842
212.7279 -4.2903 389.0738 4300.3403 73.5001 4364.7827
212.0856 -4.2988 390.4296 4301.8408 73.5800 4366.2812
211.4436 -4.3064 391.7859 4303.3413 73.6594 4367.7798
210.8021 -4.3128 393.1425 4304.8418 73.7384 4369.2788
210.1611 -4.3180 394.4988 4306.3423 73.8170 4370.7769
209.5204 -4.3220 395.8554 4307.8428 73.8952 4372.2749
208.8798 -4.3252 397.2123 4309.3433 73.9729 4373.7744
208.2392 -4.3278 398.5695 4310.8438 74.0502 4375.2729
207.5987 -4.3303 399.9265 4312.3442 74.1271 4376.7715
206.9583 -4.3330 401.2835 4313.8447 74.2036 4378.2705
206.3180 -4.3361 402.6403 4315.3452 74.2796 4379.7690
205.6776 -4.3401 403.9975 4316.8457 74.3553 4381.2676
205.0374 -4.3450 405.3544 4318.3462 74.4305 4382.7666
204.3970 -4.3508 406.7114 4319.8467 74.5054 4384.2656
203.7567 -4.3573 408.0685 4321.3472 74.5798 4385.7642
203.1166 -4.3646 409.4254 4322.8477 74.6538 4387.2627
202.4764 -4.3725 410.7825 4324.3481 74.7274 4388.7627
201.8361 -4.3808 412.1395 4325.8486 74.8007 4390.2612
201.1959 -4.3896 413.4964 4327.3491 74.8735 4391.7593
200.5557 -4.3986 414.8535 4328.8496 74.9460 4393.2583
199.9156 -4.4075 416.2103 4330.3501 75.0181 4394.7573
199.2755 -4.4161 417.5672 4331.8506 75.0897 4396.2559
198.6353 -4.4243 418.9241 4333.3511 75.1611 4397.7539
197.9951 -4.4319 420.2810 4334.8516 75.2320 4399.2534
197.3548 -4.4391 421.6381 4336.3516 75.3025 4400.7529
196.7145 -4.4462 422.9951 4337.8521 75.3727 4402.2524
196.0743 -4.4535 424.3522 4339.3525 75.4426 4403.7510
195.4340 -4.4612 425.7094 4340.8530 75.5120 4405.2500
194.7939 -4.4696 427.0661 4342.3535 75.5811 4406.7500
194.1537 -4.4786 428.4231 4343.8540 75.6498 4408.2490
193.5134 -4.4882 429.7801 4345.3545 75.7182 4409.7485
192.8730 -4.4981 431.1372 4346.8550 75.7862 4411.2480
192.2327 -4.5081 432.4944 4348.3555 75.8539 4412.7471
191.5924 -4.5180 433.8512 4349.8560 75.9212 4414.2461
190.9521 -4.5273 435.2081 4351.3564 75.9881 4415.7456
190.3118 -4.5359 436.5650 4352.8569 76.0547 4417.2441
189.6715 -4.5434 437.9220 4354.3574 76.1210 4418.7441
189.0311 -4.5498 439.2791 4355.8579 76.1869 4420.2437
188.3907 -4.5557 440.6362 4357.3584 76.2525 4421.7437
187.7502 -4.5616 441.9934 4358.8589 76.3178 4423.2427
187.1096 -4.5682 443.3505 4360.3594 76.3827 4424.7427
186.4691 -4.5758 444.7077 4361.8599 76.4473 4426.2422
185.8288 -4.5844 446.0645 4363.3604 76.5115 4427.7407
185.1886 -4.5936 447.4213 4364.8608 76.5754 4429.2407
184.5483 -4.6028 448.7782 4366.3613 76.6390 4430.7397
183.9080 -4.6116 450.1350 4367.8618 76.7023 4432.2393
183.2678 -4.6197 451.4919 4369.3623 76.7653 4433.7388
182.6274 -4.6272 452.8489 4370.8623 76.8279 4435.2378
181.9871 -4.6342 454.2058 4372.3628 76.8902 4436.7378
181.3468 -4.6414 455.5627 4373.8633 76.9522 4438.2373
180.7064 -4.6489 456.9196 4375.3638 77.0139 4439.7363
180.0661 -4.6571 458.2765 4376.8643 77.0753 4441.2363
179.4258 -4.6658 459.6334 4378.3647 77.1364 4442.7354
178.7854 -4.6745 460.9903 4379.8652 77.1971 4444.2358
178.1451 -4.6825 462.3472 4381.3657 77.2576 4445.7354
177.5047 -4.6896 463.7040 4382.8662 77.3177 4447.2349
176.8643 -4.6960 465.0608 4384.3667 77.3776 4448.7344
176.2240 -4.7018 466.4175 4385.8672 77.4372 4450.2339
175.5836 -4.7078 467.7747 4387.3677 77.4964 4451.7334
174.9431 -4.7143 469.1319 4388.8682 77.5554 4453.2339
174.3027 -4.7216 470.4890 4390.3687 77.6141 4454.7334
173.6622 -4.7293 471.8460 4391.8691 77.6725 4456.2334
173.0217 -4.7373 473.2030 4393.3696 77.7305 4457.7329
172.3814 -4.7452 474.5599 4394.8701 77.7884 4459.2329
171.7410 -4.7531 475.9167 4396.3706 77.8459 4460.7314
171.1008 -4.7611 477.2735 4397.8711 77.9031 4462.2319
170.4604 -4.7693 478.6305 4399.3716 77.9601 4463.7319
169.8201 -4.7776 479.9872 4400.8721 78.0168 4465.2319
169.1796 -4.7858 481.3441 4402.3726 78.0732 4466.7310
168.5392 -4.7937 482.7011 4403.8730 78.1293 4468.2314
167.8988 -4.8011 484.0579 4405.3735 78.1851 4469.7310
167.2584 -4.8081 485.4148 4406.8735 78.2407 4471.2310
166.6180 -4.8155 486.7717 4408.3740 78.2960 4472.7305
165.9775 -4.8238 488.1287 4409.8745 78.3510 4474.2305
165.3371 -4.8334 489.4856 4411.3750 78.4058 4475.7305
164.6967 -4.8446 490.8423 4412.8755 78.4603 4477.2305
164.0562 -4.8571 492.1992 4414.3760 78.5145 4478.7305
163.4158 -4.8708 493.5561 4415.8765 78.5685 4480.2314
162.7755 -4.8848 494.9128 4417.3770 78.6222 4481.7305
