VERSION 0.7
FIELDS x y z lapdistance
SIZE 4 4 4 4
TYPE F F F F
COUNT 1 1 1 1
WIDTH 1168
HEIGHT 1
VIEWPOINT -0.625 0.327 0.325 0.630 -558.457 -10.415 467.204
POINTS 1168
DATA ascii
-248.80597 -2.40585 -521.28086 1924.45143
-250.55944 -2.42629 -522.25846 1926.45914
-252.32772 -2.44872 -523.20795 1928.46635
-254.10560 -2.47244 -524.13339 1930.47082
-255.89026 -2.49697 -525.03500 1932.47046
-257.68074 -2.52210 -525.90958 1934.46330
-259.47728 -2.54769 -526.75237 1936.44790
-261.28233 -2.57376 -527.55771 1938.42466
-263.10227 -2.60038 -528.31846 1940.39744
-264.94612 -2.62759 -529.02729 1942.37311
-266.81933 -2.65543 -529.68037 1944.35718
-268.72083 -2.68391 -530.27980 1946.35119
-270.64625 -2.71317 -530.82855 1948.35356
-272.59095 -2.74353 -531.32660 1950.36132
-274.55066 -2.77529 -531.77206 1952.37133
-276.52122 -2.80891 -532.16261 1954.38056
-278.49830 -2.84536 -532.49625 1956.38600
-280.47725 -2.88535 -532.77233 1958.38459
-282.45342 -2.92802 -532.99271 1960.37352
-284.42343 -2.97154 -533.16168 1962.35129
-286.38732 -3.01375 -533.28521 1964.31955
-288.35019 -3.05313 -533.37029 1966.28468
-290.31973 -3.08978 -533.42173 1968.25526
-292.29985 -3.12440 -533.43899 1970.23579
-294.28985 -3.15752 -533.41757 1972.22621
-296.28649 -3.18931 -533.35219 1974.22422
-298.28536 -3.21973 -533.23748 1976.22667
-300.28125 -3.24856 -533.06688 1978.23012
-302.26837 -3.27538 -532.83381 1980.23113
-304.24091 -3.29966 -532.53487 1982.22644
-306.19406 -3.32102 -532.17085 1984.21343
-308.12566 -3.33929 -531.74618 1986.19132
-310.03835 -3.35421 -531.26814 1988.16296
-311.93957 -3.36558 -530.74418 1990.13513
-313.83580 -3.37317 -530.17699 1992.11442
-315.72801 -3.37715 -529.56468 1994.10328
-317.61301 -3.37814 -528.90416 1996.10072
-319.48614 -3.37740 -528.19349 1998.10419
-321.34309 -3.37644 -527.43311 2000.11084
-323.18034 -3.37629 -526.62540 2002.11785
-324.99430 -3.37752 -525.77327 2004.12204
-326.77982 -3.38026 -524.87899 2006.11905
-328.52838 -3.38402 -523.94249 2008.10269
-330.22828 -3.38791 -522.95985 2010.06627
-331.87089 -3.39122 -521.92197 2012.00945
-333.45901 -3.39372 -520.81134 2013.94760
-334.99865 -3.39539 -519.61077 2015.90023
-336.48971 -3.39620 -518.31592 2017.87526
-337.93018 -3.39610 -516.93195 2019.87304
-339.31351 -3.39510 -515.46479 2021.88973
-340.62170 -3.39351 -513.92570 2023.90991
-341.83267 -3.39172 -512.33194 2025.91181
-342.93404 -3.38983 -510.69364 2027.88618
-343.92904 -3.38748 -509.00840 2029.84351
-344.83281 -3.38424 -507.26420 2031.80818
-345.65747 -3.38013 -505.45455 2033.79707
-346.40476 -3.37563 -503.58827 2035.80758
-347.07297 -3.37128 -501.68137 2037.82833
-347.65952 -3.36742 -499.75011 2039.84684
-348.16258 -3.36392 -497.80800 2041.85319
-348.58589 -3.36013 -495.86418 2043.84269
-348.94205 -3.35495 -493.92057 2045.81873
-349.24917 -3.34747 -491.96950 2047.79388
-349.51768 -3.33760 -490.00168 2049.78000
-349.74569 -3.32601 -488.01899 2051.77583
-349.93364 -3.31367 -486.02740 2053.77633
-350.09131 -3.30124 -484.03173 2055.77828
-350.23241 -3.28910 -482.03466 2057.78036
-350.36726 -3.27735 -480.03745 2059.78215
-350.50095 -3.26587 -478.04049 2061.78362
-350.63504 -3.25448 -476.04373 2063.78490
-350.76943 -3.24304 -474.04705 2065.78613
-350.90365 -3.23151 -472.05033 2067.78739
-351.03735 -3.21990 -470.05357 2069.78866
-351.17039 -3.20823 -468.05682 2071.78987
-351.30268 -3.19652 -466.06025 2073.79085
-351.43375 -3.18479 -464.06403 2075.79140
-351.56256 -3.17303 -462.06814 2077.79148
-351.68810 -3.16126 -460.07231 2079.79129
-351.81059 -3.14951 -458.07635 2081.79104
-351.93148 -3.13774 -456.08026 2083.79083
-352.05231 -3.12596 -454.08412 2085.79065
-352.17436 -3.11415 -452.08808 2087.79045
-352.29876 -3.10230 -450.09227 2089.79018
-352.42695 -3.09047 -448.09682 2091.78977
-352.56066 -3.07871 -446.10183 2093.78927
-352.70024 -3.06701 -444.10721 2095.78880
-352.84363 -3.05538 -442.11257 2097.78863
-352.98841 -3.04380 -440.11751 2099.78896
-353.13331 -3.03227 -438.12227 2101.78950
-353.27849 -3.02068 -436.12835 2103.78872
-353.42598 -3.00878 -434.13969 2105.78288
-353.58079 -2.99616 -432.16213 2107.76654
-353.75190 -2.98237 -430.19775 2109.73841
-353.95162 -2.96709 -428.23875 2111.70765
-354.19273 -2.95030 -426.27446 2113.68680
-354.48669 -2.93210 -424.29749 2115.68566
-354.84264 -2.91247 -422.30594 2117.70893
-355.26638 -2.89123 -420.31075 2119.74884
-355.75858 -2.86843 -418.34640 2121.77417
-356.32129 -2.84440 -416.43817 2123.76393
-356.96061 -2.81978 -414.57908 2125.73020
-357.67754 -2.79554 -412.75362 2127.69169
-358.46349 -2.77280 -410.96312 2129.64734
-359.31036 -2.75211 -409.21181 2131.59287
-360.21707 -2.73335 -407.49508 2133.53453
-361.18967 -2.71603 -405.79859 2135.49022
-362.23770 -2.69964 -404.10634 2137.48088
-363.37046 -2.68380 -402.40786 2139.52259
-364.58465 -2.66825 -400.71428 2141.60662
-365.84621 -2.65317 -399.07847 2143.67256
-367.12700 -2.63872 -397.54123 2145.67362
-368.42725 -2.62489 -396.10160 2147.61369
-369.77702 -2.61156 -394.72154 2149.54426
-371.18959 -2.59894 -393.38046 2151.49218
-372.65312 -2.58748 -392.08474 2153.44700
-374.15601 -2.57746 -390.84087 2155.39798
-375.69559 -2.56855 -389.64638 2157.34669
-377.27336 -2.56013 -388.49497 2159.30000
-378.89002 -2.55181 -387.38717 2161.25990
-380.55311 -2.54369 -386.32988 2163.23076
-382.27985 -2.53643 -385.33102 2165.22577
-384.07536 -2.53085 -384.40580 2167.24588
-385.93187 -2.52741 -383.56901 2169.28250
-387.83530 -2.52601 -382.82627 2171.32591
-389.76766 -2.52616 -382.17290 2173.36590
-391.70353 -2.52737 -381.60111 2175.38455
-393.62504 -2.52928 -381.10474 2177.36923
-395.53749 -2.53169 -380.67985 2179.32842
-397.45802 -2.53457 -380.32401 2181.28174
-399.40172 -2.53812 -380.03666 2183.24668
-401.37323 -2.54270 -379.82026 2185.23016
-403.36837 -2.54860 -379.67918 2187.23041
-405.37857 -2.55571 -379.61702 2189.24172
-407.39410 -2.56352 -379.63387 2191.25746
-409.40553 -2.57134 -379.72487 2193.27107
-411.40428 -2.57868 -379.88182 2195.27607
-413.38274 -2.58538 -380.09751 2197.26633
-415.33482 -2.59151 -380.36815 2199.23716
-417.25821 -2.59750 -380.69240 2201.18777
-419.15785 -2.60398 -381.06934 2203.12452
-421.04665 -2.61173 -381.49857 2205.06155
-422.93713 -2.62138 -381.98219 2207.01300
-424.83271 -2.63331 -382.52564 2208.98506
-426.72801 -2.64715 -383.13621 2210.97642
-428.61285 -2.66216 -383.82050 2212.98181
-430.47632 -2.67747 -384.58124 2214.99478
-432.30896 -2.69271 -385.41578 2217.00867
-434.10128 -2.70800 -386.32026 2219.01648
-435.84250 -2.72362 -387.29281 2221.01112
-437.52312 -2.73974 -388.33113 2222.98684
-439.13828 -2.75622 -389.43219 2224.94183
-440.68986 -2.77286 -390.59599 2226.88161
-442.18607 -2.78965 -391.82776 2228.81987
-443.63538 -2.80681 -393.13349 2230.77085
-445.04132 -2.82453 -394.51331 2232.74098
-446.40490 -2.84303 -395.96000 2234.72921
-447.72760 -2.86258 -397.46175 2236.73058
-449.01039 -2.88338 -399.00693 2238.73902
-450.25002 -2.90535 -400.58821 2240.74847
-451.43778 -2.92768 -402.20246 2242.75283
-452.56183 -2.94911 -403.84795 2244.74582
-453.61195 -2.96855 -405.52140 2246.72170
-454.58384 -2.98598 -407.21832 2248.67744
-455.47965 -3.00235 -408.93782 2250.61649
-456.30580 -3.01887 -410.68794 2252.55200
-457.06854 -3.03641 -412.48332 2254.50289
-457.76977 -3.05518 -414.33623 2256.48427
-458.40634 -3.07481 -416.25066 2258.50200
-458.96965 -3.09452 -418.21304 2260.54388
-459.44896 -3.11366 -420.19513 2262.58334
-459.83951 -3.13205 -422.17920 2264.60573
-460.14216 -3.14982 -424.15582 2266.60560
-460.36334 -3.16725 -426.12573 2268.58809
-460.51287 -3.18467 -428.09798 2270.56617
-460.59817 -3.20229 -430.07122 2272.54141
-460.62293 -3.22031 -432.04454 2274.51505
-460.58754 -3.23908 -434.02486 2276.49585
-460.48764 -3.25883 -436.01852 2278.49221
-460.31527 -3.27955 -438.02421 2280.50551
-460.06506 -3.30084 -440.03540 2282.53244
-459.73920 -3.32202 -442.04429 2284.56781
-459.34644 -3.34227 -444.04388 2286.60579
-458.89490 -3.36108 -446.02753 2288.64034
-458.38621 -3.37848 -447.98771 2290.66560
-457.81939 -3.39463 -449.91670 2292.67630
-457.19679 -3.40996 -451.80945 2294.66896
-456.52607 -3.42505 -453.66763 2296.64460
-455.81771 -3.44027 -455.50290 2298.61191
-455.07876 -3.45582 -457.33312 2300.58575
-454.31342 -3.47185 -459.16836 2302.57425
-453.52922 -3.48835 -461.00726 2304.57346
-452.73400 -3.50524 -462.84616 2306.57701
-451.93246 -3.52243 -464.68299 2308.58118
-451.12716 -3.53987 -466.51757 2310.58480
-450.31896 -3.55746 -468.35031 2312.58790
-449.50773 -3.57509 -470.18142 2314.59075
-448.69322 -3.59257 -472.01100 2316.59352
-447.87534 -3.60989 -473.83910 2318.59631
-447.05407 -3.62708 -475.66572 2320.59914
-446.22934 -3.64424 -477.49082 2322.60201
-445.40108 -3.66142 -479.31437 2324.60491
-444.56945 -3.67863 -481.13633 2326.60777
-443.73502 -3.69587 -482.95674 2328.61038
-442.89904 -3.71310 -484.77575 2330.61238
-442.06276 -3.73031 -486.59367 2332.61350
-441.22675 -3.74747 -488.41090 2334.61388
-440.39102 -3.76459 -490.22787 2336.61391
-439.55543 -3.78170 -492.04480 2338.61385
-438.71990 -3.79880 -493.86179 2340.61381
-437.88439 -3.81590 -495.67882 2342.61380
-437.04892 -3.83301 -497.49589 2344.61381
-436.21345 -3.85010 -499.31298 2346.61384
-435.37800 -3.86720 -501.13008 2348.61387
-434.54255 -3.88429 -502.94716 2350.61388
-433.70711 -3.90139 -504.76424 2352.61389
-432.87168 -3.91850 -506.58134 2354.61392
-432.03632 -3.93562 -508.39848 2356.61395
-431.20108 -3.95274 -510.21566 2358.61396
-430.36605 -3.96987 -512.03292 2360.61396
-429.53129 -3.98701 -513.85028 2362.61393
-428.69680 -4.00415 -515.66776 2364.61392
-427.86252 -4.02128 -517.48540 2366.61395
-427.02844 -4.03840 -519.30322 2368.61406
-426.19453 -4.05551 -521.12123 2370.61427
-425.36079 -4.07262 -522.93943 2372.61459
-424.52723 -4.08972 -524.75779 2374.61497
-423.69384 -4.10682 -526.57626 2376.61539
-422.86059 -4.12393 -528.39482 2378.61583
-422.02744 -4.14104 -530.21344 2380.61629
-421.19436 -4.15822 -532.03212 2382.61676
-420.36127 -4.17537 -533.85081 2384.61726
-419.52801 -4.19248 -535.66943 2386.61776
-418.69405 -4.20951 -537.48776 2388.61828
-417.85847 -4.22646 -539.30534 2390.61880
-417.01987 -4.24334 -541.12150 2392.61929
-416.17620 -4.26017 -542.93526 2394.61975
-415.32537 -4.27694 -544.74568 2396.62019
-414.46626 -4.29363 -546.55225 2398.62071
-413.59902 -4.31025 -548.35513 2400.62140
-412.72519 -4.32672 -550.15510 2402.62234
-411.84684 -4.34297 -551.95321 2404.62358
-410.96544 -4.35892 -553.75022 2406.62517
-410.08158 -4.37470 -555.54640 2408.62709
-409.19518 -4.39061 -557.34151 2410.62919
-408.30576 -4.40710 -559.13511 2412.63128
-407.41269 -4.42454 -560.92675 2414.63323
-406.51604 -4.44279 -562.71636 2416.63499
-405.61711 -4.46113 -564.50456 2418.63651
-404.71759 -4.47884 -566.29217 2420.63775
-403.81811 -4.49552 -568.07950 2422.63873
-402.91749 -4.51079 -569.86593 2424.63940
-402.01329 -4.52384 -571.65014 2426.63969
-401.10331 -4.53406 -573.43094 2428.63954
-400.18647 -4.54172 -575.20765 2430.63888
-399.26238 -4.54779 -576.97994 2432.63763
-398.33078 -4.55344 -578.74745 2434.63563
-397.39125 -4.55919 -580.50967 2436.63267
-396.44270 -4.56491 -582.26573 2438.62856
-395.48241 -4.57019 -584.01426 2440.62344
-394.50563 -4.57449 -585.75351 2442.61823
-393.50759 -4.57738 -587.48178 2444.61398
-392.48682 -4.57867 -589.19851 2446.61128
-391.44673 -4.57848 -590.90549 2448.61017
-390.39204 -4.57716 -592.60505 2450.61040
-389.32397 -4.57503 -594.29740 2452.61161
-388.24078 -4.57235 -595.98094 2454.61352
-387.14068 -4.56921 -597.65409 2456.61595
-386.02347 -4.56572 -599.31624 2458.61868
-384.89079 -4.56205 -600.96799 2460.62150
-383.74539 -4.55846 -602.61074 2462.62415
-382.58950 -4.55514 -604.24559 2464.62636
-381.42381 -4.55205 -605.87266 2466.62790
-380.24762 -4.54896 -607.49101 2468.62854
-379.05950 -4.54555 -609.09914 2470.62797
-377.85818 -4.54170 -610.69551 2472.62587
-376.64313 -4.53741 -612.27930 2474.62206
-375.41450 -4.53275 -613.85087 2476.61691
-374.17290 -4.52773 -615.41209 2478.61166
-372.91987 -4.52220 -616.96563 2480.60756
-371.65776 -4.51565 -618.51399 2482.60515
-370.38898 -4.50757 -620.05907 2484.60444
-369.11527 -4.49762 -621.60206 2486.60525
-367.83750 -4.48592 -623.14340 2488.60739
-366.55584 -4.47277 -624.68304 2490.61071
-365.26998 -4.45858 -626.22052 2492.61509
-363.97859 -4.44377 -627.75447 2494.62030
-362.67892 -4.42859 -629.28207 2496.62604
-361.36738 -4.41323 -630.79963 2498.63188
-360.04162 -4.39799 -632.30440 2500.63743
-358.70153 -4.38327 -633.79556 2502.64233
-357.34851 -4.36959 -635.27369 2504.64626
-355.98399 -4.35742 -636.73953 2506.64896
-354.60852 -4.34714 -638.19341 2508.65041
-353.22169 -4.33894 -639.63541 2510.65110
-351.82217 -4.33278 -641.06528 2512.65190
-350.40863 -4.32832 -642.48194 2514.65318
-348.98035 -4.32512 -643.88429 2516.65484
-347.53731 -4.32266 -645.27179 2518.65672
-346.08021 -4.32063 -646.64466 2520.65871
-344.61061 -4.31888 -648.00426 2522.66077
-343.13105 -4.31740 -649.35297 2524.66280
-341.64383 -4.31603 -650.69280 2526.66455
-340.15005 -4.31458 -652.02429 2528.66561
-338.64995 -4.31312 -653.34721 2530.66572
-337.14318 -4.31214 -654.66150 2532.66515
-335.62900 -4.31225 -655.96707 2534.66447
-334.10639 -4.31355 -657.26318 2536.66403
-332.57411 -4.31540 -658.54834 2538.66391
-331.03116 -4.31686 -659.82109 2540.66407
-329.47755 -4.31725 -661.08079 2542.66421
-327.91439 -4.31647 -662.32740 2544.66360
-326.34328 -4.31475 -663.56069 2546.66095
-324.76548 -4.31246 -664.78066 2548.65539
-323.18051 -4.31004 -665.98896 2550.64841
-321.58692 -4.30794 -667.18795 2552.64268
-319.98351 -4.30667 -668.37864 2554.63986
-318.36894 -4.30648 -669.55963 2556.64025
-316.74275 -4.30707 -670.72830 2558.64282
-315.10599 -4.30790 -671.88400 2560.64649
-313.45934 -4.30829 -673.02694 2562.65093
-311.80158 -4.30775 -674.15487 2564.65603
-310.13116 -4.30626 -675.26488 2566.66164
-308.44802 -4.30404 -676.35573 2568.66738
-306.75303 -4.30137 -677.42732 2570.67270
-305.04781 -4.29830 -678.48037 2572.67688
-303.33403 -4.29468 -679.51581 2574.67919
-301.61217 -4.29033 -680.53366 2576.67941
-299.88103 -4.28511 -681.53242 2578.67801
-298.13896 -4.27927 -682.50825 2580.67480
-296.38446 -4.27353 -683.45645 2582.66916
-294.61691 -4.26870 -684.37443 2584.66089
-292.83654 -4.26516 -685.26217 2586.65035
-291.04438 -4.26278 -686.11886 2588.63677
-289.24130 -4.26094 -686.94407 2590.61973
-287.42341 -4.25905 -687.74207 2592.60508
-285.58688 -4.25657 -688.51532 2594.59777
-283.73081 -4.25286 -689.26105 2596.59809
-281.85507 -4.24741 -689.97569 2598.60538
-279.95990 -4.24035 -690.65884 2600.61996
-278.04581 -4.23253 -691.31430 2602.64320
-276.11457 -4.22517 -691.94871 2604.67599
-274.17224 -4.21919 -692.56741 2606.71450
-272.23315 -4.21459 -693.16914 2608.74482
-270.30541 -4.21079 -693.75040 2610.75829
-268.38556 -4.20717 -694.30936 2612.75786
-266.46823 -4.20356 -694.84506 2614.74864
-264.54893 -4.20020 -695.35727 2616.73513
-262.62334 -4.19743 -695.84667 2618.72195
-260.68786 -4.19551 -696.31417 2620.71311
-258.74225 -4.19452 -696.75961 2622.70907
-256.78838 -4.19404 -697.18252 2624.70820
-254.82803 -4.19361 -697.58321 2626.70908
-252.86243 -4.19279 -697.96267 2628.71098
-250.89240 -4.19066 -698.32259 2630.71364
-248.91874 -4.18606 -698.66587 2632.71693
-246.94234 -4.17808 -698.99612 2634.72076
-244.96375 -4.16683 -699.31536 2636.72497
-242.98314 -4.15328 -699.62327 2638.72942
-241.00053 -4.13902 -699.91879 2640.73399
-239.01606 -4.12512 -700.20177 2642.73858
-237.03016 -4.11184 -700.47373 2644.74306
-235.04348 -4.09896 -700.73802 2646.74729
-233.05677 -4.08614 -700.99876 2648.75108
-231.07056 -4.07339 -701.25884 2650.75428
-229.08516 -4.06093 -701.51924 2652.75672
-227.10076 -4.04908 -701.77994 2654.75821
-225.11729 -4.03796 -702.04066 2656.75877
-223.13429 -4.02733 -702.30106 2658.75882
-221.15143 -4.01687 -702.56089 2660.75866
-219.16852 -4.00643 -702.82007 2662.75847
-217.18544 -3.99596 -703.07853 2664.75834
-215.20220 -3.98544 -703.33633 2666.75830
-213.21884 -3.97490 -703.59351 2668.75830
-211.23536 -3.96433 -703.85006 2670.75832
-209.25180 -3.95370 -704.10591 2672.75834
-207.26816 -3.94302 -704.36107 2674.75836
-205.28441 -3.93230 -704.61548 2676.75838
-203.30056 -3.92154 -704.86911 2678.75841
-201.31660 -3.91076 -705.12200 2680.75845
-199.33252 -3.89999 -705.37412 2682.75852
-197.34833 -3.88926 -705.62545 2684.75858
-195.36405 -3.87855 -705.87595 2686.75864
-193.37968 -3.86780 -706.12568 2688.75869
-191.39520 -3.85695 -706.37461 2690.75876
-189.41059 -3.84603 -706.62269 2692.75884
-187.42585 -3.83507 -706.86984 2694.75894
-185.44100 -3.82409 -707.11610 2696.75904
-183.45609 -3.81309 -707.36170 2698.75912
-181.47114 -3.80208 -707.60695 2700.75919
-179.48619 -3.79107 -707.85201 2702.75924
-177.50127 -3.78006 -708.09696 2704.75925
-175.51635 -3.76904 -708.34180 2706.75925
-173.53142 -3.75800 -708.58653 2708.75923
-171.54648 -3.74696 -708.83115 2710.75922
-169.56151 -3.73591 -709.07566 2712.75923
-167.57651 -3.72485 -709.32009 2714.75924
-165.59151 -3.71378 -709.56444 2716.75925
-163.60652 -3.70271 -709.80874 2718.75925
-161.62152 -3.69163 -710.05300 2720.75926
-159.63652 -3.68056 -710.29718 2722.75925
-157.65152 -3.66948 -710.54124 2724.75923
-155.66651 -3.65840 -710.78517 2726.75920
-153.68147 -3.64730 -711.02900 2728.75919
-151.69642 -3.63617 -711.27276 2730.75918
-149.71137 -3.62499 -711.51649 2732.75917
-147.72633 -3.61373 -711.76021 2734.75915
-145.74128 -3.60242 -712.00391 2736.75913
-143.75623 -3.59113 -712.24755 2738.75912
-141.77115 -3.57991 -712.49107 2740.75910
-139.78607 -3.56871 -712.73446 2742.75908
-137.80097 -3.55753 -712.97771 2744.75906
-135.81584 -3.54633 -713.22084 2746.75906
-133.83065 -3.53510 -713.46383 2748.75910
-131.84541 -3.52385 -713.70668 2750.75917
-129.86014 -3.51255 -713.94939 2752.75925
-127.87487 -3.50119 -714.19196 2754.75932
-125.88959 -3.48974 -714.43441 2756.75938
-123.90430 -3.47822 -714.67676 2758.75944
-121.91899 -3.46670 -714.91904 2760.75951
-119.93369 -3.45518 -715.16130 2762.75957
-117.94839 -3.44364 -715.40355 2764.75963
-115.96309 -3.43203 -715.64587 2766.75969
-113.97780 -3.42037 -715.88831 2768.75977
-111.99254 -3.40877 -716.13099 2770.75984
-110.00733 -3.39725 -716.37402 2772.75990
-108.02218 -3.38581 -716.61746 2774.75996
-106.03709 -3.37444 -716.86149 2776.76003
-104.05209 -3.36311 -717.10640 2778.76010
-102.06723 -3.35179 -717.35235 2780.76017
-100.08250 -3.34046 -717.59932 2782.76025
-98.09783 -3.32915 -717.84699 2784.76035
-96.11317 -3.31786 -718.09488 2786.76046
-94.12850 -3.30651 -718.34263 2788.76056
-92.14380 -3.29516 -718.58999 2790.76065
-90.15904 -3.28382 -718.83677 2792.76072
-88.17420 -3.27246 -719.08302 2794.76082
-86.18928 -3.26112 -719.32897 2796.76094
-84.20433 -3.24977 -719.57477 2798.76109
-82.21935 -3.23843 -719.82032 2800.76123
-80.23427 -3.22712 -720.06514 2802.76139
-78.24899 -3.21578 -720.30831 2804.76153
-76.26340 -3.20439 -720.54866 2806.76164
-74.27744 -3.19297 -720.78558 2808.76172
-72.29118 -3.18153 -721.01975 2810.76177
-70.30478 -3.17009 -721.25266 2812.76181
-68.31836 -3.15865 -721.48536 2814.76185
-66.33194 -3.14717 -721.71816 2816.76190
-64.34553 -3.13562 -721.95103 2818.76195
-62.35912 -3.12401 -722.18388 2820.76198
-60.37274 -3.11234 -722.41670 2822.76200
-58.38638 -3.10060 -722.64946 2824.76199
-56.40001 -3.08875 -722.88212 2826.76197
-54.41363 -3.07679 -723.11466 2828.76195
-52.42723 -3.06478 -723.34709 2830.76194
-50.44082 -3.05273 -723.57948 2832.76193
-48.45441 -3.04062 -723.81189 2834.76193
-46.46802 -3.02846 -724.04444 2836.76192
-44.48168 -3.01632 -724.27719 2838.76189
-42.49537 -3.00418 -724.51018 2840.76185
-40.50911 -2.99205 -724.74347 2842.76181
-38.52290 -2.97994 -724.97711 2844.76175
-36.53675 -2.96782 -725.21113 2846.76167
-34.55064 -2.95571 -725.44550 2848.76160
-32.56457 -2.94359 -725.68022 2850.76152
-30.57854 -2.93148 -725.91524 2852.76145
-28.59255 -2.91940 -726.15053 2854.76137
-26.60658 -2.90736 -726.38599 2856.76128
-24.62059 -2.89530 -726.62139 2858.76121
-22.63457 -2.88323 -726.85655 2860.76114
-20.64853 -2.87115 -727.09157 2862.76108
-18.66253 -2.85902 -727.32706 2864.76103
-16.67667 -2.84688 -727.56368 2866.76097
-14.69099 -2.83473 -727.80190 2868.76093
-12.70550 -2.82259 -728.04195 2870.76091
-10.72021 -2.81048 -728.28394 2872.76093
-8.73511 -2.79838 -728.52762 2874.76097
-6.75011 -2.78626 -728.77223 2876.76102
-4.76505 -2.77413 -729.01639 2878.76107
-2.77976 -2.76196 -729.25845 2880.76111
-0.79411 -2.74971 -729.49718 2882.76110
1.19194 -2.73739 -729.73226 2884.76105
3.17837 -2.72503 -729.96424 2886.76101
5.16508 -2.71262 -730.19432 2888.76104
7.15194 -2.70021 -730.42372 2890.76114
9.13885 -2.68780 -730.65307 2892.76128
11.12576 -2.67538 -730.88252 2894.76143
13.11267 -2.66298 -731.11207 2896.76159
15.09957 -2.65057 -731.34162 2898.76175
17.08646 -2.63816 -731.57116 2900.76190
19.07336 -2.62574 -731.80070 2902.76205
21.06027 -2.61329 -732.03025 2904.76221
23.04717 -2.60082 -732.25978 2906.76236
25.03407 -2.58833 -732.48929 2908.76252
27.02098 -2.57586 -732.71873 2910.76267
29.00790 -2.56340 -732.94809 2912.76282
30.99482 -2.55095 -733.17740 2914.76297
32.98176 -2.53849 -733.40669 2916.76313
34.96869 -2.52599 -733.63603 2918.76329
36.95561 -2.51348 -733.86536 2920.76345
38.94257 -2.50097 -734.09437 2922.76360
40.92965 -2.48844 -734.32228 2924.76375
42.91698 -2.47589 -734.54795 2926.76388
44.90461 -2.46330 -734.77065 2928.76399
46.89251 -2.45068 -734.99065 2930.76407
48.88059 -2.43807 -735.20881 2932.76412
50.86877 -2.42545 -735.42589 2934.76416
52.85700 -2.41282 -735.64247 2936.76419
54.84524 -2.40020 -735.85888 2938.76421
56.83348 -2.38757 -736.07528 2940.76423
58.82172 -2.37491 -736.29183 2942.76427
60.80992 -2.36224 -736.50876 2944.76431
62.79807 -2.34959 -736.72617 2946.76436
64.78619 -2.33695 -736.94397 2948.76441
66.77425 -2.32432 -737.16214 2950.76444
68.76224 -2.31169 -737.38071 2952.76445
70.75018 -2.29904 -737.59968 2954.76445
72.73809 -2.28638 -737.81887 2956.76446
74.72599 -2.27373 -738.03821 2958.76446
76.71382 -2.26105 -738.25813 2960.76446
78.70150 -2.24837 -738.47954 2962.76447
80.68894 -2.23566 -738.70339 2964.76452
82.67611 -2.22293 -738.92983 2966.76459
84.66311 -2.21022 -739.15814 2968.76470
86.65005 -2.19755 -739.38743 2970.76487
88.63705 -2.18489 -739.61701 2972.76512
90.62418 -2.17222 -739.84653 2974.76551
92.61147 -2.15953 -740.07595 2976.76604
94.59882 -2.14681 -740.30539 2978.76663
96.58618 -2.13411 -740.53522 2980.76727
98.57347 -2.12152 -740.76581 2982.76794
100.56069 -2.10909 -740.99730 2984.76863
102.54786 -2.09682 -741.22936 2986.76934
104.53503 -2.08450 -741.46147 2988.77006
106.52224 -2.07203 -741.69337 2990.77079
108.50948 -2.05954 -741.92496 2992.77152
110.49674 -2.04709 -742.15619 2994.77224
112.48405 -2.03465 -742.38691 2996.77293
114.47145 -2.02207 -742.61687 2998.77362
116.45894 -2.00930 -742.84579 3000.77430
118.44656 -1.99642 -743.07337 3002.77494
120.43433 -1.98350 -743.29911 3004.77554
122.42235 -1.97054 -743.52193 3006.77604
124.41076 -1.95752 -743.73967 3008.77639
126.39982 -1.94432 -743.94955 3010.77654
128.38975 -1.93077 -744.14971 3012.77655
130.38060 -1.91682 -744.34041 3014.77656
132.37233 -1.90280 -744.52390 3016.77678
134.36484 -1.88908 -744.70292 3018.77736
136.35806 -1.87556 -744.87818 3020.77831
138.35201 -1.86210 -745.04783 3022.77952
140.34679 -1.84866 -745.20943 3024.78088
142.34242 -1.83530 -745.36158 3026.78235
144.33890 -1.82207 -745.50351 3028.78392
146.33628 -1.80877 -745.63382 3030.78559
148.33461 -1.79511 -745.75073 3032.78738
150.33386 -1.78096 -745.85446 3034.78938
152.33389 -1.76639 -745.94742 3036.79162
154.33461 -1.75155 -746.03068 3038.79413
156.33602 -1.73660 -746.10222 3040.79688
158.33792 -1.72178 -746.15908 3042.79964
160.33951 -1.70725 -746.19985 3044.80171
162.33938 -1.69257 -746.22602 3046.80180
164.33643 -1.67744 -746.24071 3048.79897
166.33166 -1.66199 -746.24607 3050.79427
168.32760 -1.64709 -746.24094 3052.79028
170.32591 -1.63398 -746.22058 3054.78874
172.32668 -1.62378 -746.17778 3056.79001
174.32866 -1.61702 -746.10478 3058.79335
176.32941 -1.61325 -745.99340 3060.79725
178.32573 -1.61122 -745.83596 3062.79981
180.31397 -1.60924 -745.62911 3064.79884
182.29030 -1.60563 -745.37328 3066.79171
184.25107 -1.59943 -745.06903 3068.77601
186.19454 -1.59079 -744.71455 3070.75162
188.12369 -1.58075 -744.30599 3072.72366
190.04432 -1.57070 -743.84195 3074.69964
191.96010 -1.56168 -743.32636 3076.68366
193.87187 -1.55395 -742.76576 3078.67598
195.77839 -1.54714 -742.16523 3080.67488
197.67704 -1.54047 -741.52640 3082.67816
199.56412 -1.53320 -740.84737 3084.68375
201.43522 -1.52502 -740.12443 3086.68972
203.28642 -1.51618 -739.35633 3088.69402
205.11560 -1.50721 -738.54771 3090.69401
206.92218 -1.49859 -737.70664 3092.68683
208.70637 -1.49031 -736.83787 3094.67133
210.47122 -1.48200 -735.94087 3096.65110
212.22127 -1.47319 -735.01209 3098.63239
213.95834 -1.46350 -734.04825 3100.61899
215.68162 -1.45279 -733.04822 3102.61148
217.38940 -1.44107 -732.01313 3104.60852
219.07885 -1.42853 -730.94347 3106.60819
220.74692 -1.41561 -729.83958 3108.60853
222.39128 -1.40283 -728.70310 3110.60748
224.00866 -1.39042 -727.53466 3112.60285
225.59492 -1.37817 -726.33375 3114.59250
227.14785 -1.36579 -725.10154 3116.57498
228.66942 -1.35325 -723.84101 3118.55094
230.16591 -1.34099 -722.55378 3120.52494
231.64480 -1.32953 -721.23997 3122.50318
233.10978 -1.31889 -719.89931 3124.48906
234.55957 -1.30839 -718.53061 3126.48291
235.99008 -1.29724 -717.13234 3128.48335
237.39638 -1.28522 -715.70331 3130.48836
238.77377 -1.27264 -714.24306 3132.49581
240.11844 -1.26001 -712.75227 3134.50353
241.42739 -1.24773 -711.23266 3136.50924
242.69855 -1.23587 -709.68694 3138.51060
243.93079 -1.22433 -708.11804 3140.50563
245.12419 -1.21312 -706.52804 3142.49374
246.28058 -1.20207 -704.91670 3144.47715
247.40366 -1.19096 -703.28116 3146.46122
248.49720 -1.17946 -701.61908 3148.45085
249.56313 -1.16742 -699.93177 3150.44671
250.60148 -1.15494 -698.22210 3152.44707
251.61077 -1.14238 -696.49246 3154.44971
252.59029 -1.13011 -694.74533 3156.45275
253.54121 -1.11822 -692.98392 3158.45450
254.46563 -1.10645 -691.21160 3160.45347
255.36475 -1.09412 -689.43075 3162.44848
256.23681 -1.08064 -687.64095 3164.43949
257.07951 -1.06599 -685.83909 3166.42875
257.89451 -1.05080 -684.02174 3168.42055
258.68828 -1.03626 -682.18987 3170.41707
259.46844 -1.02314 -680.34849 3172.41695
260.23890 -1.01136 -678.50133 3174.41839
260.99973 -1.00003 -676.64968 3176.42029
261.75049 -0.98787 -674.79387 3178.42224
262.49278 -0.97412 -672.93465 3180.42422
263.22898 -0.95875 -671.07295 3182.42626
263.96041 -0.94230 -669.20923 3184.42843
264.68751 -0.92575 -667.34365 3186.43076
265.41031 -0.90991 -665.47627 3188.43321
266.12826 -0.89500 -663.60696 3190.43570
266.84084 -0.88054 -661.73560 3192.43820
267.54810 -0.86590 -659.86222 3194.44069
268.25116 -0.85087 -657.98729 3196.44316
268.95343 -0.83528 -656.11207 3198.44563
269.66174 -0.81938 -654.23899 3200.44823
270.38634 -0.80373 -652.37162 3202.45133
271.13825 -0.78883 -650.51368 3204.45573
271.92485 -0.77495 -648.66750 3206.46258
272.74449 -0.76214 -646.83222 3208.47263
273.58560 -0.75021 -645.00361 3210.48544
274.43516 -0.73900 -643.17705 3212.49994
275.28753 -0.72835 -641.35052 3214.51559
276.14175 -0.71784 -639.52365 3216.53233
276.99680 -0.70683 -637.69610 3218.55005
277.84971 -0.69477 -635.86681 3220.56845
278.69410 -0.68136 -634.03346 3222.58695
279.52088 -0.66676 -632.19278 3224.60485
280.32162 -0.65173 -630.34193 3226.62157
281.08907 -0.63710 -628.47890 3228.63656
281.81997 -0.62364 -626.60307 3230.64983
282.51886 -0.61152 -624.71625 3232.66198
283.19418 -0.60024 -622.82136 3234.67365
283.85102 -0.58907 -620.92020 3236.68512
284.49032 -0.57744 -619.01323 3238.69644
285.11182 -0.56508 -617.10055 3240.70761
285.71675 -0.55195 -615.18268 3242.71867
286.30855 -0.53806 -613.26076 3244.72969
286.89206 -0.52335 -611.33629 3246.74073
287.47136 -0.50793 -609.41048 3248.75184
288.04786 -0.49219 -607.48379 3250.76300
288.62040 -0.47650 -605.55591 3252.77415
289.18601 -0.46107 -603.62612 3254.78519
289.74157 -0.44590 -601.69362 3256.79602
290.28615 -0.43079 -599.75824 3258.80661
290.82139 -0.41550 -597.82053 3260.81695
291.34938 -0.39989 -595.88111 3262.82702
291.87079 -0.38412 -593.94021 3264.83680
292.38565 -0.36866 -591.99790 3266.84625
292.89411 -0.35400 -590.05442 3268.85520
293.39653 -0.34031 -588.11015 3270.86338
293.89348 -0.32733 -586.16555 3272.87051
294.38606 -0.31449 -584.22071 3274.87680
294.87559 -0.30123 -582.27546 3276.88275
295.36309 -0.28723 -580.32971 3278.88869
295.84896 -0.27244 -578.38344 3280.89475
296.33343 -0.25700 -576.43669 3282.90094
296.81673 -0.24133 -574.48953 3284.90724
297.29908 -0.22594 -572.54203 3286.91364
297.78052 -0.21089 -570.59424 3288.92011
298.26034 -0.19606 -568.64599 3290.92662
298.73633 -0.18136 -566.69680 3292.93315
299.20470 -0.16673 -564.74583 3294.93960
299.66129 -0.15227 -562.79222 3296.94592
300.10340 -0.13801 -560.83543 3298.95209
300.53085 -0.12359 -558.87549 3300.95816
300.94566 -0.10871 -556.91293 3302.96413
301.35078 -0.09346 -554.94846 3304.97000
301.74955 -0.07833 -552.98283 3306.97573
302.14533 -0.06377 -551.01676 3308.98129
302.53997 -0.04989 -549.05060 3310.98671
302.93344 -0.03637 -547.08424 3312.99209
303.32487 -0.02277 -545.11740 3314.99755
303.71413 -0.00885 -543.15004 3317.00311
304.10245 0.00523 -541.18241 3319.00874
304.49166 0.01921 -539.21488 3321.01444
304.88309 0.03287 -537.24771 3323.02022
305.27687 0.04635 -535.28092 3325.02609
305.67230 0.06005 -533.31436 3327.03206
306.06848 0.07427 -531.34788 3329.03810
306.46499 0.08899 -529.38137 3331.04424
306.86157 0.10390 -527.41479 3333.05047
307.25772 0.11852 -525.44804 3335.05677
307.65228 0.13267 -523.48091 3337.06313
308.04352 0.14650 -521.51311 3339.06950
308.43038 0.16022 -519.54446 3341.07584
308.81378 0.17400 -517.57516 3343.08217
309.19536 0.18782 -515.60550 3345.08850
309.57573 0.20161 -513.63560 3347.09483
309.95399 0.21539 -511.66533 3349.10113
310.32797 0.22927 -509.69436 3351.10732
310.69571 0.24348 -507.72238 3353.11334
311.05692 0.25824 -505.74940 3355.11917
311.41250 0.27360 -503.77558 3357.12482
311.76225 0.28937 -501.80093 3359.13026
312.10353 0.30528 -499.82510 3361.13542
312.43326 0.32105 -497.84768 3363.14021
312.75073 0.33653 -495.86864 3365.14461
313.05829 0.35158 -493.88840 3367.14865
313.35900 0.36597 -491.90749 3369.15231
313.65363 0.37953 -489.92605 3371.15558
313.94159 0.39257 -487.94399 3373.15849
314.22333 0.40587 -485.96130 3375.16114
314.50071 0.42025 -483.97806 3377.16374
314.77565 0.43620 -481.99443 3379.16640
315.04909 0.45349 -480.01048 3381.16918
315.32115 0.47130 -478.02621 3383.17209
315.59133 0.48860 -476.04157 3385.17511
315.85829 0.50452 -474.05639 3387.17822
316.11984 0.51886 -472.07043 3389.18139
316.37362 0.53200 -470.08342 3391.18458
316.61776 0.54459 -468.09515 3393.18783
316.85137 0.55712 -466.10554 3395.19114
317.07553 0.56961 -464.11478 3397.19452
317.29266 0.58189 -462.12321 3399.19794
317.50406 0.59402 -460.13101 3401.20136
317.70924 0.60630 -458.13817 3403.20478
317.90752 0.61885 -456.14461 3405.20821
318.09889 0.63146 -454.15035 3407.21167
318.28335 0.64351 -452.15537 3409.21520
318.45988 0.65453 -450.15947 3411.21891
318.62724 0.66450 -448.16246 3413.22295
318.78619 0.67381 -446.16450 3415.22725
318.93898 0.68281 -444.16601 3417.23160
319.08720 0.69159 -442.16725 3419.23586
319.23106 0.70001 -440.16830 3421.24000
319.36971 0.70783 -438.16912 3423.24400
319.50270 0.71498 -436.16968 3425.24787
319.63048 0.72154 -434.17005 3427.25159
319.75288 0.72779 -432.17024 3429.25515
319.86834 0.73406 -430.17012 3431.25861
319.97482 0.74056 -428.16952 3433.26206
320.07128 0.74730 -426.16839 3435.26553
320.15839 0.75407 -424.16684 3437.26898
320.23784 0.76063 -422.16511 3439.27230
320.31048 0.76690 -420.16330 3441.27544
320.37599 0.77295 -418.16138 3443.27844
320.43470 0.77904 -416.15932 3445.28137
320.48817 0.78541 -414.15707 3447.28435
320.53857 0.79207 -412.15459 3449.28747
320.58798 0.79870 -410.15202 3451.29066
320.63744 0.80486 -408.14949 3453.29381
320.68696 0.81014 -406.14701 3455.29691
320.73627 0.81437 -404.14457 3457.29997
320.78573 0.81756 -402.14218 3459.30297
320.83724 0.81976 -400.14000 3461.30581
320.89522 0.82084 -398.13849 3463.30817
320.96568 0.82030 -396.13839 3465.30950
321.05287 0.81746 -394.14046 3467.30935
321.15703 0.81224 -392.14477 3469.30777
321.27615 0.80498 -390.15018 3471.30592
321.40737 0.79649 -388.15571 3473.30473
321.54715 0.78767 -386.16123 3475.30412
321.69141 0.77895 -384.16677 3477.30381
321.83709 0.77037 -382.17231 3479.30360
321.98315 0.76189 -380.17786 3481.30341
322.12984 0.75344 -378.18345 3483.30322
322.27788 0.74499 -376.18913 3485.30305
322.42786 0.73654 -374.19492 3487.30291
322.57974 0.72806 -372.20081 3489.30282
322.73302 0.71957 -370.20676 3491.30277
322.88720 0.71106 -368.21271 3493.30278
323.04203 0.70252 -366.21865 3495.30286
323.19746 0.69396 -364.22459 3497.30300
323.35346 0.68538 -362.23050 3499.30319
323.50997 0.67684 -360.23640 3501.30345
323.66684 0.66844 -358.24225 3503.30377
323.82390 0.66028 -356.24805 3505.30416
323.98104 0.65230 -354.25379 3507.30462
324.13825 0.64420 -352.25951 3509.30510
324.29553 0.63587 -350.26530 3511.30553
324.45288 0.62739 -348.27119 3513.30586
324.61027 0.61884 -346.27712 3515.30614
324.76772 0.61028 -344.28307 3517.30641
324.92524 0.60171 -342.28905 3519.30666
325.08285 0.59314 -340.29508 3521.30688
325.24054 0.58460 -338.30112 3523.30708
325.39827 0.57615 -336.30714 3525.30730
325.55594 0.56790 -334.31316 3527.30753
325.71359 0.55988 -332.31917 3529.30775
325.87144 0.55192 -330.32521 3531.30797
326.02972 0.54390 -328.33129 3533.30818
326.18837 0.53558 -326.33740 3535.30839
326.34713 0.52709 -324.34354 3537.30858
326.50579 0.51849 -322.34967 3539.30876
326.66425 0.50989 -320.35579 3541.30895
326.82250 0.50131 -318.36190 3543.30913
326.98052 0.49275 -316.36800 3545.30931
327.13833 0.48419 -314.37407 3547.30949
327.29594 0.47564 -312.38013 3549.30966
327.45336 0.46709 -310.38619 3551.30982
327.61061 0.45854 -308.39225 3553.30997
327.76770 0.44999 -306.39832 3555.31010
327.92462 0.44144 -304.40438 3557.31022
328.08139 0.43289 -302.41044 3559.31033
328.23799 0.42436 -300.41650 3561.31044
328.39441 0.41583 -298.42253 3563.31054
328.55066 0.40734 -296.42857 3565.31064
328.70678 0.39889 -294.43460 3567.31073
328.86291 0.39046 -292.44064 3569.31081
329.01930 0.38202 -290.44671 3571.31088
329.17628 0.37355 -288.45283 3573.31095
329.33392 0.36502 -286.45897 3575.31104
329.49200 0.35645 -284.46515 3577.31114
329.65018 0.34780 -282.47135 3579.31123
329.80867 0.33900 -280.47758 3581.31131
329.96902 0.33010 -278.48397 3583.31137
330.13450 0.32119 -276.49080 3585.31143
330.30930 0.31233 -274.49835 3587.31155
330.49653 0.30358 -272.50682 3589.31188
330.69671 0.29484 -270.51621 3591.31256
330.90858 0.28603 -268.52648 3593.31356
331.13255 0.27701 -266.53802 3595.31461
331.37034 0.26748 -264.55190 3597.31495
331.62168 0.25693 -262.56944 3599.31331
331.88376 0.24501 -260.59099 3601.30908
332.15422 0.23160 -258.61521 3603.30333
332.43217 0.21681 -256.64052 3605.29754
332.71778 0.20075 -254.66613 3607.29255
333.01169 0.18342 -252.69203 3609.28848
333.31535 0.16475 -250.71875 3611.28509
333.63185 0.14490 -248.74730 3613.28187
333.96563 0.12414 -246.77915 3615.27825
334.32108 0.10282 -244.81598 3617.27346
334.70126 0.08124 -242.85957 3619.26660
335.10819 0.05960 -240.91153 3621.25683
335.54352 0.03816 -238.97283 3623.24393
336.00920 0.01738 -237.04293 3625.22935
336.50768 -0.00270 -235.12031 3627.21567
337.04127 -0.02246 -233.20443 3629.20459
337.61053 -0.04234 -231.29578 3631.19646
338.21279 -0.06295 -229.39473 3633.19075
338.84345 -0.08464 -227.50128 3635.18660
339.49643 -0.10746 -225.61474 3637.18309
340.16507 -0.13130 -223.73396 3639.17934
340.84624 -0.15608 -221.85869 3641.17465
341.54085 -0.18173 -219.98984 3643.16857
342.25125 -0.20799 -218.12842 3645.16113
342.97989 -0.23450 -216.27473 3647.15307
343.72867 -0.26092 -214.42825 3649.14578
344.49884 -0.28692 -212.58871 3651.14022
345.29147 -0.31229 -210.75663 3653.13658
346.10740 -0.33714 -208.93303 3655.13456
346.94670 -0.36139 -207.11886 3657.13363
347.80863 -0.38511 -205.31470 3659.13327
348.69195 -0.40830 -203.52084 3661.13296
349.59535 -0.43096 -201.73747 3663.13223
350.51752 -0.45307 -199.96478 3665.13057
351.45646 -0.47448 -198.20251 3667.12749
352.40874 -0.49492 -196.44951 3669.12255
353.36978 -0.51408 -194.70344 3671.11572
354.33653 -0.53156 -192.96183 3673.10774
355.31026 -0.54732 -191.22354 3675.10024
356.29573 -0.56176 -189.48972 3677.09461
357.29914 -0.57554 -187.76432 3679.09063
358.32665 -0.58949 -186.05198 3681.08766
359.38190 -0.60414 -184.35569 3683.08547
360.46407 -0.61961 -182.67547 3685.08411
361.56827 -0.63553 -181.00869 3687.08354
362.68744 -0.65114 -179.35127 3689.08349
363.81497 -0.66581 -177.69930 3691.08364
364.94653 -0.67952 -176.05011 3693.08375
366.08031 -0.69275 -174.40249 3695.08381
367.21546 -0.70614 -172.75572 3697.08396
368.35003 -0.71981 -171.10851 3699.08414
369.47908 -0.73332 -169.45831 3701.08367
370.59337 -0.74628 -167.80118 3703.08066
371.68040 -0.75876 -166.13268 3705.07208
372.72728 -0.77126 -164.44828 3707.05539
373.72447 -0.78424 -162.73953 3709.03395
374.66774 -0.79767 -160.99595 3711.01647
375.55776 -0.81079 -159.21517 3713.00740
376.39807 -0.82262 -157.40257 3715.00541
377.18951 -0.83240 -155.56527 3717.00600
377.92868 -0.84024 -153.70923 3719.00390
378.60984 -0.84701 -151.83910 3720.99432
379.22675 -0.85419 -149.95724 3722.97481
379.77835 -0.86302 -148.06256 3724.94826
380.27186 -0.87338 -146.15085 3726.92274
380.71547 -0.88377 -144.21965 3728.90431
381.11044 -0.89232 -142.27010 3730.89355
381.45017 -0.89786 -140.30566 3732.88723
381.72507 -0.90035 -138.33107 3734.88098
381.93046 -0.90063 -136.35117 3736.87160
382.06967 -0.90013 -134.36868 3738.85905
382.14942 -0.90025 -132.38238 3740.84702
382.17574 -0.90190 -130.38977 3742.83986
382.15311 -0.90539 -128.39187 3744.83794
382.08145 -0.91001 -126.39301 3746.83814
381.95721 -0.91491 -124.39917 3748.83592
381.77761 -0.91939 -122.41592 3750.82735
381.54188 -0.92280 -120.44616 3752.81124
381.25004 -0.92399 -118.48774 3754.79136
380.90003 -0.92272 -116.53430 3756.77598
380.48985 -0.91976 -114.58283 3758.77017
380.02404 -0.91658 -112.63587 3760.77213
379.51359 -0.91403 -110.69596 3762.77810
378.96838 -0.91196 -108.76459 3764.78498
378.39360 -0.90941 -106.84274 3766.79096
377.79308 -0.90478 -104.93056 3768.79524
377.17042 -0.89723 -103.02749 3770.79761
376.52910 -0.88672 -101.13237 3772.79833
375.87393 -0.87416 -99.24293 3774.79819
375.21066 -0.86105 -97.35668 3776.79769
374.54427 -0.84810 -95.47171 3778.79704
373.87766 -0.83515 -93.58681 3780.79638
373.21176 -0.82161 -91.70161 3782.79578
372.54713 -0.80701 -89.81596 3784.79518
371.88405 -0.79142 -87.92976 3786.79460
371.22217 -0.77521 -86.04313 3788.79403
370.56088 -0.75857 -84.15628 3790.79347
369.89973 -0.74153 -82.26937 3792.79293
369.23858 -0.72412 -80.38245 3794.79240
368.57750 -0.70676 -78.49549 3796.79189
367.91697 -0.69012 -76.60833 3798.79138
367.25825 -0.67488 -74.72053 3800.79086
366.60334 -0.66128 -72.83141 3802.79033
365.95344 -0.64899 -70.94055 3804.78980
365.30769 -0.63711 -69.04828 3806.78926
364.66520 -0.62443 -67.15491 3808.78870
364.02608 -0.61014 -65.26043 3810.78814
363.39023 -0.59428 -63.36484 3812.78759
362.75679 -0.57760 -61.46843 3814.78707
362.12531 -0.56122 -59.57132 3816.78658
361.49607 -0.54591 -57.67352 3818.78604
360.86971 -0.53202 -55.77506 3820.78521
360.24711 -0.51966 -53.87598 3822.78378
359.62919 -0.50873 -51.97597 3824.78178
359.01655 -0.49915 -50.07433 3826.77969
358.40916 -0.49083 -48.17074 3828.77785
357.80713 -0.48357 -46.26507 3830.77637
357.21090 -0.47706 -44.35721 3832.77523
356.62183 -0.47084 -42.44688 3834.77434
356.04449 -0.46417 -40.53291 3836.77350
355.48580 -0.45630 -38.61365 3838.77245
354.95146 -0.44664 -36.68807 3840.77084
354.44270 -0.43510 -34.75667 3842.76816
353.95566 -0.42225 -32.82149 3844.76374
353.48456 -0.40906 -30.88445 3846.75729
353.02444 -0.39657 -28.94583 3848.74980
352.57240 -0.38539 -27.00460 3850.74301
352.12741 -0.37579 -25.05981 3852.73808
351.69009 -0.36747 -23.11095 3854.73542
351.26270 -0.35992 -21.15777 3856.73484
350.84921 -0.35267 -19.20005 3858.73577
350.45512 -0.34553 -17.23754 3860.73748
350.08570 -0.33882 -15.27019 3862.73923
349.74424 -0.33331 -13.29810 3864.74069
349.43216 -0.32974 -11.32113 3866.74216
349.14967 -0.32809 -9.33882 3868.74452
348.89686 -0.32812 -7.35015 3870.74922
348.67474 -0.32974 -5.35458 3872.75714
348.48546 -0.33294 -3.35264 3874.76803
348.33209 -0.33772 -1.34556 3876.78100
348.21821 -0.34379 0.66498 3878.79481
348.14736 -0.35042 2.67681 3880.80793
348.12263 -0.35683 4.68723 3882.81856
348.14537 -0.36272 6.69328 3884.82479
348.21488 -0.36816 8.69236 3886.82514
348.32903 -0.37343 10.68388 3888.81997
348.48531 -0.37934 12.67134 3890.81361
348.68300 -0.38692 14.66295 3892.81505
348.92413 -0.39652 16.66617 3894.83280
349.21117 -0.40778 18.67809 3896.86516
349.54494 -0.42009 20.68870 3898.90338
349.92370 -0.43287 22.68922 3900.93951
350.34344 -0.44577 24.67445 3902.96870
350.80028 -0.45876 26.64134 3904.98803
351.29198 -0.47191 28.58699 3906.99492
351.81782 -0.48540 30.50778 3908.98647
352.37926 -0.49936 32.40019 3910.96050
352.98046 -0.51386 34.26433 3912.91929
353.62811 -0.52910 36.11012 3914.87552
354.33243 -0.54555 37.96005 3916.85512
355.10308 -0.56373 39.83451 3918.88196
355.93741 -0.58414 41.72320 3920.94688
356.82543 -0.60697 43.59987 3923.02323
357.75924 -0.63153 45.44485 3925.09128
358.73410 -0.65605 47.24630 3927.13980
359.74412 -0.67867 48.99448 3929.15897
360.77754 -0.69864 50.67850 3931.13495
361.82165 -0.71669 52.29102 3933.05611
362.88215 -0.73425 53.85134 3934.94283
363.98587 -0.75242 55.40929 3936.85223
365.13258 -0.77161 56.98131 3938.79816
366.30910 -0.79173 58.56221 3940.76891
367.50864 -0.81247 60.14639 3942.75611
368.72755 -0.83344 61.72783 3944.75290
369.96127 -0.85435 63.30230 3946.75327
371.20448 -0.87511 64.86970 3948.75395
372.45320 -0.89592 66.43197 3950.75406
373.70642 -0.91708 67.99014 3952.75379
374.96619 -0.93868 69.54303 3954.75353
376.23510 -0.96078 71.08880 3956.75354
377.51438 -0.98316 72.62655 3958.75398
378.80334 -1.00558 74.15680 3960.75487
380.09898 -1.02793 75.68185 3962.75611
381.39630 -1.05016 77.20555 3964.75741
382.69035 -1.07231 78.73174 3966.75849
383.97812 -1.09439 80.26287 3968.75929
385.25914 -1.11638 81.79956 3970.76002
386.53412 -1.13813 83.34160 3972.76101
387.80311 -1.15946 84.88881 3974.76216
389.06308 -1.18026 86.44158 3976.76194
390.30721 -1.20067 88.00090 3978.75687
391.52618 -1.22098 89.56850 3980.74276
392.71222 -1.24133 91.14914 3982.71903
393.86321 -1.26177 92.75347 3984.69368
394.97859 -1.28219 94.39109 3986.67522
396.05593 -1.30270 96.06578 3988.66668
397.08963 -1.32348 97.77769 3990.66665
398.07181 -1.34458 99.52565 3992.67187
398.99785 -1.36581 101.30601 3994.67885
399.87134 -1.38687 103.11090 3996.68417
400.70070 -1.40746 104.93069 3998.68417
401.48981 -1.42765 106.75891 4000.67556
402.23653 -1.44759 108.59357 4002.65650
402.93642 -1.46764 110.43691 4004.62840
403.58563 -1.48835 112.29558 4006.59736
404.18127 -1.51028 114.17755 4008.57154
404.72077 -1.53384 116.08662 4010.55559
405.20303 -1.55898 118.02148 4012.54989
405.62967 -1.58520 119.97754 4014.55217
406.00321 -1.61176 121.94922 4016.55916
406.32488 -1.63749 123.93128 4018.56738
406.59354 -1.66048 125.91906 4020.57342
406.80642 -1.67853 127.90814 4022.57402
406.95960 -1.69072 129.89478 4024.56666
407.05010 -1.69800 131.87686 4026.55091
407.07898 -1.70287 133.85548 4028.52982
407.05353 -1.70801 135.83496 4030.50951
406.98358 -1.71500 137.81927 4032.49511
406.87492 -1.72437 139.80935 4034.48820
406.72775 -1.73611 141.80347 4036.48781
406.54119 -1.75008 143.79869 4038.49182
406.31592 -1.76603 145.79193 4040.49783
406.05317 -1.78383 147.78018 4042.50348
405.75369 -1.80333 149.76041 4044.50635
405.41764 -1.82430 151.72915 4046.50372
405.04253 -1.84651 153.68196 4048.49239
404.62378 -1.86988 155.61397 4050.46945
404.15672 -1.89441 157.52238 4052.43440
403.63539 -1.92001 159.40987 4054.39281
403.05310 -1.94641 161.28285 4056.35447
402.40810 -1.97327 163.14312 4058.32366
401.70358 -2.00032 164.98714 4060.29794
400.93889 -2.02757 166.81265 4062.27743
400.10756 -2.05532 168.62167 4064.26861
399.20624 -2.08383 170.41266 4066.27392
398.23837 -2.11306 172.18076 4068.28990
397.21543 -2.14284 173.91683 4070.30523
396.15344 -2.17288 175.60868 4072.30305
395.06090 -2.20314 177.25287 4074.27743
393.93650 -2.23382 178.85605 4076.23589
392.77151 -2.26515 180.42924 4078.19378
391.55471 -2.29693 181.98011 4080.16535
390.28267 -2.32867 183.50678 4082.15284
388.95950 -2.35993 185.00461 4084.15171
387.59233 -2.39039 186.47139 4086.15714
386.18916 -2.41996 187.90836 4088.16582
384.75853 -2.44870 189.31974 4090.17570
383.30798 -2.47673 190.71038 4092.18538
381.84243 -2.50406 192.08334 4094.19377
380.36541 -2.53052 193.44059 4096.19988
378.87944 -2.55587 194.78315 4098.20268
377.38508 -2.57982 196.11023 4100.20139
375.88081 -2.60208 197.41974 4102.19593
374.36325 -2.62236 198.70993 4104.18793
372.82738 -2.64034 199.97987 4106.18093
371.26894 -2.65597 201.22861 4108.17803
369.68731 -2.66951 202.45468 4110.17929
368.08443 -2.68137 203.65759 4112.18340
366.46289 -2.69189 204.83776 4114.18899
364.82449 -2.70131 205.99546 4116.19516
363.17040 -2.70987 207.13070 4118.20138
361.50196 -2.71812 208.24421 4120.20731
359.82153 -2.72642 209.33849 4122.21264
358.13228 -2.73501 210.41733 4124.21704
356.43662 -2.74384 211.48367 4126.22014
354.73584 -2.75270 212.53892 4128.22171
353.03087 -2.76144 213.58434 4130.22170
351.32236 -2.76993 214.62175 4132.22051
349.61090 -2.77814 215.65344 4134.21891
347.89764 -2.78606 216.68213 4136.21728
346.18393 -2.79349 217.71013 4138.21569
344.47044 -2.80063 218.73846 4140.21408
342.75737 -2.80771 219.76731 4142.21238
341.04465 -2.81471 220.79666 4144.21064
339.33210 -2.82190 221.82631 4146.20890
337.61959 -2.82970 222.85605 4148.20718
335.90703 -2.83836 223.88578 4150.20550
334.19453 -2.84788 224.91574 4152.20388
332.48279 -2.85812 225.94687 4154.20223
330.77329 -2.86892 226.98102 4156.20023
329.06799 -2.88033 228.02019 4158.19724
327.36850 -2.89249 229.06550 4160.19250
325.67485 -2.90557 230.11693 4162.18603
323.98504 -2.91957 231.17371 4164.17912
322.29705 -2.93430 232.23508 4166.17312
320.61036 -2.94943 233.30150 4168.16872
318.92601 -2.96462 234.37472 4170.16599
317.24617 -2.97994 235.45737 4172.16455
315.57384 -2.99598 236.55278 4174.16377
313.91269 -3.01333 237.66480 4176.16286
312.26702 -3.03235 238.79771 4178.16090
310.64204 -3.05306 239.95641 4180.15682
309.04278 -3.07530 241.14519 4182.14966
307.47067 -3.09885 242.36412 4184.13914
305.92067 -3.12325 243.60690 4186.12601
304.38462 -3.14805 244.86608 4188.11236
302.85731 -3.17288 246.13938 4190.10099
301.33842 -3.19739 247.42938 4192.09392
299.83123 -3.22151 248.74029 4194.09161
298.34022 -3.24523 250.07568 4196.09336
296.86917 -3.26866 251.43712 4198.09789
295.42052 -3.29187 252.82431 4200.10376
293.99571 -3.31506 254.23590 4202.10958
292.59552 -3.33846 255.66998 4204.11401
291.21953 -3.36226 257.12368 4206.11582
289.86573 -3.38654 258.59288 4208.11381
288.53164 -3.41136 260.07364 4210.10707
287.21664 -3.43663 261.56501 4212.09556
285.92199 -3.46200 263.07032 4214.08120
284.64870 -3.48716 264.59621 4216.06874
283.39688 -3.51220 266.14872 4218.06325
282.16870 -3.53751 267.72819 4220.06423
280.96702 -3.56384 269.33164 4222.06820
279.79281 -3.59187 270.95582 4224.07259
278.64446 -3.62197 272.59746 4226.07626
277.52039 -3.65410 274.25429 4228.07869
276.42169 -3.68773 275.92595 4230.07939
275.35120 -3.72176 277.61311 4232.07781
274.30989 -3.75471 279.31527 4234.07351
273.29504 -3.78522 281.02999 4236.06630
272.30252 -3.81281 282.75475 4238.05645
271.32772 -3.83787 284.48819 4240.04535
270.36568 -3.86131 286.23041 4242.03567
269.41179 -3.88362 287.98168 4244.03001
268.46339 -3.90485 289.74026 4246.02813
267.51966 -3.92477 291.50358 4248.02822
266.58074 -3.94339 293.27008 4250.02883
265.64702 -3.96104 295.03922 4252.02933
264.71852 -3.97792 296.81086 4254.02961
263.79503 -3.99413 298.58498 4256.02976
