VERSION 0.7
FIELDS x y z lapdistance
SIZE 4 4 4 4
TYPE F F F F
COUNT 1 1 1 1
WIDTH 1182
HEIGHT 1
VIEWPOINT -0.625 0.327 0.325 0.630 -558.457 -10.415 467.204
POINTS 1182
DATA ascii
-407.62921 -4.27936 -545.60238 2406.00000
-406.80059 -4.29339 -547.41858 2408.00000
-405.97485 -4.30738 -549.22930 2410.00000
-405.15261 -4.32131 -551.03334 2412.00000
-404.33254 -4.33521 -552.83299 2414.00000
-403.51237 -4.34908 -554.63066 2416.00000
-402.68942 -4.36292 -556.42704 2418.00000
-401.86125 -4.37672 -558.22152 2420.00000
-401.02728 -4.39051 -560.01379 2422.00000
-400.18901 -4.40433 -561.80439 2424.00000
-399.34845 -4.41821 -563.59412 2426.00000
-398.50535 -4.43200 -565.38271 2428.00000
-397.65607 -4.44512 -567.16820 2430.00000
-396.79573 -4.45656 -568.94796 2432.00000
-395.92152 -4.46552 -570.72046 2434.00000
-395.03253 -4.47190 -572.48513 2436.00000
-394.12840 -4.47636 -574.24153 2438.00000
-393.20853 -4.48009 -575.98866 2440.00000
-392.27257 -4.48396 -577.72473 2442.00000
-391.32113 -4.48825 -579.44734 2444.00000
-390.35512 -4.49275 -581.15449 2446.00000
-389.37422 -4.49690 -582.84702 2448.00000
-388.37725 -4.50007 -584.52784 2450.00000
-387.36389 -4.50170 -586.19938 2452.00000
-386.33521 -4.50168 -587.86319 2454.00000
-385.29282 -4.50033 -589.52012 2456.00000
-384.23783 -4.49823 -591.17033 2458.00000
-383.17071 -4.49592 -592.81357 2460.00000
-382.09164 -4.49362 -594.44951 2462.00000
-381.00074 -4.49127 -596.07784 2464.00000
-379.89821 -4.48881 -597.69832 2466.00000
-378.78421 -4.48620 -599.31074 2468.00000
-377.65862 -4.48336 -600.91474 2470.00000
-376.52056 -4.48014 -602.50938 2472.00000
-375.36797 -4.47636 -604.09276 2474.00000
-374.19811 -4.47196 -605.66203 2476.00000
-373.00889 -4.46710 -607.21402 2478.00000
-371.80006 -4.46206 -608.74612 2480.00000
-370.57308 -4.45681 -610.25758 2482.00000
-369.32991 -4.45102 -611.75127 2484.00000
-368.07359 -4.44413 -613.23272 2486.00000
-366.80845 -4.43552 -614.70740 2488.00000
-365.53894 -4.42491 -616.17955 2490.00000
-364.26827 -4.41237 -617.65175 2492.00000
-362.99805 -4.39825 -619.12518 2494.00000
-361.72873 -4.38316 -620.60013 2496.00000
-360.45985 -4.36768 -622.07621 2498.00000
-359.18957 -4.35215 -623.55175 2500.00000
-357.91405 -4.33666 -625.02314 2502.00000
-356.62828 -4.32123 -626.48544 2504.00000
-355.32879 -4.30606 -627.93474 2506.00000
-354.01453 -4.29142 -629.36902 2508.00000
-352.68580 -4.27784 -630.78763 2510.00000
-351.34291 -4.26594 -632.19080 2512.00000
-349.98473 -4.25614 -633.57990 2514.00000
-348.60762 -4.24850 -634.95761 2516.00000
-347.20635 -4.24257 -636.32609 2518.00000
-345.77873 -4.23754 -637.68276 2520.00000
-344.32639 -4.23269 -639.02210 2522.00000
-342.85179 -4.22756 -640.34052 2524.00000
-341.35762 -4.22215 -641.63770 2526.00000
-339.84783 -4.21696 -642.91681 2528.00000
-338.32815 -4.21248 -644.18356 2530.00000
-336.80388 -4.20880 -645.44263 2532.00000
-335.27792 -4.20565 -646.69496 2534.00000
-333.75123 -4.20289 -647.93949 2536.00000
-332.22290 -4.20094 -649.17591 2538.00000
-330.69072 -4.20055 -650.40451 2540.00000
-329.15201 -4.20192 -651.62439 2542.00000
-327.60379 -4.20426 -652.83317 2544.00000
-326.04379 -4.20633 -654.02817 2546.00000
-324.47221 -4.20696 -655.20783 2548.00000
-322.89253 -4.20567 -656.37103 2550.00000
-321.31069 -4.20241 -657.51516 2552.00000
-319.73250 -4.19758 -658.63779 2554.00000
-318.15786 -4.19200 -659.74185 2556.00000
-316.58233 -4.18673 -660.83369 2558.00000
-315.00184 -4.18291 -661.91702 2560.00000
-313.41257 -4.18113 -662.99022 2562.00000
-311.81174 -4.18107 -664.04957 2564.00000
-310.20016 -4.18194 -665.09482 2566.00000
-308.57947 -4.18270 -666.12677 2568.00000
-306.94816 -4.18254 -667.14195 2570.00000
-305.30478 -4.18137 -668.13710 2572.00000
-303.65108 -4.17968 -669.11372 2574.00000
-301.98991 -4.17815 -670.07529 2576.00000
-300.32409 -4.17711 -671.02576 2578.00000
-298.65571 -4.17639 -671.96825 2580.00000
-296.98519 -4.17548 -672.90306 2582.00000
-295.31153 -4.17346 -673.82640 2584.00000
-293.63369 -4.16971 -674.73005 2586.00000
-291.95287 -4.16419 -675.60393 2588.00000
-290.27333 -4.15744 -676.44296 2590.00000
-288.59594 -4.15037 -677.25196 2592.00000
-286.91501 -4.14371 -678.03889 2594.00000
-285.22488 -4.13773 -678.80857 2596.00000
-283.52410 -4.13238 -679.56498 2598.00000
-281.81271 -4.12729 -680.30789 2600.00000
-280.08946 -4.12192 -681.03121 2602.00000
-278.35330 -4.11586 -681.72859 2604.00000
-276.60518 -4.10921 -682.39853 2606.00000
-274.84771 -4.10249 -683.04406 2608.00000
-273.08395 -4.09633 -683.66985 2610.00000
-271.31650 -4.09133 -684.27949 2612.00000
-269.54696 -4.08757 -684.87321 2614.00000
-267.77623 -4.08479 -685.44891 2616.00000
-266.00447 -4.08253 -686.00475 2618.00000
-264.22911 -4.08042 -686.54010 2620.00000
-262.44188 -4.07840 -687.05663 2622.00000
-260.62851 -4.07661 -687.55945 2624.00000
-258.77808 -4.07527 -688.05398 2626.00000
-256.89710 -4.07446 -688.54021 2628.00000
-254.99946 -4.07379 -689.01568 2630.00000
-253.09473 -4.07269 -689.47956 2632.00000
-251.18698 -4.07064 -689.93264 2634.00000
-249.27698 -4.06715 -690.37563 2636.00000
-247.36422 -4.06202 -690.80804 2638.00000
-245.44784 -4.05500 -691.22709 2640.00000
-243.52692 -4.04583 -691.62780 2642.00000
-241.60085 -4.03446 -692.00518 2644.00000
-239.66959 -4.02149 -692.35638 2646.00000
-237.73375 -4.00766 -692.68164 2648.00000
-235.79454 -3.99357 -692.98455 2650.00000
-233.85341 -3.97938 -693.27198 2652.00000
-231.91123 -3.96510 -693.55236 2654.00000
-229.96666 -3.95107 -693.83176 2656.00000
-228.01562 -3.93778 -694.11270 2658.00000
-226.05371 -3.92568 -694.39567 2660.00000
-224.08182 -3.91477 -694.67982 2662.00000
-222.10460 -3.90461 -694.96372 2664.00000
-220.12573 -3.89472 -695.24639 2666.00000
-218.14683 -3.88484 -695.52739 2668.00000
-216.16816 -3.87488 -695.80660 2670.00000
-214.18955 -3.86485 -696.08409 2672.00000
-212.21084 -3.85475 -696.35997 2674.00000
-210.23192 -3.84461 -696.63433 2676.00000
-208.25278 -3.83443 -696.90717 2678.00000
-206.27341 -3.82422 -697.17847 2680.00000
-204.29382 -3.81394 -697.44819 2682.00000
-202.31400 -3.80359 -697.71634 2684.00000
-200.33396 -3.79318 -697.98303 2686.00000
-198.35371 -3.78271 -698.24826 2688.00000
-196.37326 -3.77221 -698.51199 2690.00000
-194.39261 -3.76168 -698.77419 2692.00000
-192.41174 -3.75111 -699.03487 2694.00000
-190.43065 -3.74051 -699.29398 2696.00000
-188.44935 -3.72988 -699.55152 2698.00000
-186.46783 -3.71920 -699.80750 2700.00000
-184.48614 -3.70850 -700.06213 2702.00000
-182.50437 -3.69777 -700.31582 2704.00000
-180.52259 -3.68702 -700.56912 2706.00000
-178.54087 -3.67627 -700.82237 2708.00000
-176.55921 -3.66550 -701.07572 2710.00000
-174.57759 -3.65473 -701.32918 2712.00000
-172.59602 -3.64396 -701.58274 2714.00000
-170.61446 -3.63317 -701.83637 2716.00000
-168.63287 -3.62238 -702.09007 2718.00000
-166.65127 -3.61158 -702.34382 2720.00000
-164.66968 -3.60077 -702.59767 2722.00000
-162.68811 -3.58995 -702.85163 2724.00000
-160.70654 -3.57913 -703.10576 2726.00000
-158.72499 -3.56830 -703.36001 2728.00000
-156.74347 -3.55746 -703.61432 2730.00000
-154.76194 -3.54662 -703.86870 2732.00000
-152.78039 -3.53576 -704.12313 2734.00000
-150.79885 -3.52490 -704.37763 2736.00000
-148.81732 -3.51403 -704.63218 2738.00000
-146.83578 -3.50315 -704.88680 2740.00000
-144.85425 -3.49227 -705.14148 2742.00000
-142.87273 -3.48137 -705.39621 2744.00000
-140.89122 -3.47047 -705.65102 2746.00000
-138.90970 -3.45956 -705.90589 2748.00000
-136.92814 -3.44864 -706.16084 2750.00000
-134.94649 -3.43771 -706.41587 2752.00000
-132.96468 -3.42678 -706.67099 2754.00000
-130.98272 -3.41583 -706.92618 2756.00000
-129.00070 -3.40488 -707.18144 2758.00000
-127.01866 -3.39392 -707.43676 2760.00000
-125.03664 -3.38295 -707.69215 2762.00000
-123.05463 -3.37197 -707.94760 2764.00000
-121.07264 -3.36098 -708.20312 2766.00000
-119.09064 -3.34999 -708.45866 2768.00000
-117.10862 -3.33898 -708.71421 2770.00000
-115.12660 -3.32797 -708.96983 2772.00000
-113.14462 -3.31695 -709.22572 2774.00000
-111.16272 -3.30593 -709.48230 2776.00000
-109.18095 -3.29493 -709.74002 2778.00000
-107.19933 -3.28394 -709.99911 2780.00000
-105.21791 -3.27296 -710.26005 2782.00000
-103.23676 -3.26202 -710.52346 2784.00000
-101.25595 -3.25112 -710.78971 2786.00000
-99.27545 -3.24025 -711.05865 2788.00000
-97.29516 -3.22940 -711.32959 2790.00000
-95.31497 -3.21855 -711.60148 2792.00000
-93.33478 -3.20770 -711.87346 2794.00000
-91.35453 -3.19683 -712.14496 2796.00000
-89.37416 -3.18593 -712.41564 2798.00000
-87.39371 -3.17502 -712.68557 2800.00000
-85.41322 -3.16412 -712.95519 2802.00000
-83.43273 -3.15324 -713.22480 2804.00000
-81.45221 -3.14241 -713.49418 2806.00000
-79.47153 -3.13160 -713.76234 2808.00000
-77.49048 -3.12079 -714.02741 2810.00000
-75.50882 -3.10991 -714.28712 2812.00000
-73.52641 -3.09894 -714.54018 2814.00000
-71.54340 -3.08789 -714.78794 2816.00000
-69.56012 -3.07683 -715.03337 2818.00000
-67.57681 -3.06577 -715.27855 2820.00000
-65.59353 -3.05467 -715.52410 2822.00000
-63.61026 -3.04352 -715.76993 2824.00000
-61.62701 -3.03229 -716.01589 2826.00000
-59.64377 -3.02096 -716.26192 2828.00000
-57.66055 -3.00950 -716.50796 2830.00000
-55.67733 -2.99791 -716.75394 2832.00000
-53.69411 -2.98618 -716.99986 2834.00000
-51.71089 -2.97437 -717.24575 2836.00000
-49.72766 -2.96249 -717.49166 2838.00000
-47.74442 -2.95057 -717.73763 2840.00000
-45.76120 -2.93862 -717.98369 2842.00000
-43.77801 -2.92667 -718.22983 2844.00000
-41.79476 -2.91473 -718.47605 2846.00000
-39.81132 -2.90278 -718.72241 2848.00000
-37.82752 -2.89083 -718.96891 2850.00000
-35.84335 -2.87887 -719.21551 2852.00000
-33.85897 -2.86693 -719.46218 2854.00000
-31.87452 -2.85503 -719.70900 2856.00000
-29.89009 -2.84318 -719.95592 2858.00000
-27.90570 -2.83135 -720.20291 2860.00000
-25.92130 -2.81954 -720.44968 2862.00000
-23.93682 -2.80773 -720.69561 2864.00000
-21.95217 -2.79588 -720.94014 2866.00000
-19.96737 -2.78400 -721.18325 2868.00000
-17.98249 -2.77211 -721.42570 2870.00000
-15.99763 -2.76020 -721.66842 2872.00000
-14.01283 -2.74831 -721.91177 2874.00000
-12.02809 -2.73642 -722.15574 2876.00000
-10.04341 -2.72453 -722.40017 2878.00000
-8.05877 -2.71263 -722.64485 2880.00000
-6.07411 -2.70073 -722.88914 2882.00000
-4.08922 -2.68878 -723.13154 2884.00000
-2.10384 -2.67676 -723.36961 2886.00000
-0.11776 -2.66464 -723.60121 2888.00000
1.86907 -2.65240 -723.82573 2890.00000
3.85657 -2.64006 -724.04426 2892.00000
5.84455 -2.62766 -724.25916 2894.00000
7.83275 -2.61524 -724.47289 2896.00000
9.82098 -2.60280 -724.68674 2898.00000
11.80916 -2.59037 -724.90099 2900.00000
13.79733 -2.57794 -725.11553 2902.00000
15.78547 -2.56550 -725.33020 2904.00000
17.77360 -2.55305 -725.54491 2906.00000
19.76173 -2.54060 -725.75961 2908.00000
21.74986 -2.52814 -725.97431 2910.00000
23.73799 -2.51567 -726.18900 2912.00000
25.72611 -2.50320 -726.40369 2914.00000
27.71424 -2.49072 -726.61838 2916.00000
29.70237 -2.47823 -726.83309 2918.00000
31.69049 -2.46573 -727.04780 2920.00000
33.67862 -2.45323 -727.26252 2922.00000
35.66675 -2.44072 -727.47724 2924.00000
37.65487 -2.42821 -727.69197 2926.00000
39.64304 -2.41568 -727.90672 2928.00000
41.63124 -2.40315 -728.12148 2930.00000
43.61942 -2.39061 -728.33626 2932.00000
45.60741 -2.37807 -728.55102 2934.00000
47.59485 -2.36553 -728.76568 2936.00000
49.58142 -2.35298 -728.98014 2938.00000
51.56718 -2.34043 -729.19432 2940.00000
53.55248 -2.32787 -729.40822 2942.00000
55.53763 -2.31530 -729.62187 2944.00000
57.52277 -2.30272 -729.83539 2946.00000
59.50795 -2.29014 -730.04908 2948.00000
61.49309 -2.27755 -730.26337 2950.00000
63.47819 -2.26498 -730.47842 2952.00000
65.46325 -2.25240 -730.69387 2954.00000
67.44828 -2.23981 -730.90935 2956.00000
69.43330 -2.22722 -731.12465 2958.00000
71.41832 -2.21461 -731.33971 2960.00000
73.40336 -2.20200 -731.55453 2962.00000
75.38842 -2.18938 -731.76911 2964.00000
77.37350 -2.17674 -731.98346 2966.00000
79.35858 -2.16409 -732.19762 2968.00000
81.34365 -2.15144 -732.41173 2970.00000
83.32867 -2.13878 -732.62612 2972.00000
85.31361 -2.12613 -732.84121 2974.00000
87.29849 -2.11348 -733.05700 2976.00000
89.28342 -2.10082 -733.27311 2978.00000
91.26848 -2.08816 -733.48917 2980.00000
93.25371 -2.07549 -733.70502 2982.00000
95.23902 -2.06281 -733.92068 2984.00000
97.22435 -2.05012 -734.13633 2986.00000
99.20963 -2.03742 -734.35236 2988.00000
101.19483 -2.02473 -734.56915 2990.00000
103.17997 -2.01205 -734.78657 2992.00000
105.16508 -1.99936 -735.00421 2994.00000
107.15020 -1.98666 -735.22179 2996.00000
109.13533 -1.97395 -735.43917 2998.00000
111.12045 -1.96123 -735.65634 3000.00000
113.10557 -1.94850 -735.87332 3002.00000
115.09070 -1.93576 -736.09011 3004.00000
117.07582 -1.92301 -736.30670 3006.00000
119.06097 -1.91025 -736.52309 3008.00000
121.04616 -1.89748 -736.73930 3010.00000
123.03141 -1.88469 -736.95551 3012.00000
125.01670 -1.87190 -737.17212 3014.00000
127.00193 -1.85911 -737.38960 3016.00000
128.98679 -1.84632 -737.60804 3018.00000
130.97057 -1.83354 -737.82718 3020.00000
132.95239 -1.82077 -738.04634 3022.00000
134.93226 -1.80799 -738.26375 3024.00000
136.91149 -1.79517 -738.47545 3026.00000
138.89143 -1.78220 -738.67579 3028.00000
140.87282 -1.76905 -738.86062 3030.00000
142.85577 -1.75567 -739.02901 3032.00000
144.84013 -1.74209 -739.18119 3034.00000
146.82587 -1.72825 -739.31505 3036.00000
148.81311 -1.71412 -739.42714 3038.00000
150.80178 -1.69973 -739.51954 3040.00000
152.79174 -1.68519 -739.60009 3042.00000
154.78322 -1.67056 -739.67481 3044.00000
156.77653 -1.65584 -739.74453 3046.00000
158.77036 -1.64100 -739.80776 3048.00000
160.75894 -1.62600 -739.86263 3050.00000
162.72971 -1.61086 -739.90645 3052.00000
164.66655 -1.59574 -739.93613 3054.00000
166.56600 -1.58109 -739.94985 3056.00000
168.44317 -1.56778 -739.94540 3058.00000
170.31353 -1.55713 -739.91996 3060.00000
172.18474 -1.55043 -739.86930 3062.00000
174.05778 -1.54829 -739.78555 3064.00000
175.92987 -1.55003 -739.65799 3066.00000
177.79676 -1.55370 -739.47813 3068.00000
179.65387 -1.55659 -739.24274 3070.00000
181.49650 -1.55602 -738.95202 3072.00000
183.32022 -1.55061 -738.60758 3074.00000
185.12285 -1.54091 -738.21150 3076.00000
186.90793 -1.52897 -737.76635 3078.00000
188.68293 -1.51720 -737.27724 3080.00000
190.45372 -1.50718 -736.75339 3082.00000
192.22286 -1.49905 -736.20348 3084.00000
193.98963 -1.49207 -735.63024 3086.00000
195.75119 -1.48508 -735.03100 3088.00000
197.50309 -1.47720 -734.39915 3090.00000
199.23980 -1.46829 -733.72615 3092.00000
200.95688 -1.45910 -733.00818 3094.00000
202.65328 -1.45040 -732.25174 3096.00000
204.32994 -1.44247 -731.46739 3098.00000
205.98632 -1.43451 -730.65687 3100.00000
207.62265 -1.42547 -729.81393 3102.00000
209.24072 -1.41478 -728.93195 3104.00000
210.84115 -1.40263 -728.00805 3106.00000
212.42496 -1.38987 -727.04587 3108.00000
213.99462 -1.37739 -726.05429 3110.00000
215.55034 -1.36578 -725.03833 3112.00000
217.09050 -1.35498 -723.99924 3114.00000
218.61388 -1.34457 -722.93885 3116.00000
220.11661 -1.33384 -721.85578 3118.00000
221.59164 -1.32227 -720.74514 3120.00000
223.03332 -1.30991 -719.60434 3122.00000
224.44124 -1.29715 -718.43503 3124.00000
225.82231 -1.28447 -717.24054 3126.00000
227.18806 -1.27232 -716.02502 3128.00000
228.54682 -1.26080 -714.79199 3130.00000
229.89929 -1.24955 -713.54092 3132.00000
231.24062 -1.23815 -712.26817 3134.00000
232.56380 -1.22636 -710.96945 3136.00000
233.86187 -1.21409 -709.64147 3138.00000
235.12931 -1.20167 -708.28309 3140.00000
236.36218 -1.18971 -706.89519 3142.00000
237.55825 -1.17856 -705.48038 3144.00000
238.71698 -1.16807 -704.04181 3146.00000
239.83986 -1.15802 -702.58142 3148.00000
240.93093 -1.14771 -701.09792 3150.00000
241.99651 -1.13679 -699.58693 3152.00000
243.04179 -1.12507 -698.04636 3154.00000
244.06780 -1.11283 -696.47992 3156.00000
245.07099 -1.10056 -694.89126 3158.00000
246.04336 -1.08880 -693.28065 3160.00000
246.97716 -1.07776 -691.64768 3162.00000
247.87013 -1.06701 -689.99475 3164.00000
248.72701 -1.05589 -688.32751 3166.00000
249.55563 -1.04375 -686.65091 3168.00000
250.35966 -1.03033 -684.96199 3170.00000
251.14034 -1.01596 -683.24717 3172.00000
251.90322 -1.00141 -681.48927 3174.00000
252.65551 -0.98766 -679.68682 3176.00000
253.39976 -0.97542 -677.85616 3178.00000
254.13235 -0.96452 -676.01134 3180.00000
254.84661 -0.95410 -674.15811 3182.00000
255.53936 -0.94277 -672.29791 3184.00000
256.21396 -0.92950 -670.43217 3186.00000
256.87648 -0.91387 -668.56267 3188.00000
257.53151 -0.89615 -666.69069 3190.00000
258.18247 -0.87731 -664.81737 3192.00000
258.83198 -0.85840 -662.94372 3194.00000
259.48107 -0.84036 -661.07020 3196.00000
260.12957 -0.82362 -659.19681 3198.00000
260.77761 -0.80804 -657.32358 3200.00000
261.42776 -0.79326 -655.45144 3202.00000
262.08741 -0.77880 -653.58304 3204.00000
262.77096 -0.76442 -651.72338 3206.00000
263.49939 -0.75019 -649.87965 3208.00000
264.29508 -0.73633 -648.05929 3210.00000
265.17261 -0.72314 -646.26679 3212.00000
266.12768 -0.71081 -644.49999 3214.00000
267.13477 -0.69924 -642.74947 3216.00000
268.16399 -0.68837 -641.00457 3218.00000
269.20058 -0.67814 -639.26001 3220.00000
270.24095 -0.66827 -637.51450 3222.00000
271.28303 -0.65835 -635.76733 3224.00000
272.32241 -0.64802 -634.01704 3226.00000
273.34923 -0.63701 -632.26029 3228.00000
274.34828 -0.62534 -630.49195 3230.00000
275.30408 -0.61337 -628.70705 3232.00000
276.20233 -0.60149 -626.90145 3234.00000
277.03631 -0.58999 -625.07359 3236.00000
277.81482 -0.57876 -623.22679 3238.00000
278.55409 -0.56730 -621.36658 3240.00000
279.26291 -0.55518 -619.49607 3242.00000
279.94126 -0.54226 -617.61559 3244.00000
280.58742 -0.52872 -615.72490 3246.00000
281.20340 -0.51486 -613.82488 3248.00000
281.79619 -0.50080 -611.91779 3250.00000
282.37566 -0.48646 -610.00667 3252.00000
282.95013 -0.47179 -608.09397 3254.00000
283.52241 -0.45694 -606.18057 3256.00000
284.09014 -0.44208 -604.26584 3258.00000
284.64731 -0.42730 -602.34824 3260.00000
285.18768 -0.41251 -600.42616 3262.00000
285.70985 -0.39754 -598.49938 3264.00000
286.21862 -0.38228 -596.56932 3266.00000
286.72106 -0.36677 -594.63798 3268.00000
287.22201 -0.35120 -592.70667 3270.00000
287.72319 -0.33590 -590.77577 3272.00000
288.22402 -0.32107 -588.84487 3274.00000
288.72247 -0.30676 -586.91305 3276.00000
289.21611 -0.29277 -584.97921 3278.00000
289.70373 -0.27878 -583.04294 3280.00000
290.18635 -0.26460 -581.10483 3282.00000
290.66640 -0.25018 -579.16579 3284.00000
291.14577 -0.23559 -577.22648 3286.00000
291.62537 -0.22092 -575.28717 3288.00000
292.10547 -0.20625 -573.34792 3290.00000
292.58609 -0.19165 -571.40872 3292.00000
293.06703 -0.17720 -569.46950 3294.00000
293.54752 -0.16294 -567.53009 3296.00000
294.02578 -0.14888 -565.59010 3298.00000
294.49908 -0.13486 -563.64890 3300.00000
294.96515 -0.12067 -561.70604 3302.00000
295.42364 -0.10605 -559.76145 3304.00000
295.87567 -0.09088 -557.81542 3306.00000
296.32309 -0.07532 -555.86839 3308.00000
296.76793 -0.05969 -553.92082 3310.00000
297.21155 -0.04444 -551.97307 3312.00000
297.65421 -0.02980 -550.02528 3314.00000
298.09508 -0.01587 -548.07743 3316.00000
298.53221 -0.00240 -546.12924 3318.00000
298.96313 0.01119 -544.18006 3320.00000
299.38671 0.02517 -542.22943 3322.00000
299.80411 0.03944 -540.27740 3324.00000
300.21797 0.05378 -538.32447 3326.00000
300.63073 0.06798 -536.37109 3328.00000
301.04361 0.08205 -534.41753 3330.00000
301.45698 0.09626 -532.46387 3332.00000
301.87092 0.11076 -530.51015 3334.00000
302.28546 0.12547 -528.55637 3336.00000
302.70031 0.14015 -526.60249 3338.00000
303.11443 0.15448 -524.64831 3340.00000
303.52543 0.16842 -522.69339 3342.00000
303.92980 0.18227 -520.73712 3344.00000
304.32541 0.19630 -518.77918 3346.00000
304.71410 0.21060 -516.81991 3348.00000
305.09909 0.22497 -514.85992 3350.00000
305.48152 0.23911 -512.89945 3352.00000
305.85939 0.25291 -510.93819 3354.00000
306.22823 0.26648 -508.97547 3356.00000
306.58412 0.28018 -507.01067 3358.00000
306.92717 0.29444 -505.04388 3360.00000
307.26121 0.30939 -503.07580 3362.00000
307.58957 0.32485 -501.10698 3364.00000
307.91196 0.34044 -499.13743 3366.00000
308.22665 0.35585 -497.16694 3368.00000
308.53324 0.37098 -495.19555 3370.00000
308.83295 0.38585 -493.22350 3372.00000
309.12582 0.40030 -491.25085 3374.00000
309.40855 0.41418 -489.27709 3376.00000
309.67787 0.42770 -487.30157 3378.00000
309.93432 0.44130 -485.32397 3380.00000
310.18190 0.45558 -483.34437 3382.00000
310.42467 0.47100 -481.36338 3384.00000
310.66460 0.48749 -479.38160 3386.00000
310.90199 0.50461 -477.39936 3388.00000
311.13598 0.52170 -475.41666 3390.00000
311.36429 0.53817 -473.43323 3392.00000
311.58321 0.55377 -471.44866 3394.00000
311.78884 0.56852 -469.46250 3396.00000
311.97793 0.58266 -467.47437 3398.00000
312.14904 0.59636 -465.48417 3400.00000
312.30496 0.60968 -463.49230 3402.00000
312.45175 0.62264 -461.49955 3404.00000
312.59377 0.63529 -459.50648 3406.00000
312.73138 0.64773 -457.51319 3408.00000
312.86343 0.65990 -455.51956 3410.00000
312.98956 0.67164 -453.52556 3412.00000
313.11033 0.68274 -451.53123 3414.00000
313.22639 0.69310 -449.53660 3416.00000
313.33812 0.70281 -447.54164 3418.00000
313.44563 0.71212 -445.54643 3420.00000
313.54895 0.72113 -443.55112 3422.00000
313.64824 0.72982 -441.55577 3424.00000
313.74398 0.73809 -439.56046 3426.00000
313.83687 0.74588 -437.56529 3428.00000
313.92731 0.75323 -435.57033 3430.00000
314.01453 0.76028 -433.57551 3432.00000
314.09595 0.76725 -431.58059 3434.00000
314.16715 0.77432 -429.58516 3436.00000
314.22421 0.78160 -427.58892 3438.00000
314.26595 0.78909 -425.59181 3440.00000
314.29358 0.79671 -423.59408 3442.00000
314.30890 0.80441 -421.59603 3444.00000
314.31171 0.81227 -419.59772 3446.00000
314.30036 0.82039 -417.59880 3448.00000
314.27524 0.82890 -415.59867 3450.00000
314.23946 0.83770 -413.59639 3452.00000
314.19748 0.84654 -411.59135 3454.00000
314.15352 0.85494 -409.58430 3456.00000
314.10965 0.86252 -407.57644 3458.00000
314.06587 0.86899 -405.56847 3460.00000
314.02165 0.87426 -403.56063 3462.00000
313.97767 0.87818 -401.55300 3464.00000
313.93778 0.88047 -399.54585 3466.00000
313.91073 0.88062 -397.54003 3468.00000
313.90861 0.87819 -395.53706 3470.00000
313.93995 0.87305 -393.53838 3472.00000
314.00534 0.86595 -391.54416 3474.00000
314.10070 0.85761 -389.55216 3476.00000
314.22032 0.84861 -387.56037 3478.00000
314.35703 0.83963 -385.56856 3480.00000
314.50267 0.83091 -383.57680 3482.00000
314.65113 0.82238 -381.58504 3484.00000
314.80032 0.81392 -379.59328 3486.00000
314.95072 0.80548 -377.60158 3488.00000
315.10380 0.79704 -375.61005 3490.00000
315.26071 0.78858 -373.61873 3492.00000
315.42140 0.78008 -371.62761 3494.00000
315.58487 0.77156 -369.63659 3496.00000
315.75013 0.76300 -367.64558 3498.00000
315.91673 0.75440 -365.65454 3500.00000
316.08452 0.74574 -363.66346 3502.00000
316.25340 0.73706 -361.67235 3504.00000
316.42319 0.72847 -359.68120 3506.00000
316.59365 0.72015 -357.69001 3508.00000
316.76444 0.71232 -355.69874 3510.00000
316.93536 0.70485 -353.70728 3512.00000
317.10641 0.69714 -351.71542 3514.00000
317.27764 0.68896 -349.72283 3516.00000
317.44905 0.68047 -347.72928 3518.00000
317.62057 0.67185 -345.73496 3520.00000
317.79220 0.66320 -343.74028 3522.00000
317.96396 0.65454 -341.74556 3524.00000
318.13586 0.64587 -339.75095 3526.00000
318.30788 0.63725 -337.75644 3528.00000
318.47993 0.62883 -335.76194 3530.00000
318.65186 0.62081 -333.76743 3532.00000
318.82369 0.61324 -331.77293 3534.00000
318.99592 0.60579 -329.77847 3536.00000
319.16895 0.59822 -327.78407 3538.00000
319.34270 0.59007 -325.78974 3540.00000
319.51665 0.58155 -323.79544 3542.00000
319.69035 0.57284 -321.80115 3544.00000
319.86365 0.56411 -319.80684 3546.00000
320.03647 0.55542 -317.81251 3548.00000
320.20881 0.54678 -315.81814 3550.00000
320.38069 0.53813 -313.82374 3552.00000
320.55214 0.52952 -311.82932 3554.00000
320.72317 0.52089 -309.83490 3556.00000
320.89385 0.51226 -307.84046 3558.00000
321.06417 0.50363 -305.84599 3560.00000
321.23411 0.49501 -303.85148 3562.00000
321.40372 0.48640 -301.85696 3564.00000
321.57299 0.47780 -299.86242 3566.00000
321.74192 0.46919 -297.86785 3568.00000
321.91053 0.46057 -295.87329 3570.00000
322.07883 0.45197 -293.87872 3572.00000
322.24684 0.44336 -291.88412 3574.00000
322.41457 0.43476 -289.88952 3576.00000
322.58198 0.42620 -287.89489 3578.00000
322.74888 0.41761 -285.90022 3580.00000
322.91502 0.40897 -283.90547 3582.00000
323.08037 0.40018 -281.91066 3584.00000
323.24584 0.39109 -279.91585 3586.00000
323.41430 0.38180 -277.92127 3588.00000
323.59114 0.37252 -275.92740 3590.00000
323.78245 0.36335 -273.93492 3592.00000
323.99084 0.35444 -271.94443 3594.00000
324.21318 0.34560 -269.95603 3596.00000
324.44313 0.33667 -267.96881 3598.00000
324.67770 0.32746 -265.97991 3600.00000
324.91810 0.31761 -263.98294 3602.00000
325.16561 0.30654 -261.96841 3604.00000
325.41919 0.29398 -259.93144 3606.00000
325.67740 0.28015 -257.87847 3608.00000
325.94105 0.26541 -255.81841 3610.00000
326.21280 0.24981 -253.75686 3612.00000
326.49550 0.23313 -251.69623 3614.00000
326.79249 0.21515 -249.63752 3616.00000
327.10879 0.19596 -247.58184 3618.00000
327.45085 0.17587 -245.53089 3620.00000
327.82467 0.15532 -243.48681 3622.00000
328.23350 0.13462 -241.45166 3624.00000
328.67816 0.11400 -239.42699 3626.00000
329.15859 0.09361 -237.41343 3628.00000
329.67492 0.07350 -235.40995 3630.00000
330.22705 0.05359 -233.41465 3632.00000
330.81300 0.03352 -231.42614 3634.00000
331.42753 0.01286 -229.44334 3636.00000
332.06329 -0.00869 -227.46502 3638.00000
332.71494 -0.03131 -225.49050 3640.00000
333.38052 -0.05510 -223.51992 3642.00000
334.05977 -0.08037 -221.55387 3644.00000
334.75308 -0.10756 -219.59327 3646.00000
335.46118 -0.13682 -217.63969 3648.00000
336.18550 -0.16737 -215.69564 3650.00000
336.92806 -0.19775 -213.76397 3652.00000
337.69121 -0.22643 -211.84549 3654.00000
338.47789 -0.25258 -209.93855 3656.00000
339.29109 -0.27645 -208.04214 3658.00000
340.13308 -0.29881 -206.15671 3660.00000
341.00437 -0.32073 -204.28318 3662.00000
341.90366 -0.34304 -202.42207 3664.00000
342.82855 -0.36603 -200.57340 3666.00000
343.77716 -0.38941 -198.73722 3668.00000
344.74864 -0.41256 -196.91383 3670.00000
345.74207 -0.43479 -195.10351 3672.00000
346.75443 -0.45566 -193.30585 3674.00000
347.77880 -0.47481 -191.51958 3676.00000
348.80558 -0.49205 -189.74392 3678.00000
349.82792 -0.50744 -187.98040 3680.00000
350.84647 -0.52150 -186.22997 3682.00000
351.86997 -0.53492 -184.49159 3684.00000
352.91075 -0.54843 -182.76648 3686.00000
353.97919 -0.56240 -181.05781 3688.00000
355.07939 -0.57678 -179.36747 3690.00000
356.20938 -0.59130 -177.69480 3692.00000
357.36242 -0.60561 -176.03638 3694.00000
358.52917 -0.61953 -174.38695 3696.00000
359.70181 -0.63314 -172.74161 3698.00000
360.87699 -0.64668 -171.09746 3700.00000
362.05385 -0.66041 -169.45233 3702.00000
363.22957 -0.67451 -167.80306 3704.00000
364.39408 -0.68896 -166.14577 3706.00000
365.52578 -0.70362 -164.47977 3708.00000
366.59266 -0.71825 -162.81473 3710.00000
367.56159 -0.73253 -161.16955 3712.00000
368.41903 -0.74625 -159.54455 3714.00000
369.18145 -0.75929 -157.91471 3716.00000
369.87762 -0.77128 -156.26502 3718.00000
370.53011 -0.78167 -154.59604 3720.00000
371.14560 -0.79013 -152.91281 3722.00000
371.71899 -0.79711 -151.21968 3724.00000
372.23950 -0.80336 -149.51930 3726.00000
372.69880 -0.81029 -147.81323 3728.00000
373.09845 -0.81927 -146.10130 3730.00000
373.44980 -0.83036 -144.38089 3732.00000
373.76625 -0.84215 -142.65084 3734.00000
374.05242 -0.85269 -140.91203 3736.00000
374.30249 -0.86018 -139.16635 3738.00000
374.50589 -0.86385 -137.41638 3740.00000
374.65650 -0.86423 -135.66517 3742.00000
374.75610 -0.86312 -133.91444 3744.00000
374.80801 -0.86251 -132.16265 3746.00000
374.81605 -0.86354 -130.40722 3748.00000
374.78768 -0.86642 -128.64863 3750.00000
374.72690 -0.86961 -126.89025 3752.00000
374.63320 -0.87163 -125.13653 3754.00000
374.50387 -0.87146 -123.38987 3756.00000
374.33210 -0.86937 -121.64579 3758.00000
374.10643 -0.86564 -119.88835 3760.00000
373.81294 -0.86136 -118.09496 3762.00000
373.44426 -0.85765 -116.26229 3764.00000
373.01118 -0.85549 -114.41009 3766.00000
372.53781 -0.85463 -112.55500 3768.00000
372.04332 -0.85402 -110.70481 3770.00000
371.53305 -0.85246 -108.86272 3772.00000
371.00508 -0.84830 -107.02854 3774.00000
370.45621 -0.84080 -105.19762 3776.00000
369.88240 -0.83002 -103.35935 3778.00000
369.28069 -0.81656 -101.50021 3780.00000
368.65462 -0.80144 -99.61780 3782.00000
368.01397 -0.78565 -97.72227 3784.00000
367.36671 -0.76990 -95.82302 3786.00000
366.71580 -0.75442 -93.92491 3788.00000
366.06237 -0.73904 -92.02911 3790.00000
365.40740 -0.72348 -90.13497 3792.00000
364.75147 -0.70750 -88.24164 3794.00000
364.09479 -0.69106 -86.34866 3796.00000
363.43746 -0.67439 -84.45586 3798.00000
362.77957 -0.65775 -82.56320 3800.00000
362.12134 -0.64137 -80.67061 3802.00000
361.46366 -0.62554 -78.77782 3804.00000
360.80880 -0.61083 -76.88404 3806.00000
360.16027 -0.59808 -74.98809 3808.00000
359.52002 -0.58801 -73.08927 3810.00000
358.88609 -0.58049 -71.18830 3812.00000
358.25662 -0.57430 -69.28588 3814.00000
357.63179 -0.56798 -67.38207 3816.00000
357.01123 -0.56049 -65.47720 3818.00000
356.39257 -0.55157 -63.57216 3820.00000
355.77381 -0.54153 -61.66714 3822.00000
355.15381 -0.53059 -59.76075 3824.00000
354.53180 -0.51894 -57.84962 3826.00000
353.90772 -0.50698 -55.92974 3828.00000
353.28343 -0.49548 -54.00061 3830.00000
352.66177 -0.48516 -52.06524 3832.00000
352.04402 -0.47634 -50.12665 3834.00000
351.43067 -0.46862 -48.18633 3836.00000
350.82127 -0.46127 -46.24490 3838.00000
350.21506 -0.45369 -44.30267 3840.00000
349.61497 -0.44550 -42.35896 3842.00000
349.02817 -0.43644 -40.41189 3844.00000
348.46258 -0.42629 -38.45890 3846.00000
347.92103 -0.41509 -36.49739 3848.00000
347.39921 -0.40315 -34.52463 3850.00000
346.89146 -0.39105 -32.53769 3852.00000
346.39497 -0.37947 -30.53713 3854.00000
345.90809 -0.36894 -28.52687 3856.00000
345.42764 -0.35977 -26.51068 3858.00000
344.95059 -0.35173 -24.49079 3860.00000
344.47781 -0.34449 -22.46775 3862.00000
344.01516 -0.33767 -20.44103 3864.00000
343.57198 -0.33110 -18.40977 3866.00000
343.15648 -0.32501 -16.37329 3868.00000
342.77297 -0.31995 -14.33005 3870.00000
342.42279 -0.31636 -12.27554 3872.00000
342.10556 -0.31364 -10.20206 3874.00000
341.82073 -0.31112 -8.10240 3876.00000
341.56929 -0.30904 -5.97943 3878.00000
341.35276 -0.30824 -3.84292 3880.00000
341.17251 -0.30968 -1.70085 3882.00000
341.03071 -0.31368 0.44219 3884.00000
340.93122 -0.31941 2.58325 3886.00000
340.87902 -0.32567 4.71941 3888.00000
340.87711 -0.33198 6.84718 3890.00000
340.92606 -0.33846 8.96399 3892.00000
341.02583 -0.34550 11.07244 3894.00000
341.17772 -0.35441 13.18586 3896.00000
341.38552 -0.36684 15.32938 3898.00000
341.65461 -0.38299 17.52322 3900.00000
341.98703 -0.40162 19.75336 3902.00000
342.37989 -0.42123 21.98712 3904.00000
342.82624 -0.44063 24.20022 3906.00000
343.31555 -0.45930 26.38199 3908.00000
343.83758 -0.47745 28.52974 3910.00000
344.38606 -0.49547 30.64212 3912.00000
344.95960 -0.51385 32.71623 3914.00000
345.56244 -0.53313 34.74871 3916.00000
346.20433 -0.55345 36.74246 3918.00000
346.89935 -0.57479 38.71771 3920.00000
347.66707 -0.59715 40.71626 3922.00000
348.52459 -0.62073 42.77350 3924.00000
349.46604 -0.64593 44.86677 3926.00000
350.47369 -0.67316 46.94547 3928.00000
351.53588 -0.70170 48.97257 3930.00000
352.64764 -0.72887 50.92616 3932.00000
353.80052 -0.75176 52.78861 3934.00000
354.97352 -0.76944 54.54053 3936.00000
356.14361 -0.78339 56.16989 3938.00000
357.32398 -0.79636 57.71695 3940.00000
358.56715 -0.81092 59.27920 3942.00000
359.86549 -0.82818 60.87939 3944.00000
361.17870 -0.84816 62.48714 3946.00000
362.48043 -0.87013 64.07288 3948.00000
363.76898 -0.89310 65.63098 3950.00000
365.05242 -0.91618 67.17133 3952.00000
366.33598 -0.93871 68.70425 3954.00000
367.62134 -0.96060 70.23552 3956.00000
368.90824 -0.98204 71.76737 3958.00000
370.19580 -1.00348 73.30015 3960.00000
371.48328 -1.02526 74.83361 3962.00000
372.77018 -1.04741 76.36764 3964.00000
374.05590 -1.06993 77.90246 3966.00000
375.33973 -1.09273 79.43858 3968.00000
376.62166 -1.11572 80.97597 3970.00000
377.90260 -1.13868 82.51403 3972.00000
379.18324 -1.16133 84.05282 3974.00000
380.46353 -1.18344 85.59374 3976.00000
381.74246 -1.20479 87.13923 3978.00000
383.01714 -1.22540 88.69113 3980.00000
384.27860 -1.24554 90.24841 3982.00000
385.50796 -1.26572 91.80463 3984.00000
386.67862 -1.28637 93.34733 3986.00000
387.77081 -1.30754 94.86898 3988.00000
388.79135 -1.32927 96.38551 3990.00000
389.75971 -1.35136 97.91872 3992.00000
390.69006 -1.37379 99.47898 3994.00000
391.58579 -1.39647 101.06807 3996.00000
392.44110 -1.41916 102.68524 3998.00000
393.24858 -1.44153 104.32831 4000.00000
394.00857 -1.46342 105.99116 4002.00000
394.73045 -1.48484 107.66425 4004.00000
395.42365 -1.50620 109.33982 4006.00000
396.09127 -1.52763 111.01566 4008.00000
396.73143 -1.54917 112.69560 4010.00000
397.34063 -1.57092 114.38791 4012.00000
397.91296 -1.59291 116.10110 4014.00000
398.43832 -1.61530 117.83994 4016.00000
398.90514 -1.63819 119.60536 4018.00000
399.30814 -1.66157 121.39425 4020.00000
399.65303 -1.68526 123.20024 4022.00000
399.94903 -1.70846 125.01643 4024.00000
400.19924 -1.72941 126.83748 4026.00000
400.39933 -1.74600 128.65949 4028.00000
400.53985 -1.75732 130.47973 4030.00000
400.61324 -1.76412 132.29697 4032.00000
400.61974 -1.76844 134.11268 4034.00000
400.56858 -1.77287 135.93072 4036.00000
400.47378 -1.77905 137.75364 4038.00000
400.34743 -1.78760 139.58133 4040.00000
400.19345 -1.79852 141.41195 4042.00000
400.00992 -1.81172 143.24298 4044.00000
399.79516 -1.82695 145.07203 4046.00000
399.55125 -1.84402 146.89730 4048.00000
399.28074 -1.86277 148.71699 4050.00000
398.98204 -1.88289 150.52778 4052.00000
398.64668 -1.90413 152.32292 4054.00000
398.26412 -1.92637 154.09212 4056.00000
397.82767 -1.94959 155.82502 4058.00000
397.33261 -1.97363 157.51992 4060.00000
396.77517 -1.99826 159.18827 4062.00000
396.15986 -2.02324 160.84301 4064.00000
395.49910 -2.04844 162.49197 4066.00000
394.80052 -2.07390 164.13552 4068.00000
394.06298 -2.09981 165.76823 4070.00000
393.28513 -2.12640 167.38403 4072.00000
392.47093 -2.15361 168.97939 4074.00000
391.62824 -2.18141 170.55315 4076.00000
390.76229 -2.20976 172.10447 4078.00000
389.86984 -2.23866 173.63278 4080.00000
388.93868 -2.26848 175.14265 4082.00000
387.94838 -2.29951 176.64488 4084.00000
386.87966 -2.33143 178.14376 4086.00000
385.73079 -2.36339 179.62529 4088.00000
384.51133 -2.39469 181.07307 4090.00000
383.23270 -2.42484 182.47888 4092.00000
381.90683 -2.45379 183.84359 4094.00000
380.54653 -2.48175 185.17458 4096.00000
379.16334 -2.50903 186.48070 4098.00000
377.76574 -2.53572 187.76873 4100.00000
376.35846 -2.56162 189.04163 4102.00000
374.94215 -2.58645 190.29793 4104.00000
373.51429 -2.60970 191.53345 4106.00000
372.06986 -2.63092 192.74449 4108.00000
370.60150 -2.64955 193.93143 4110.00000
369.09999 -2.66494 195.09881 4112.00000
367.56086 -2.67688 196.24971 4114.00000
365.98959 -2.68573 197.38174 4116.00000
364.39480 -2.69221 198.49251 4118.00000
362.78328 -2.69710 199.58193 4120.00000
361.15848 -2.70113 200.65056 4122.00000
359.52183 -2.70476 201.69914 4124.00000
357.87494 -2.70899 202.72955 4126.00000
356.22085 -2.71441 203.74564 4128.00000
354.56335 -2.72145 204.75194 4130.00000
352.90495 -2.72979 205.75094 4132.00000
351.24585 -2.73887 206.74354 4134.00000
349.58302 -2.74794 207.73150 4136.00000
347.90867 -2.75627 208.71973 4138.00000
346.21201 -2.76349 209.71600 4140.00000
344.48968 -2.76957 210.72464 4142.00000
342.75120 -2.77474 211.74211 4144.00000
341.00680 -2.77933 212.76334 4146.00000
339.26187 -2.78354 213.78532 4148.00000
337.51794 -2.78767 214.80702 4150.00000
335.77482 -2.79223 215.82830 4152.00000
334.03203 -2.79781 216.84912 4154.00000
332.28943 -2.80472 217.86947 4156.00000
330.54750 -2.81285 218.88982 4158.00000
328.80727 -2.82187 219.91233 4160.00000
327.06948 -2.83158 220.94196 4162.00000
325.33270 -2.84212 221.98599 4164.00000
323.59252 -2.85381 223.05131 4166.00000
321.84619 -2.86677 224.13972 4168.00000
320.09650 -2.88086 225.24581 4170.00000
318.34748 -2.89571 226.36362 4172.00000
316.60257 -2.91087 227.49133 4174.00000
314.86453 -2.92601 228.63033 4176.00000
313.13528 -2.94103 229.78264 4178.00000
311.41619 -2.95601 230.94962 4180.00000
309.70925 -2.97122 232.13290 4182.00000
308.01877 -2.98699 233.33636 4184.00000
306.35185 -3.00365 234.56688 4186.00000
304.71507 -3.02142 235.83120 4188.00000
303.10710 -3.04025 237.12922 4190.00000
301.51418 -3.05977 238.45169 4192.00000
299.91813 -3.07954 239.78959 4194.00000
298.31037 -3.09938 241.13988 4196.00000
296.69554 -3.11925 242.50323 4198.00000
295.08444 -3.13926 243.88442 4200.00000
293.48791 -3.15952 245.28986 4202.00000
291.91453 -3.18008 246.72476 4204.00000
290.37043 -3.20095 248.19198 4206.00000
288.85925 -3.22232 249.69189 4208.00000
287.38206 -3.24435 251.22247 4210.00000
285.93679 -3.26727 252.77914 4212.00000
284.51766 -3.29120 254.35459 4214.00000
283.11741 -3.31602 255.94061 4216.00000
281.73286 -3.34148 257.53229 4218.00000
280.36726 -3.36695 259.12915 4220.00000
279.02740 -3.39169 260.73336 4222.00000
277.71779 -3.41576 262.34826 4224.00000
276.43897 -3.44035 263.97867 4226.00000
275.19171 -3.46724 265.62937 4228.00000
273.97925 -3.49791 267.30417 4230.00000
272.80534 -3.53309 269.00494 4232.00000
271.67209 -3.57260 270.73144 4234.00000
270.57926 -3.61526 272.48187 4236.00000
269.52313 -3.65883 274.25259 4238.00000
268.49521 -3.70036 276.03758 4240.00000
267.48506 -3.73718 277.82971 4242.00000
266.48655 -3.76834 279.62338 4244.00000
265.49928 -3.79464 281.41410 4246.00000
264.52624 -3.81792 283.19743 4248.00000
263.56954 -3.83938 284.97147 4250.00000
262.62690 -3.85958 286.74033 4252.00000
261.69405 -3.87848 288.50901 4254.00000
260.76685 -3.89612 290.27970 4256.00000
259.84197 -3.91286 292.05217 4258.00000
258.91737 -3.92887 293.82549 4260.00000
257.99232 -3.94423 295.59903 4262.00000
257.06681 -3.95890 297.37247 4264.00000
256.14098 -3.97279 299.14572 4266.00000
255.21512 -3.98588 300.91887 4268.00000
254.28986 -3.99810 302.69230 4270.00000
253.36653 -4.00945 304.46677 4272.00000
252.44691 -4.02000 306.24323 4274.00000
251.53269 -4.02971 308.02250 4276.00000
250.62546 -4.03854 309.80542 4278.00000
249.72593 -4.04649 311.59238 4280.00000
248.83260 -4.05351 313.38258 4282.00000
247.94248 -4.05954 315.17440 4284.00000
247.05327 -4.06449 316.96667 4286.00000
246.16412 -4.06820 318.75899 4288.00000
245.27500 -4.07070 320.55129 4290.00000
244.38601 -4.07238 322.34366 4292.00000
243.49715 -4.07386 324.13616 4294.00000
242.60830 -4.07564 325.92868 4296.00000
241.71944 -4.07753 327.72116 4298.00000
240.83136 -4.07918 329.51398 4300.00000
239.94586 -4.08017 331.30817 4302.00000
239.06520 -4.08078 333.10498 4304.00000
238.19027 -4.08183 334.90507 4306.00000
237.31982 -4.08420 336.70800 4308.00000
236.45195 -4.08855 338.51275 4310.00000
235.58534 -4.09472 340.31837 4312.00000
234.71919 -4.10175 342.12423 4314.00000
233.85310 -4.10855 343.93007 4316.00000
232.98669 -4.11442 345.73574 4318.00000
232.11941 -4.11938 347.54096 4320.00000
231.25052 -4.12388 349.34530 4322.00000
230.37966 -4.12854 351.14861 4324.00000
229.50640 -4.13396 352.95063 4326.00000
228.62998 -4.14033 354.75099 4328.00000
227.75070 -4.14758 356.54989 4330.00000
226.86895 -4.15532 358.34750 4332.00000
225.98345 -4.16303 360.14319 4334.00000
225.09259 -4.17028 361.93612 4336.00000
224.19748 -4.17695 363.72683 4338.00000
223.30075 -4.18307 365.51663 4340.00000
222.40383 -4.18867 367.30632 4342.00000
221.50697 -4.19387 369.09610 4344.00000
220.60995 -4.19877 370.88585 4346.00000
219.71252 -4.20348 372.67542 4348.00000
218.81455 -4.20813 374.46473 4350.00000
217.91607 -4.21285 376.25381 4352.00000
217.01726 -4.21789 378.04275 4354.00000
216.11829 -4.22366 379.83164 4356.00000
215.21930 -4.23063 381.62053 4358.00000
214.32038 -4.23903 383.40947 4360.00000
213.42162 -4.24873 385.19851 4362.00000
212.52314 -4.25919 386.98769 4364.00000
211.62512 -4.26963 388.77714 4366.00000
210.72797 -4.27935 390.56705 4368.00000
209.83253 -4.28778 392.35779 4370.00000
208.93956 -4.29464 394.14972 4372.00000
208.04853 -4.29997 395.94262 4374.00000
207.15813 -4.30413 397.73589 4376.00000
206.26771 -4.30778 399.52922 4378.00000
205.37716 -4.31161 401.32249 4380.00000
204.48659 -4.31625 403.11571 4382.00000
203.59612 -4.32208 404.90895 4384.00000
202.70577 -4.32928 406.70227 4386.00000
201.81556 -4.33784 408.49567 4388.00000
200.92547 -4.34758 410.28916 4390.00000
200.03547 -4.35812 412.08268 4392.00000
199.14552 -4.36892 413.87620 4394.00000
198.25562 -4.37953 415.66968 4396.00000
197.36581 -4.38967 417.46311 4398.00000
196.47617 -4.39943 419.25643 4400.00000
195.58670 -4.40909 421.04967 4402.00000
194.69738 -4.41904 422.84290 4404.00000
193.80805 -4.42964 424.63611 4406.00000
192.91847 -4.44107 426.42918 4408.00000
192.02825 -4.45329 428.22190 4410.00000
191.13651 -4.46598 430.01387 4412.00000
190.24199 -4.47859 431.80448 4414.00000
189.34446 -4.49045 433.59357 4416.00000
188.44530 -4.50096 435.38185 4418.00000
187.54575 -4.51013 437.16994 4420.00000
186.64637 -4.51850 438.95811 4422.00000
185.74726 -4.52686 440.74638 4424.00000
184.84835 -4.53581 442.53479 4426.00000
183.94957 -4.54543 444.32330 4428.00000
183.05090 -4.55545 446.11186 4430.00000
182.15235 -4.56562 447.90046 4432.00000
181.25393 -4.57577 449.68912 4434.00000
180.35562 -4.58594 451.47782 4436.00000
179.45737 -4.59624 453.26654 4438.00000
178.55913 -4.60668 455.05526 4440.00000
177.66085 -4.61704 456.84399 4442.00000
176.76257 -4.62695 458.63274 4444.00000
175.86432 -4.63609 460.42151 4446.00000
174.96614 -4.64453 462.21033 4448.00000
174.06809 -4.65258 463.99917 4450.00000
173.17015 -4.66063 465.78804 4452.00000
172.27228 -4.66890 467.57700 4454.00000
171.37450 -4.67748 469.36604 4456.00000
170.47687 -4.68648 471.15513 4458.00000
169.57945 -4.69606 472.94426 4460.00000
168.68225 -4.70626 474.73343 4462.00000
167.78521 -4.71664 476.52264 4464.00000
166.88827 -4.72656 478.31194 4466.00000
165.99142 -4.73561 480.10132 4468.00000
165.09474 -4.74393 481.89079 4470.00000
164.19828 -4.75230 483.68035 4472.00000
163.30202 -4.76181 485.46998 4474.00000
162.40592 -4.77325 487.25966 4476.00000
161.50988 -4.78706 489.04939 4478.00000
160.61384 -4.80283 490.83915 4480.00000
159.71781 -4.81971 492.62895 4482.00000
158.82205 -4.83669 494.41888 4484.00000
157.92699 -4.85312 496.20913 4486.00000
157.03306 -4.86887 497.99986 4488.00000
156.14041 -4.88409 499.79115 4490.00000
155.24907 -4.89900 501.58310 4492.00000
154.35905 -4.91389 503.37575 4494.00000
153.47037 -4.92919 505.16908 4496.00000
152.58303 -4.94528 506.96305 4498.00000
151.69715 -4.96211 508.75772 4500.00000
150.81287 -4.97902 510.55317 4502.00000
149.93023 -4.99479 512.34943 4504.00000
149.04898 -5.00790 514.14635 4506.00000
148.16856 -5.01718 515.94364 4508.00000
147.28826 -5.02196 517.74092 4510.00000
146.40700 -5.02301 519.53768 4512.00000
145.52361 -5.02209 521.33341 4514.00000
144.63801 -5.02176 523.12809 4516.00000
143.75142 -5.02448 524.92238 4518.00000
142.86487 -5.03155 526.71674 4520.00000
141.97863 -5.04330 528.51125 4522.00000
141.09252 -5.05872 530.30582 4524.00000
140.20629 -5.07647 532.10033 4526.00000
139.31972 -5.09533 533.89470 4528.00000
138.43267 -5.11479 535.68879 4530.00000
137.54506 -5.13488 537.48259 4532.00000
136.65691 -5.15569 539.27612 4534.00000
135.76828 -5.17704 541.06946 4536.00000
134.87932 -5.19862 542.86266 4538.00000
133.99015 -5.22003 544.65576 4540.00000
133.10084 -5.24085 546.44879 4542.00000
132.21143 -5.26052 548.24176 4544.00000
131.32193 -5.27838 550.03465 4546.00000
130.43236 -5.29398 551.82748 4548.00000
129.54273 -5.30711 553.62029 4550.00000
128.65307 -5.31819 555.41310 4552.00000
127.76346 -5.32807 557.20592 4554.00000
126.87394 -5.33796 558.99876 4556.00000
125.98450 -5.34905 560.79166 4558.00000
125.09516 -5.36177 562.58461 4560.00000
124.20589 -5.37589 564.37758 4562.00000
123.31654 -5.39047 566.17052 4564.00000
122.42687 -5.40454 567.96330 4566.00000
121.53649 -5.41756 569.75576 4568.00000
120.64518 -5.42940 571.54780 4570.00000
119.75289 -5.44035 573.33940 4572.00000
118.85971 -5.45089 575.13060 4574.00000
117.96572 -5.46150 576.92139 4576.00000
117.07099 -5.47255 578.71169 4578.00000
116.17557 -5.48412 580.50133 4580.00000
115.27959 -5.49616 582.29007 4582.00000
114.38307 -5.50842 584.07773 4584.00000
113.48591 -5.52062 585.86449 4586.00000
112.58799 -5.53253 587.65060 4588.00000
111.68925 -5.54406 589.43627 4590.00000
110.78968 -5.55525 591.22159 4592.00000
109.88931 -5.56619 593.00660 4594.00000
108.98823 -5.57697 594.79126 4596.00000
108.08666 -5.58772 596.57565 4598.00000
107.18489 -5.59864 598.35993 4600.00000
106.28319 -5.60996 600.14421 4602.00000
105.38163 -5.62178 601.92855 4604.00000
104.48016 -5.63400 603.71296 4606.00000
103.57869 -5.64633 605.49742 4608.00000
102.67716 -5.65834 607.28187 4610.00000
101.77559 -5.66967 609.06623 4612.00000
100.87400 -5.68013 610.85053 4614.00000
99.97241 -5.68981 612.63483 4616.00000
99.07089 -5.69902 614.41917 4618.00000
98.16951 -5.70807 616.20356 4620.00000
97.26826 -5.71711 617.98801 4622.00000
96.36713 -5.72612 619.77252 4624.00000
95.46611 -5.73506 621.55709 4626.00000
94.56531 -5.74396 623.34176 4628.00000
93.66500 -5.75296 625.12663 4630.00000
92.76553 -5.76225 626.91191 4632.00000
91.86725 -5.77197 628.69778 4634.00000
90.97041 -5.78208 630.48433 4636.00000
90.07514 -5.79234 632.27163 4638.00000
89.18157 -5.80252 634.05973 4640.00000
88.28977 -5.81248 635.84865 4642.00000
87.39969 -5.82240 637.63836 4644.00000
86.51107 -5.83248 639.42875 4646.00000
85.62341 -5.84260 641.21958 4648.00000
84.73616 -5.85234 643.01060 4650.00000
83.84898 -5.86145 644.80164 4652.00000
82.96175 -5.87009 646.59262 4654.00000
82.07441 -5.87899 648.38357 4656.00000
81.18696 -5.88889 650.17448 4658.00000
80.29935 -5.89999 651.96529 4660.00000
79.41149 -5.91200 653.75596 4662.00000
78.52335 -5.92440 655.54646 4664.00000
77.63494 -5.93679 657.33683 4666.00000
76.74638 -5.94909 659.12713 4668.00000
75.85790 -5.96143 660.91751 4670.00000
74.96989 -5.97417 662.70815 4672.00000
74.08275 -5.98771 664.49918 4674.00000
73.19655 -6.00248 666.29066 4676.00000
72.31100 -6.01842 668.08247 4678.00000
71.42574 -6.03477 669.87439 4680.00000
70.54058 -6.05056 671.66636 4682.00000
69.65557 -6.06520 673.45841 4684.00000
68.77087 -6.07895 675.25064 4686.00000
67.88662 -6.09303 677.04309 4688.00000
67.00290 -6.10861 678.83579 4690.00000
66.11968 -6.12644 680.62874 4692.00000
65.23696 -6.14673 682.42194 4694.00000
64.35468 -6.16891 684.21536 4696.00000
63.47282 -6.19234 686.00896 4698.00000
62.59138 -6.21609 687.80276 4700.00000
61.71035 -6.23932 689.59676 4702.00000
60.82970 -6.26128 691.39095 4704.00000
59.94934 -6.28177 693.18527 4706.00000
59.06924 -6.30150 694.97977 4708.00000
58.18939 -6.32147 696.77445 4710.00000
57.30981 -6.34233 698.56925 4712.00000
56.43044 -6.36399 700.36406 4714.00000
55.55122 -6.38563 702.15886 4716.00000
54.67208 -6.40659 703.95371 4718.00000
53.79299 -6.42666 705.74860 4720.00000
52.91392 -6.44599 707.54354 4722.00000
52.03479 -6.46508 709.33850 4724.00000
51.15536 -6.48447 711.13330 4726.00000
50.27520 -6.50473 712.92772 4728.00000
49.39364 -6.52618 714.72146 4730.00000
48.51012 -6.54872 716.51425 4732.00000
47.62431 -6.57167 718.30591 4734.00000
46.73578 -6.59365 720.09627 4736.00000
45.84375 -6.61351 721.88490 4738.00000
44.94691 -6.63095 723.67116 4740.00000
44.04433 -6.64658 725.45463 4742.00000
43.13685 -6.66184 727.23565 4744.00000
42.22661 -6.67801 729.01529 4746.00000
41.31559 -6.69600 730.79457 4748.00000
40.40480 -6.71614 732.57396 4750.00000
39.49451 -6.73816 734.35359 4752.00000
38.58469 -6.76179 736.13344 4754.00000
37.67520 -6.78674 737.91347 4756.00000
36.76597 -6.81283 739.69361 4758.00000
35.85693 -6.83957 741.47382 4760.00000
34.94804 -6.86603 743.25406 4762.00000
34.03923 -6.89100 745.03438 4764.00000
33.13048 -6.91389 746.81477 4766.00000
32.22176 -6.93503 748.59530 4768.00000
