VERSION 0.7
FIELDS x y z lapdistance
SIZE 4 4 4 4
TYPE F F F F
COUNT 1 1 1 1
WIDTH 1176
HEIGHT 1
VIEWPOINT -0.625 0.327 0.325 0.630 -558.457 -10.415 467.204
POINTS 1176
DATA ascii
-439.26132 -2.56644 -381.84634 2226.00000
-441.14040 -2.58198 -383.01356 2228.00000
-442.94621 -2.59825 -384.25029 2230.00000
-444.68093 -2.61543 -385.55579 2232.00000
-446.35329 -2.63379 -386.93613 2234.00000
-447.97184 -2.65341 -388.39919 2236.00000
-449.53896 -2.67397 -389.94696 2238.00000
-451.05392 -2.69483 -391.57305 2240.00000
-452.51847 -2.71545 -393.26371 2242.00000
-453.93674 -2.73581 -395.00287 2244.00000
-455.30880 -2.75635 -396.77941 2246.00000
-456.62886 -2.77722 -398.58771 2248.00000
-457.88885 -2.79794 -400.42359 2250.00000
-459.08094 -2.81758 -402.28245 2252.00000
-460.19763 -2.83556 -404.16175 2254.00000
-461.23396 -2.85192 -406.06507 2256.00000
-462.19090 -2.86727 -408.00563 2258.00000
-463.07289 -2.88269 -410.00406 2260.00000
-463.88175 -2.89940 -412.07929 2262.00000
-464.61372 -2.91812 -414.23977 2264.00000
-465.25644 -2.93853 -416.46296 2266.00000
-465.79408 -2.95947 -418.69903 2268.00000
-466.22252 -2.97996 -420.92010 2270.00000
-466.54612 -2.99944 -423.11571 2272.00000
-466.77524 -3.01775 -425.29627 2274.00000
-466.92444 -3.03523 -427.48729 2276.00000
-467.00664 -3.05226 -429.68823 2278.00000
-467.02918 -3.06920 -431.89130 2280.00000
-466.99220 -3.08650 -434.09849 2282.00000
-466.88943 -3.10452 -436.31619 2284.00000
-466.71024 -3.12352 -438.54524 2286.00000
-466.44555 -3.14339 -440.78016 2288.00000
-466.09284 -3.16372 -443.01242 2290.00000
-465.65615 -3.18399 -445.23329 2292.00000
-465.14419 -3.20406 -447.43546 2294.00000
-464.56591 -3.22427 -449.61293 2296.00000
-463.92800 -3.24476 -451.76004 2298.00000
-463.23795 -3.26582 -453.87065 2300.00000
-462.50786 -3.28777 -455.93711 2302.00000
-461.75526 -3.31029 -457.94956 2304.00000
-460.99759 -3.33273 -459.89970 2306.00000
-460.24238 -3.35452 -461.79550 2308.00000
-459.48721 -3.37548 -463.66080 2310.00000
-458.72808 -3.39585 -465.51473 2312.00000
-457.96241 -3.41609 -467.36605 2314.00000
-457.18934 -3.43656 -469.21676 2316.00000
-456.40891 -3.45735 -471.06618 2318.00000
-455.62117 -3.47829 -472.91319 2320.00000
-454.82615 -3.49900 -474.75712 2322.00000
-454.02374 -3.51936 -476.59769 2324.00000
-453.21381 -3.53949 -478.43482 2326.00000
-452.39634 -3.55954 -480.26856 2328.00000
-451.57158 -3.57964 -482.09903 2330.00000
-450.74011 -3.59981 -483.92633 2332.00000
-449.90324 -3.62004 -485.75053 2334.00000
-449.06345 -3.64029 -487.57184 2336.00000
-448.22329 -3.66051 -489.39074 2338.00000
-447.38382 -3.68068 -491.20813 2340.00000
-446.54497 -3.70079 -493.02490 2342.00000
-445.70640 -3.72086 -494.84156 2344.00000
-444.86788 -3.74093 -496.65832 2346.00000
-444.02935 -3.76099 -498.47517 2348.00000
-443.19083 -3.78106 -500.29208 2350.00000
-442.35229 -3.80113 -502.10899 2352.00000
-441.51371 -3.82119 -503.92589 2354.00000
-440.67508 -3.84126 -505.74274 2356.00000
-439.83638 -3.86135 -507.55957 2358.00000
-438.99764 -3.88147 -509.37639 2360.00000
-438.15894 -3.90162 -511.19322 2362.00000
-437.32040 -3.92177 -513.01009 2364.00000
-436.48220 -3.94194 -514.82709 2366.00000
-435.64444 -3.96212 -516.64427 2368.00000
-434.80715 -3.98230 -518.46168 2370.00000
-433.97024 -4.00248 -520.27934 2372.00000
-433.13365 -4.02263 -522.09729 2374.00000
-432.29732 -4.04277 -523.91556 2376.00000
-431.46125 -4.06288 -525.73413 2378.00000
-430.62547 -4.08295 -527.55294 2380.00000
-429.78995 -4.10297 -529.37193 2382.00000
-428.95465 -4.12300 -531.19106 2384.00000
-428.11948 -4.14308 -533.01027 2386.00000
-427.28435 -4.16337 -534.82951 2388.00000
-426.44913 -4.18363 -536.64872 2390.00000
-425.61345 -4.20383 -538.46774 2392.00000
-424.77625 -4.22384 -540.28609 2394.00000
-423.93572 -4.24369 -542.10287 2396.00000
-423.08904 -4.26342 -543.91668 2398.00000
-422.23217 -4.28305 -545.72545 2400.00000
-421.36102 -4.30257 -547.52716 2402.00000
-420.47326 -4.32194 -549.32093 2404.00000
-419.56884 -4.34113 -551.10789 2406.00000
-418.64978 -4.36005 -552.89162 2408.00000
-417.71882 -4.37856 -554.67713 2410.00000
-416.77827 -4.39652 -556.46711 2412.00000
-415.83062 -4.41418 -558.25981 2414.00000
-414.87799 -4.43214 -560.05236 2416.00000
-413.92210 -4.45128 -561.84319 2418.00000
-412.96413 -4.47235 -563.63197 2420.00000
-412.00481 -4.49508 -565.41893 2422.00000
-411.04521 -4.51794 -567.20473 2424.00000
-410.08673 -4.53947 -568.99021 2426.00000
-409.13087 -4.55903 -570.77629 2428.00000
-408.17892 -4.57647 -572.56367 2430.00000
-407.23084 -4.59111 -574.35232 2432.00000
-406.28511 -4.60260 -576.14141 2434.00000
-405.34042 -4.61155 -577.93017 2436.00000
-404.39636 -4.61922 -579.71834 2438.00000
-403.45304 -4.62678 -581.50624 2440.00000
-402.50993 -4.63442 -583.29460 2442.00000
-401.56428 -4.64158 -585.08412 2444.00000
-400.60970 -4.64764 -586.87402 2446.00000
-399.63703 -4.65208 -588.66001 2448.00000
-398.63793 -4.65469 -590.43571 2450.00000
-397.60975 -4.65563 -592.19764 2452.00000
-396.55825 -4.65528 -593.94778 2454.00000
-395.49126 -4.65398 -595.68997 2456.00000
-394.41012 -4.65183 -597.42447 2458.00000
-393.31086 -4.64877 -599.14832 2460.00000
-392.18973 -4.64481 -600.85868 2462.00000
-391.04620 -4.64017 -602.55464 2464.00000
-389.88337 -4.63528 -604.23767 2466.00000
-388.70656 -4.63072 -605.91074 2468.00000
-387.52037 -4.62692 -607.57645 2470.00000
-386.32706 -4.62396 -609.23594 2472.00000
-385.12727 -4.62155 -610.88927 2474.00000
-383.92089 -4.61915 -612.53624 2476.00000
-382.70747 -4.61629 -614.17700 2478.00000
-381.48621 -4.61275 -615.81248 2480.00000
-380.25593 -4.60868 -617.44417 2482.00000
-379.01590 -4.60445 -619.07292 2484.00000
-377.76616 -4.60026 -620.69855 2486.00000
-376.50707 -4.59579 -622.32057 2488.00000
-375.23901 -4.59023 -623.93859 2490.00000
-373.96227 -4.58286 -625.55237 2492.00000
-372.67695 -4.57360 -627.16162 2494.00000
-371.38296 -4.56239 -628.76594 2496.00000
-370.08010 -4.54948 -630.36482 2498.00000
-368.76761 -4.53540 -631.95718 2500.00000
-367.44379 -4.52052 -633.54100 2502.00000
-366.10648 -4.50522 -635.11382 2504.00000
-364.75445 -4.48992 -636.67406 2506.00000
-363.38853 -4.47512 -638.22209 2508.00000
-362.01123 -4.46134 -639.75975 2510.00000
-360.62507 -4.44891 -641.28826 2512.00000
-359.23232 -4.43814 -642.80691 2514.00000
-357.83575 -4.42938 -644.31322 2516.00000
-356.43800 -4.42299 -645.80446 2518.00000
-355.03853 -4.41911 -647.28113 2520.00000
-353.63430 -4.41755 -648.74648 2522.00000
-352.22284 -4.41776 -650.20305 2524.00000
-350.80279 -4.41910 -651.65163 2526.00000
-349.37339 -4.42081 -653.09171 2528.00000
-347.93395 -4.42232 -654.52237 2530.00000
-346.48377 -4.42325 -655.94297 2532.00000
-345.02218 -4.42351 -657.35362 2534.00000
-343.54868 -4.42336 -658.75493 2536.00000
-342.06347 -4.42334 -660.14709 2538.00000
-340.56728 -4.42395 -661.52963 2540.00000
-339.06078 -4.42519 -662.90196 2542.00000
-337.54443 -4.42654 -664.26350 2544.00000
-336.01852 -4.42739 -665.61400 2546.00000
-334.48288 -4.42753 -666.95374 2548.00000
-332.93625 -4.42727 -668.28377 2550.00000
-331.37586 -4.42709 -669.60622 2552.00000
-329.79846 -4.42735 -670.92352 2554.00000
-328.20316 -4.42808 -672.23608 2556.00000
-326.59152 -4.42914 -673.54221 2558.00000
-324.96518 -4.43043 -674.84027 2560.00000
-323.32532 -4.43183 -676.12903 2562.00000
-321.67376 -4.43308 -677.40703 2564.00000
-320.01181 -4.43386 -678.67318 2566.00000
-318.33922 -4.43387 -679.92711 2568.00000
-316.65500 -4.43296 -681.16780 2570.00000
-314.95755 -4.43115 -682.39265 2572.00000
-313.24496 -4.42840 -683.59775 2574.00000
-311.51616 -4.42459 -684.77935 2576.00000
-309.77153 -4.41949 -685.93498 2578.00000
-308.01234 -4.41297 -687.06337 2580.00000
-306.23914 -4.40517 -688.16427 2582.00000
-304.45053 -4.39676 -689.23845 2584.00000
-302.64423 -4.38882 -690.28646 2586.00000
-300.81604 -4.38287 -691.30897 2588.00000
-298.96050 -4.37995 -692.30589 2590.00000
-297.07714 -4.37995 -693.27238 2592.00000
-295.17374 -4.38185 -694.19884 2594.00000
-293.25773 -4.38415 -695.07956 2596.00000
-291.32271 -4.38572 -695.91915 2598.00000
-289.36105 -4.38585 -696.72276 2600.00000
-287.37215 -4.38380 -697.49090 2602.00000
-285.35685 -4.37897 -698.22279 2604.00000
-283.31462 -4.37149 -698.91916 2606.00000
-281.24391 -4.36258 -699.58454 2608.00000
-279.14518 -4.35400 -700.22756 2610.00000
-277.02798 -4.34705 -700.85534 2612.00000
-274.91933 -4.34162 -701.46507 2614.00000
-272.83459 -4.33679 -702.05188 2616.00000
-270.76666 -4.33181 -702.61398 2618.00000
-268.70736 -4.32670 -703.15003 2620.00000
-266.65598 -4.32200 -703.65791 2622.00000
-264.61817 -4.31826 -704.13388 2624.00000
-262.59763 -4.31575 -704.57437 2626.00000
-260.58740 -4.31457 -704.97901 2628.00000
-258.57729 -4.31429 -705.34937 2630.00000
-256.56134 -4.31452 -705.68686 2632.00000
-254.53789 -4.31494 -705.99271 2634.00000
-252.50781 -4.31417 -706.26955 2636.00000
-250.47326 -4.31009 -706.52371 2638.00000
-248.43683 -4.30117 -706.76515 2640.00000
-246.40058 -4.28782 -707.00292 2642.00000
-244.36543 -4.27211 -707.24136 2644.00000
-242.33146 -4.25655 -707.48120 2646.00000
-240.29836 -4.24257 -707.72189 2648.00000
-238.26578 -4.23011 -707.96291 2650.00000
-236.23355 -4.21853 -708.20406 2652.00000
-234.20231 -4.20719 -708.44515 2654.00000
-232.17445 -4.19572 -708.68591 2656.00000
-230.15470 -4.18409 -708.92577 2658.00000
-228.14782 -4.17249 -709.16421 2660.00000
-226.15277 -4.16114 -709.40150 2662.00000
-224.16399 -4.15004 -709.63839 2664.00000
-222.17713 -4.13902 -709.87539 2666.00000
-220.19020 -4.12802 -710.11274 2668.00000
-218.20273 -4.11703 -710.35046 2670.00000
-216.21486 -4.10604 -710.58857 2672.00000
-214.22684 -4.09505 -710.82706 2674.00000
-212.23880 -4.08404 -711.06579 2676.00000
-210.25082 -4.07297 -711.30465 2678.00000
-208.26290 -4.06183 -711.54367 2680.00000
-206.27501 -4.05067 -711.78278 2682.00000
-204.28712 -4.03950 -712.02189 2684.00000
-202.29923 -4.02834 -712.26096 2686.00000
-200.31132 -4.01726 -712.49998 2688.00000
-198.32341 -4.00630 -712.73891 2690.00000
-196.33550 -3.99542 -712.97772 2692.00000
-194.34762 -3.98448 -713.21649 2694.00000
-192.35974 -3.97339 -713.45524 2696.00000
-190.37183 -3.96219 -713.69386 2698.00000
-188.38387 -3.95094 -713.93217 2700.00000
-186.39586 -3.93968 -714.17007 2702.00000
-184.40781 -3.92841 -714.40759 2704.00000
-182.41969 -3.91715 -714.64477 2706.00000
-180.43152 -3.90588 -714.88165 2708.00000
-178.44332 -3.89462 -715.11821 2710.00000
-176.45510 -3.88334 -715.35442 2712.00000
-174.46682 -3.87205 -715.59032 2714.00000
-172.47850 -3.86074 -715.82592 2716.00000
-170.49014 -3.84944 -716.06126 2718.00000
-168.50175 -3.83812 -716.29636 2720.00000
-166.51335 -3.82680 -716.53121 2722.00000
-164.52493 -3.81547 -716.76584 2724.00000
-162.53650 -3.80414 -717.00023 2726.00000
-160.54805 -3.79282 -717.23436 2728.00000
-158.55958 -3.78151 -717.46817 2730.00000
-156.57108 -3.77019 -717.70164 2732.00000
-154.58255 -3.75884 -717.93486 2734.00000
-152.59400 -3.74744 -718.16789 2736.00000
-150.60543 -3.73595 -718.40079 2738.00000
-148.61688 -3.72431 -718.63362 2740.00000
-146.62831 -3.71258 -718.86634 2742.00000
-144.63972 -3.70090 -719.09889 2744.00000
-142.65109 -3.68934 -719.33113 2746.00000
-140.66245 -3.67787 -719.56303 2748.00000
-138.67381 -3.66641 -719.79459 2750.00000
-136.68519 -3.65494 -720.02581 2752.00000
-134.69661 -3.64343 -720.25668 2754.00000
-132.70809 -3.63186 -720.48718 2756.00000
-130.71958 -3.62022 -720.71735 2758.00000
-128.73107 -3.60846 -720.94717 2760.00000
-126.74254 -3.59653 -721.17667 2762.00000
-124.75396 -3.58446 -721.40591 2764.00000
-122.76534 -3.57241 -721.63497 2766.00000
-120.77673 -3.56038 -721.86393 2768.00000
-118.78815 -3.54831 -722.09289 2770.00000
-116.79958 -3.53609 -722.32191 2772.00000
-114.81098 -3.52379 -722.55090 2774.00000
-112.82236 -3.51160 -722.77967 2776.00000
-110.83372 -3.49957 -723.00802 2778.00000
-108.84502 -3.48769 -723.23581 2780.00000
-106.85626 -3.47592 -723.46293 2782.00000
-104.86742 -3.46420 -723.68933 2784.00000
-102.87852 -3.45246 -723.91500 2786.00000
-100.88955 -3.44067 -724.13999 2788.00000
-98.90049 -3.42891 -724.36439 2790.00000
-96.91137 -3.41716 -724.58827 2792.00000
-94.92222 -3.40532 -724.81180 2794.00000
-92.93308 -3.39349 -725.03501 2796.00000
-90.94392 -3.38170 -725.25789 2798.00000
-88.95469 -3.36990 -725.48048 2800.00000
-86.96535 -3.35813 -725.70276 2802.00000
-84.97594 -3.34629 -725.92473 2804.00000
-82.98649 -3.33445 -726.14646 2806.00000
-80.99701 -3.32264 -726.36795 2808.00000
-79.00751 -3.31077 -726.58920 2810.00000
-77.01799 -3.29886 -726.81020 2812.00000
-75.02847 -3.28700 -727.03098 2814.00000
-73.03896 -3.27517 -727.25156 2816.00000
-71.04944 -3.26336 -727.47195 2818.00000
-69.05991 -3.25154 -727.69216 2820.00000
-67.07035 -3.23966 -727.91223 2822.00000
-65.08079 -3.22771 -728.13213 2824.00000
-63.09124 -3.21574 -728.35187 2826.00000
-61.10171 -3.20372 -728.57148 2828.00000
-59.11220 -3.19169 -728.79097 2830.00000
-57.12268 -3.17959 -729.01030 2832.00000
-55.13314 -3.16740 -729.22946 2834.00000
-53.14357 -3.15520 -729.44844 2836.00000
-51.15399 -3.14296 -729.66730 2838.00000
-49.16440 -3.13066 -729.88616 2840.00000
-47.17484 -3.11830 -730.10520 2842.00000
-45.18535 -3.10598 -730.32455 2844.00000
-43.19598 -3.09364 -730.54430 2846.00000
-41.20689 -3.08132 -730.76453 2848.00000
-39.21827 -3.06906 -730.98532 2850.00000
-37.23014 -3.05677 -731.20674 2852.00000
-35.24231 -3.04449 -731.42881 2854.00000
-33.25462 -3.03215 -731.65144 2856.00000
-31.26699 -3.01979 -731.87455 2858.00000
-29.27939 -3.00746 -732.09815 2860.00000
-27.29185 -2.99517 -732.32230 2862.00000
-25.30437 -2.98288 -732.54717 2864.00000
-23.31697 -2.97059 -732.77295 2866.00000
-21.32968 -2.95829 -732.99990 2868.00000
-19.34257 -2.94593 -733.22842 2870.00000
-17.35571 -2.93356 -733.45895 2872.00000
-15.36915 -2.92115 -733.69203 2874.00000
-13.38291 -2.90876 -733.92817 2876.00000
-11.39702 -2.89644 -734.16770 2878.00000
-9.41145 -2.88412 -734.41039 2880.00000
-7.42611 -2.87178 -734.65533 2882.00000
-5.44088 -2.85948 -734.90124 2884.00000
-3.45567 -2.84716 -735.14729 2886.00000
-1.47045 -2.83477 -735.39315 2888.00000
0.51482 -2.82239 -735.63878 2890.00000
2.50016 -2.80999 -735.88422 2892.00000
4.48560 -2.79758 -736.12947 2894.00000
6.47113 -2.78518 -736.37454 2896.00000
8.45672 -2.77279 -736.61939 2898.00000
10.44235 -2.76039 -736.86406 2900.00000
12.42801 -2.74801 -737.10860 2902.00000
14.41366 -2.73564 -737.35304 2904.00000
16.39933 -2.72326 -737.59741 2906.00000
18.38500 -2.71087 -737.84179 2908.00000
20.37067 -2.69845 -738.08619 2910.00000
22.35635 -2.68596 -738.33057 2912.00000
24.34202 -2.67347 -738.57489 2914.00000
26.32771 -2.66100 -738.81907 2916.00000
28.31343 -2.64858 -739.06310 2918.00000
30.29916 -2.63617 -739.30701 2920.00000
32.28490 -2.62375 -739.55087 2922.00000
34.27063 -2.61126 -739.79481 2924.00000
36.25635 -2.59875 -740.03875 2926.00000
38.24210 -2.58626 -740.28202 2928.00000
40.22807 -2.57374 -740.52307 2930.00000
42.21453 -2.56116 -740.75965 2932.00000
44.20182 -2.54853 -740.99027 2934.00000
46.19017 -2.53584 -741.21562 2936.00000
48.17975 -2.52316 -741.43748 2938.00000
50.17036 -2.51047 -741.65746 2940.00000
52.16152 -2.49778 -741.87672 2942.00000
54.15285 -2.48511 -742.09590 2944.00000
56.14418 -2.47242 -742.31518 2946.00000
58.13548 -2.45968 -742.53459 2948.00000
60.12674 -2.44693 -742.75415 2950.00000
62.11796 -2.43421 -742.97392 2952.00000
64.10913 -2.42149 -743.19407 2954.00000
66.10021 -2.40882 -743.41492 2956.00000
68.09118 -2.39617 -743.63678 2958.00000
70.08203 -2.38347 -743.85966 2960.00000
72.07282 -2.37076 -744.08322 2962.00000
74.06356 -2.35808 -744.30731 2964.00000
76.05415 -2.34537 -744.53279 2966.00000
78.04442 -2.33264 -744.76146 2968.00000
80.03423 -2.31987 -744.99505 2970.00000
82.02356 -2.30707 -745.23353 2972.00000
84.01262 -2.29431 -745.47508 2974.00000
86.00161 -2.28163 -745.71786 2976.00000
87.99068 -2.26895 -745.96091 2978.00000
89.97989 -2.25628 -746.20390 2980.00000
91.96923 -2.24356 -746.44687 2982.00000
93.95862 -2.23081 -746.69011 2984.00000
95.94801 -2.21811 -746.93412 2986.00000
97.93732 -2.20562 -747.17926 2988.00000
99.92655 -2.19344 -747.42546 2990.00000
101.91575 -2.18158 -747.67215 2992.00000
103.90498 -2.16964 -747.91874 2994.00000
105.89427 -2.15741 -748.16496 2996.00000
107.88363 -2.14513 -748.41076 2998.00000
109.87303 -2.13296 -748.65604 3000.00000
111.86253 -2.12080 -748.90050 3002.00000
113.85219 -2.10838 -749.14362 3004.00000
115.84206 -2.09559 -749.38487 3006.00000
117.83214 -2.08259 -749.62366 3008.00000
119.82250 -2.06951 -749.85893 3010.00000
121.81329 -2.05639 -750.08834 3012.00000
123.80483 -2.04315 -750.30721 3014.00000
125.79772 -2.02954 -750.50950 3016.00000
127.79270 -2.01522 -750.69138 3018.00000
129.79062 -2.00011 -750.85363 3020.00000
131.79227 -1.98484 -751.00146 3022.00000
133.79742 -1.97017 -751.14208 3024.00000
135.80462 -1.95596 -751.28091 3026.00000
137.81259 -1.94200 -751.41986 3028.00000
139.82075 -1.92828 -751.55824 3030.00000
141.82906 -1.91492 -751.69416 3032.00000
143.83768 -1.90206 -751.82583 3034.00000
145.84668 -1.88928 -751.95260 3036.00000
147.85610 -1.87609 -752.07432 3038.00000
149.86594 -1.86220 -752.18939 3040.00000
151.87605 -1.84759 -752.29475 3042.00000
153.88600 -1.83255 -752.38654 3044.00000
155.89551 -1.81735 -752.45992 3046.00000
157.90547 -1.80255 -752.51041 3048.00000
159.92007 -1.78849 -752.53707 3050.00000
161.94904 -1.77428 -752.54559 3052.00000
164.00631 -1.75914 -752.54528 3054.00000
166.09732 -1.74290 -752.54229 3056.00000
168.21203 -1.72640 -752.53648 3058.00000
170.33829 -1.71083 -752.52121 3060.00000
172.46863 -1.69713 -752.48625 3062.00000
174.59953 -1.68575 -752.42400 3064.00000
176.72896 -1.67647 -752.32882 3066.00000
178.85470 -1.66874 -752.19378 3068.00000
180.97407 -1.66189 -752.01547 3070.00000
183.08410 -1.65524 -751.79454 3072.00000
185.18192 -1.64825 -751.53048 3074.00000
187.26622 -1.64066 -751.21761 3076.00000
189.33945 -1.63253 -750.84564 3078.00000
191.40572 -1.62420 -750.40665 3080.00000
193.46649 -1.61618 -749.89933 3082.00000
195.52089 -1.60885 -749.32804 3084.00000
197.56715 -1.60221 -748.70021 3086.00000
199.60289 -1.59586 -748.02180 3088.00000
201.62515 -1.58921 -747.29558 3090.00000
203.63064 -1.58175 -746.52271 3092.00000
205.61596 -1.57327 -745.70448 3094.00000
207.57792 -1.56402 -744.84368 3096.00000
209.51441 -1.55471 -743.94589 3098.00000
211.42642 -1.54611 -743.01887 3100.00000
213.31978 -1.53853 -742.06782 3102.00000
215.20182 -1.53159 -741.09223 3104.00000
217.07552 -1.52437 -740.08844 3106.00000
218.93828 -1.51572 -739.05057 3108.00000
220.78418 -1.50474 -737.97196 3110.00000
222.60736 -1.49129 -736.84862 3112.00000
224.40334 -1.47623 -735.67992 3114.00000
226.16868 -1.46108 -734.46734 3116.00000
227.90072 -1.44700 -733.21355 3118.00000
229.59819 -1.43408 -731.92237 3120.00000
231.26238 -1.42167 -730.59874 3122.00000
232.89760 -1.40936 -729.24699 3124.00000
234.50950 -1.39751 -727.86702 3126.00000
236.10153 -1.38674 -726.45492 3128.00000
237.67274 -1.37699 -725.00664 3130.00000
239.21986 -1.36722 -723.52031 3132.00000
240.73954 -1.35633 -721.99651 3134.00000
242.22895 -1.34409 -720.43718 3136.00000
243.68568 -1.33119 -718.84466 3138.00000
245.10757 -1.31834 -717.22144 3140.00000
246.49260 -1.30574 -715.57014 3142.00000
247.83885 -1.29318 -713.89350 3144.00000
249.14460 -1.28058 -712.19427 3146.00000
250.40852 -1.26822 -710.47466 3148.00000
251.63023 -1.25642 -708.73548 3150.00000
252.81080 -1.24513 -706.97540 3152.00000
253.95261 -1.23386 -705.19180 3154.00000
255.05847 -1.22201 -703.38363 3156.00000
256.13197 -1.20932 -701.55294 3158.00000
257.17819 -1.19595 -699.70427 3160.00000
258.20342 -1.18246 -697.84298 3162.00000
259.21229 -1.16943 -695.97309 3164.00000
260.20426 -1.15701 -694.09569 3166.00000
261.17387 -1.14449 -692.21058 3168.00000
262.11396 -1.13096 -690.31991 3170.00000
263.01868 -1.11601 -688.43101 3172.00000
263.88580 -1.10019 -686.55421 3174.00000
264.72105 -1.08485 -684.69292 3176.00000
265.53711 -1.07087 -682.84081 3178.00000
266.34545 -1.05819 -680.99131 3180.00000
267.15284 -1.04596 -679.14125 3182.00000
267.96162 -1.03298 -677.28982 3184.00000
268.77160 -1.01873 -675.43713 3186.00000
269.58149 -1.00364 -673.58323 3188.00000
270.38931 -0.98846 -671.72776 3190.00000
271.19256 -0.97420 -669.86993 3192.00000
271.98865 -0.96141 -668.00883 3194.00000
272.77545 -0.94963 -666.14373 3196.00000
273.55211 -0.93747 -664.27439 3198.00000
274.31858 -0.92377 -662.40087 3200.00000
275.07457 -0.90847 -660.52315 3202.00000
275.81945 -0.89176 -658.64110 3204.00000
276.55253 -0.87433 -656.75459 3206.00000
277.27328 -0.85727 -654.86358 3208.00000
277.98143 -0.84133 -652.96807 3210.00000
278.67710 -0.82676 -651.06820 3212.00000
279.36129 -0.81348 -649.16444 3214.00000
280.03643 -0.80117 -647.25776 3216.00000
280.70633 -0.78962 -645.34954 3218.00000
281.37447 -0.77856 -643.44104 3220.00000
282.04254 -0.76741 -641.53281 3222.00000
282.71056 -0.75531 -639.62487 3224.00000
283.37701 -0.74152 -637.71657 3226.00000
284.03897 -0.72571 -635.80664 3228.00000
284.69348 -0.70818 -633.89362 3230.00000
285.33916 -0.69009 -631.97682 3232.00000
285.97582 -0.67271 -630.05636 3234.00000
286.60363 -0.65728 -628.13256 3236.00000
287.22290 -0.64427 -626.20571 3238.00000
287.83426 -0.63317 -624.27614 3240.00000
288.43913 -0.62297 -622.34433 3242.00000
289.03937 -0.61262 -620.41088 3244.00000
289.63623 -0.60144 -618.47620 3246.00000
290.23010 -0.58905 -616.54048 3248.00000
290.82091 -0.57532 -614.60373 3250.00000
291.40845 -0.56024 -612.66591 3252.00000
291.99260 -0.54407 -610.72700 3254.00000
292.57332 -0.52744 -608.78700 3256.00000
293.15065 -0.51091 -606.84598 3258.00000
293.72471 -0.49483 -604.90400 3260.00000
294.29547 -0.47929 -602.96108 3262.00000
294.86244 -0.46405 -601.01711 3264.00000
295.42416 -0.44873 -599.07174 3266.00000
295.97770 -0.43301 -597.12423 3268.00000
296.51958 -0.41703 -595.17374 3270.00000
297.04811 -0.40143 -593.22004 3272.00000
297.56419 -0.38692 -591.26396 3274.00000
298.07059 -0.37385 -589.30725 3276.00000
298.57085 -0.36189 -587.35190 3278.00000
299.06838 -0.35020 -585.39848 3280.00000
299.56484 -0.33786 -583.44610 3282.00000
300.05979 -0.32428 -581.49363 3284.00000
300.55215 -0.30929 -579.54039 3286.00000
301.04149 -0.29307 -577.58620 3288.00000
301.52799 -0.27642 -575.63113 3290.00000
302.01207 -0.26022 -573.67535 3292.00000
302.49402 -0.24458 -571.71898 3294.00000
302.97316 -0.22918 -569.76189 3296.00000
303.44688 -0.21384 -567.80350 3298.00000
303.91033 -0.19860 -565.84276 3300.00000
304.35743 -0.18386 -563.87840 3302.00000
304.78316 -0.16997 -561.90940 3304.00000
305.18603 -0.15629 -559.93556 3306.00000
305.56823 -0.14211 -557.95747 3308.00000
305.93363 -0.12722 -555.97609 3310.00000
306.28756 -0.11222 -553.99259 3312.00000
306.63645 -0.09773 -552.00824 3314.00000
306.98485 -0.08390 -550.02378 3316.00000
307.33468 -0.07035 -548.03925 3318.00000
307.68661 -0.05673 -546.05475 3320.00000
308.04155 -0.04287 -544.07064 3322.00000
308.40078 -0.02897 -542.08741 3324.00000
308.76536 -0.01536 -540.10530 3326.00000
309.13545 -0.00223 -538.12433 3328.00000
309.51014 0.01065 -536.14431 3330.00000
309.88762 0.02383 -534.16486 3332.00000
310.26605 0.03778 -532.18561 3334.00000
310.64452 0.05252 -530.20637 3336.00000
311.02283 0.06765 -528.22709 3338.00000
311.40101 0.08256 -526.24778 3340.00000
311.77913 0.09692 -524.26844 3342.00000
312.15724 0.11073 -522.28909 3344.00000
312.53535 0.12414 -520.30974 3346.00000
312.91346 0.13739 -518.33040 3348.00000
313.29163 0.15066 -516.35107 3350.00000
313.66995 0.16411 -514.37175 3352.00000
314.04859 0.17787 -512.39246 3354.00000
314.42771 0.19206 -510.41325 3356.00000
314.80729 0.20677 -508.43410 3358.00000
315.18666 0.22204 -506.45491 3360.00000
315.56379 0.23780 -504.47536 3362.00000
315.93494 0.25389 -502.49489 3364.00000
316.29510 0.27011 -500.51278 3366.00000
316.63987 0.28624 -498.52841 3368.00000
316.96822 0.30207 -496.54172 3370.00000
317.28364 0.31731 -494.55330 3372.00000
317.59219 0.33165 -492.56413 3374.00000
317.89871 0.34488 -490.57501 3376.00000
318.20532 0.35744 -488.58641 3378.00000
318.51234 0.37044 -486.59863 3380.00000
318.81952 0.38491 -484.61175 3382.00000
319.12663 0.40140 -482.62548 3384.00000
319.43358 0.41949 -480.63935 3386.00000
319.74032 0.43798 -478.65307 3388.00000
320.04668 0.45549 -476.66649 3390.00000
320.35230 0.47087 -474.67955 3392.00000
320.65647 0.48395 -472.69219 3394.00000
320.95840 0.49547 -470.70434 3396.00000
321.25760 0.50652 -468.71593 3398.00000
321.55370 0.51787 -466.72692 3400.00000
321.84611 0.52953 -464.73727 3402.00000
322.13358 0.54114 -462.74687 3404.00000
322.41435 0.55275 -460.75554 3406.00000
322.68710 0.56487 -458.76314 3408.00000
322.95162 0.57781 -456.76965 3410.00000
323.20822 0.59127 -454.77514 3412.00000
323.45637 0.60429 -452.77951 3414.00000
323.69336 0.61596 -450.78235 3416.00000
323.91636 0.62619 -448.78329 3418.00000
324.12676 0.63551 -446.78257 3420.00000
324.32901 0.64449 -444.78090 3422.00000
324.52616 0.65336 -442.77873 3424.00000
324.71814 0.66192 -440.77615 3426.00000
324.90254 0.66979 -438.77294 3428.00000
325.07809 0.67673 -436.76903 3430.00000
325.24643 0.68280 -434.76459 3432.00000
325.40982 0.68832 -432.75990 3434.00000
325.56954 0.69379 -430.75508 3436.00000
325.72544 0.69952 -428.75013 3438.00000
325.87662 0.70551 -426.74497 3440.00000
326.02319 0.71143 -424.73961 3442.00000
326.16679 0.71685 -422.73418 3444.00000
326.30926 0.72153 -420.72887 3446.00000
326.45161 0.72550 -418.72396 3448.00000
326.59416 0.72919 -416.71998 3450.00000
326.73688 0.73312 -414.71774 3452.00000
326.87965 0.73759 -412.71783 3454.00000
327.02243 0.74245 -410.71974 3456.00000
327.16523 0.74720 -408.72254 3458.00000
327.30805 0.75128 -406.72555 3460.00000
327.45090 0.75449 -404.72850 3462.00000
327.59378 0.75694 -402.73135 3464.00000
327.73671 0.75905 -400.73415 3466.00000
327.87970 0.76106 -398.73694 3468.00000
328.02275 0.76241 -396.73973 3470.00000
328.16578 0.76187 -394.74254 3472.00000
328.30873 0.75853 -392.74537 3474.00000
328.45159 0.75236 -390.74821 3476.00000
328.59442 0.74437 -388.75106 3478.00000
328.73726 0.73571 -386.75390 3480.00000
328.88014 0.72698 -384.75674 3482.00000
329.02305 0.71837 -382.75958 3484.00000
329.16599 0.70986 -380.76245 3486.00000
329.30896 0.70139 -378.76533 3488.00000
329.45197 0.69295 -376.76822 3490.00000
329.59501 0.68450 -374.77111 3492.00000
329.73809 0.67604 -372.77401 3494.00000
329.88118 0.66758 -370.77692 3496.00000
330.02426 0.65912 -368.77984 3498.00000
330.16733 0.65065 -366.78277 3500.00000
330.31041 0.64217 -364.78572 3502.00000
330.45353 0.63369 -362.78866 3504.00000
330.59674 0.62521 -360.79159 3506.00000
330.74003 0.61672 -358.79450 3508.00000
330.88336 0.60823 -356.79737 3510.00000
331.02672 0.59975 -354.80030 3512.00000
331.17009 0.59126 -352.80361 3514.00000
331.31342 0.58278 -350.80776 3516.00000
331.45671 0.57430 -348.81309 3518.00000
331.59997 0.56583 -346.81928 3520.00000
331.74323 0.55736 -344.82587 3522.00000
331.88652 0.54889 -342.83255 3524.00000
332.02985 0.54041 -340.83920 3526.00000
332.17320 0.53194 -338.84580 3528.00000
332.31660 0.52347 -336.85235 3530.00000
332.46002 0.51499 -334.85888 3532.00000
332.60348 0.50652 -332.86541 3534.00000
332.74697 0.49805 -330.87195 3536.00000
332.89049 0.48957 -328.87850 3538.00000
333.03403 0.48110 -326.88507 3540.00000
333.17761 0.47262 -324.89164 3542.00000
333.32122 0.46415 -322.89819 3544.00000
333.46486 0.45567 -320.90474 3546.00000
333.60853 0.44720 -318.91130 3548.00000
333.75224 0.43872 -316.91785 3550.00000
333.89598 0.43025 -314.92439 3552.00000
334.03974 0.42177 -312.93093 3554.00000
334.18354 0.41330 -310.93748 3556.00000
334.32737 0.40482 -308.94404 3558.00000
334.47123 0.39634 -306.95064 3560.00000
334.61513 0.38786 -304.95728 3562.00000
334.75905 0.37938 -302.96393 3564.00000
334.90299 0.37092 -300.97057 3566.00000
335.04690 0.36248 -298.97721 3568.00000
335.19078 0.35410 -296.98384 3570.00000
335.33472 0.34580 -294.99048 3572.00000
335.47897 0.33756 -292.99716 3574.00000
335.62403 0.32928 -291.00391 3576.00000
335.77058 0.32089 -289.01076 3578.00000
335.91897 0.31243 -287.01773 3580.00000
336.06899 0.30393 -285.02484 3582.00000
336.21999 0.29542 -283.03204 3584.00000
336.37151 0.28691 -281.03931 3586.00000
336.52374 0.27839 -279.04668 3588.00000
336.67787 0.26986 -277.05419 3590.00000
336.83616 0.26130 -275.06177 3592.00000
337.00221 0.25272 -273.06921 3594.00000
337.18023 0.24409 -271.07639 3596.00000
337.37404 0.23540 -269.08415 3598.00000
337.58740 0.22656 -267.09613 3600.00000
337.82259 0.21734 -265.12085 3602.00000
338.07774 0.20733 -263.17047 3604.00000
338.34834 0.19604 -261.25055 3606.00000
338.63104 0.18305 -259.35195 3608.00000
338.92330 0.16821 -257.46263 3610.00000
339.22277 0.15168 -255.57540 3612.00000
339.52787 0.13371 -253.68783 3614.00000
339.83822 0.11435 -251.79997 3616.00000
340.15492 0.09383 -249.91276 3618.00000
340.48041 0.07241 -248.02740 3620.00000
340.81749 0.05033 -246.14516 3622.00000
341.16903 0.02785 -244.26748 3624.00000
341.53823 0.00520 -242.39606 3626.00000
341.92845 -0.01728 -240.53224 3628.00000
342.34348 -0.03874 -238.67592 3630.00000
342.78831 -0.05898 -236.82597 3632.00000
343.26954 -0.07844 -234.98272 3634.00000
343.79353 -0.09754 -233.14821 3636.00000
344.36230 -0.11722 -231.32444 3638.00000
344.97197 -0.13796 -229.51206 3640.00000
345.61233 -0.15981 -227.70956 3642.00000
346.27037 -0.18222 -225.91404 3644.00000
346.93941 -0.20460 -224.12411 3646.00000
347.62051 -0.22664 -222.34000 3648.00000
348.31699 -0.24861 -220.56121 3650.00000
349.03173 -0.27125 -218.78549 3652.00000
349.76613 -0.29542 -217.01101 3654.00000
350.51978 -0.32126 -215.23887 3656.00000
351.29185 -0.34813 -213.47113 3658.00000
352.08172 -0.37548 -211.70936 3660.00000
352.88902 -0.40205 -209.95455 3662.00000
353.71360 -0.42718 -208.20733 3664.00000
354.55535 -0.45056 -206.46827 3666.00000
355.41353 -0.47250 -204.73773 3668.00000
356.28640 -0.49358 -203.01572 3670.00000
357.17086 -0.51416 -201.30152 3672.00000
358.06304 -0.53418 -199.59317 3674.00000
358.96076 -0.55335 -197.88730 3676.00000
359.86749 -0.57107 -196.17973 3678.00000
360.79260 -0.58720 -194.46668 3680.00000
361.74499 -0.60201 -192.74947 3682.00000
362.72832 -0.61616 -191.03705 3684.00000
363.74254 -0.63054 -189.33749 3686.00000
364.78461 -0.64587 -187.65358 3688.00000
365.84876 -0.66244 -185.98347 3690.00000
366.92716 -0.67977 -184.32258 3692.00000
368.01245 -0.69666 -182.66616 3694.00000
369.10078 -0.71209 -181.01165 3696.00000
370.19126 -0.72589 -179.35861 3698.00000
371.28363 -0.73882 -177.70752 3700.00000
372.37706 -0.75187 -176.05912 3702.00000
373.47048 -0.76512 -174.41396 3704.00000
374.56407 -0.77768 -172.77085 3706.00000
375.66097 -0.78893 -171.12259 3708.00000
376.76813 -0.79928 -169.45063 3710.00000
377.89296 -0.80998 -167.72701 3712.00000
379.02991 -0.82224 -165.93450 3714.00000
380.15403 -0.83606 -164.07719 3716.00000
381.23791 -0.85031 -162.16531 3718.00000
382.26604 -0.86356 -160.20909 3720.00000
383.23341 -0.87466 -158.21773 3722.00000
384.13837 -0.88338 -156.19878 3724.00000
384.98019 -0.89065 -154.15889 3726.00000
385.75469 -0.89808 -152.10125 3728.00000
386.45826 -0.90678 -150.02382 3730.00000
387.09392 -0.91641 -147.92080 3732.00000
387.66469 -0.92538 -145.78847 3734.00000
388.16845 -0.93195 -143.62817 3736.00000
388.59784 -0.93553 -141.44498 3738.00000
388.94425 -0.93686 -139.24575 3740.00000
389.20443 -0.93704 -137.03716 3742.00000
389.38324 -0.93714 -134.82293 3744.00000
389.49083 -0.93799 -132.60211 3746.00000
389.53543 -0.94026 -130.37232 3748.00000
389.51854 -0.94437 -128.13511 3750.00000
389.43600 -0.95041 -125.89577 3752.00000
389.28122 -0.95819 -123.66180 3754.00000
389.05134 -0.96731 -121.44198 3756.00000
388.75166 -0.97622 -119.24653 3758.00000
388.39364 -0.98233 -117.08713 3760.00000
387.98713 -0.98407 -114.97364 3762.00000
387.53543 -0.98186 -112.90336 3764.00000
387.03689 -0.97767 -110.86166 3766.00000
386.48937 -0.97344 -108.83693 3768.00000
385.89344 -0.96991 -106.82436 3770.00000
385.25416 -0.96637 -104.82277 3772.00000
384.58108 -0.96126 -102.83257 3774.00000
383.88464 -0.95366 -100.85736 3776.00000
383.17580 -0.94341 -98.90540 3778.00000
382.46717 -0.93176 -96.98564 3780.00000
381.76671 -0.92067 -95.09556 3782.00000
381.07457 -0.91055 -93.22114 3784.00000
380.38860 -0.90040 -91.35060 3786.00000
379.70772 -0.88881 -89.47830 3788.00000
379.03189 -0.87499 -87.60280 3790.00000
378.36070 -0.85936 -85.72456 3792.00000
377.69288 -0.84291 -83.84463 3794.00000
377.02697 -0.82608 -81.96390 3796.00000
376.36200 -0.80867 -80.08288 3798.00000
375.69758 -0.79050 -78.20171 3800.00000
375.03366 -0.77215 -76.32038 3802.00000
374.37027 -0.75470 -74.43885 3804.00000
373.70769 -0.73892 -72.55702 3806.00000
373.04641 -0.72448 -70.67473 3808.00000
372.38686 -0.70996 -68.79184 3810.00000
371.72928 -0.69373 -66.90826 3812.00000
371.07378 -0.67457 -65.02395 3814.00000
370.42037 -0.65230 -63.13878 3816.00000
369.76924 -0.62807 -61.25248 3818.00000
369.12101 -0.60362 -59.36470 3820.00000
368.47682 -0.58091 -57.47550 3822.00000
367.83833 -0.56123 -55.58629 3824.00000
367.20762 -0.54510 -53.70049 3826.00000
366.58651 -0.53235 -51.82222 3828.00000
365.97496 -0.52199 -49.95132 3830.00000
365.37134 -0.51313 -48.08341 3832.00000
364.77429 -0.50531 -46.21483 3834.00000
364.18358 -0.49851 -44.34380 3836.00000
363.60052 -0.49285 -42.46953 3838.00000
363.02859 -0.48799 -40.59109 3840.00000
362.47402 -0.48284 -38.70685 3842.00000
361.94343 -0.47617 -36.81540 3844.00000
361.44035 -0.46699 -34.91723 3846.00000
360.96437 -0.45511 -33.01596 3848.00000
360.51210 -0.44134 -31.11834 3850.00000
360.07767 -0.42707 -29.23122 3852.00000
359.65391 -0.41367 -27.35454 3854.00000
359.23671 -0.40185 -25.48233 3856.00000
358.82719 -0.39182 -23.60894 3858.00000
358.42960 -0.38322 -21.73111 3860.00000
358.04758 -0.37535 -19.84779 3862.00000
357.68325 -0.36767 -17.95906 3864.00000
357.33827 -0.35997 -16.06530 3866.00000
357.01491 -0.35263 -14.16709 3868.00000
356.71551 -0.34668 -12.26616 3870.00000
356.44152 -0.34311 -10.36673 3872.00000
356.19378 -0.34254 -8.47558 3874.00000
355.97300 -0.34512 -6.59790 3876.00000
355.78020 -0.35044 -4.72972 3878.00000
355.61816 -0.35764 -2.86235 3880.00000
355.49167 -0.36575 -0.99027 3882.00000
355.40570 -0.37390 0.88778 3884.00000
355.36350 -0.38142 2.77036 3886.00000
355.36624 -0.38798 4.65505 3888.00000
355.41362 -0.39345 6.53937 3890.00000
355.50369 -0.39786 8.42072 3892.00000
355.63222 -0.40136 10.29531 3894.00000
355.79289 -0.40426 12.15682 3896.00000
355.98048 -0.40699 13.99651 3898.00000
356.19365 -0.41006 15.80912 3900.00000
356.43531 -0.41393 17.60281 3902.00000
356.71000 -0.41894 19.39028 3904.00000
357.02116 -0.42510 21.17822 3906.00000
357.37132 -0.43223 22.96690 3908.00000
357.76297 -0.44008 24.75295 3910.00000
358.19791 -0.44835 26.53186 3912.00000
358.67603 -0.45694 28.29934 3914.00000
359.19608 -0.46559 30.05167 3916.00000
359.75659 -0.47426 31.78620 3918.00000
360.35686 -0.48341 33.50254 3920.00000
360.99779 -0.49394 35.20384 3922.00000
361.68156 -0.50673 36.89553 3924.00000
362.40878 -0.52235 38.57963 3926.00000
363.17718 -0.54078 40.25427 3928.00000
363.98260 -0.56136 41.91712 3930.00000
364.82055 -0.58324 43.56645 3932.00000
365.68772 -0.60557 45.20035 3934.00000
366.58156 -0.62785 46.81647 3936.00000
367.49969 -0.64999 48.41215 3938.00000
368.44031 -0.67214 49.98574 3940.00000
369.40460 -0.69391 51.53938 3942.00000
370.39968 -0.71503 53.08324 3944.00000
371.43951 -0.73531 54.63729 3946.00000
372.53684 -0.75482 56.21991 3948.00000
373.68612 -0.77377 57.82468 3950.00000
374.87013 -0.79252 59.43327 3952.00000
376.07299 -0.81151 61.03514 3954.00000
377.28506 -0.83125 62.62842 3956.00000
378.50460 -0.85211 64.21292 3958.00000
379.73657 -0.87388 65.78591 3960.00000
380.98692 -0.89630 67.34399 3962.00000
382.25859 -0.91890 68.88547 3964.00000
383.55079 -0.94124 70.41113 3966.00000
384.85822 -0.96312 71.92513 3968.00000
386.17094 -0.98461 73.43513 3970.00000
387.47810 -1.00595 74.94945 3972.00000
388.77300 -1.02745 76.47291 3974.00000
390.05475 -1.04931 78.00538 3976.00000
391.32579 -1.07147 79.54397 3978.00000
392.58907 -1.09352 81.08649 3980.00000
393.84756 -1.11498 82.63475 3982.00000
395.10646 -1.13563 84.19716 3984.00000
396.37375 -1.15560 85.78967 3986.00000
397.65362 -1.17512 87.42931 3988.00000
398.93508 -1.19427 89.12142 3990.00000
400.19746 -1.21302 90.86346 3992.00000
401.42180 -1.23160 92.65257 3994.00000
402.59347 -1.25049 94.48730 3996.00000
403.70252 -1.27000 96.36607 3998.00000
404.74713 -1.29010 98.28371 4000.00000
405.73411 -1.31032 100.23065 4002.00000
406.67095 -1.33008 102.19712 4004.00000
407.55598 -1.34909 104.17799 4006.00000
408.38179 -1.36755 106.17147 4008.00000
409.14141 -1.38611 108.17823 4010.00000
409.83063 -1.40578 110.20326 4012.00000
410.44958 -1.42766 112.25401 4014.00000
411.00322 -1.45239 114.33329 4016.00000
411.50092 -1.47976 116.43761 4018.00000
411.95119 -1.50882 118.56083 4020.00000
412.35338 -1.53825 120.69819 4022.00000
412.70074 -1.56651 122.84614 4024.00000
412.98785 -1.59155 125.00063 4026.00000
413.21351 -1.61106 127.15680 4028.00000
413.37935 -1.62411 129.30982 4030.00000
413.48697 -1.63188 131.45675 4032.00000
413.53823 -1.63729 133.59828 4034.00000
413.53848 -1.64315 135.73920 4036.00000
413.49337 -1.65094 137.88490 4038.00000
413.40241 -1.66115 140.03736 4040.00000
413.26204 -1.67371 142.19498 4042.00000
413.07246 -1.68843 144.35441 4044.00000
412.83669 -1.70511 146.51182 4046.00000
412.55510 -1.72364 148.66305 4048.00000
412.22664 -1.74389 150.80382 4050.00000
411.85324 -1.76570 152.93053 4052.00000
411.43838 -1.78889 155.04100 4054.00000
410.98344 -1.81340 157.13583 4056.00000
410.48578 -1.83923 159.21974 4058.00000
409.93816 -1.86638 161.29982 4060.00000
409.33103 -1.89456 163.37742 4062.00000
408.65635 -1.92331 165.44323 4064.00000
407.90807 -1.95219 167.48230 4066.00000
407.07726 -1.98123 169.48978 4068.00000
406.15215 -2.01083 171.47510 4070.00000
405.12735 -2.04126 173.44129 4072.00000
404.00582 -2.07251 175.38214 4074.00000
402.80261 -2.10426 177.28052 4076.00000
401.54459 -2.13601 179.11289 4078.00000
400.25195 -2.16761 180.87296 4080.00000
398.93433 -2.19917 182.56945 4082.00000
397.59465 -2.23079 184.21360 4084.00000
396.22977 -2.26243 185.81646 4086.00000
394.83454 -2.29396 187.38828 4088.00000
393.40767 -2.32517 188.93614 4090.00000
391.95197 -2.35594 190.46390 4092.00000
390.47150 -2.38612 191.97313 4094.00000
388.97053 -2.41565 193.46491 4096.00000
387.45262 -2.44443 194.94005 4098.00000
385.91912 -2.47239 196.39795 4100.00000
384.37236 -2.49941 197.83956 4102.00000
382.81672 -2.52529 199.26838 4104.00000
381.25588 -2.54994 200.68700 4106.00000
379.69175 -2.57324 202.09498 4108.00000
378.12499 -2.59516 203.48842 4110.00000
376.55476 -2.61574 204.86093 4112.00000
374.97702 -2.63506 206.20751 4114.00000
373.38503 -2.65330 207.52762 4116.00000
371.77407 -2.67054 208.82266 4118.00000
370.14249 -2.68667 210.09359 4120.00000
368.49051 -2.70150 211.34035 4122.00000
366.81898 -2.71498 212.56225 4124.00000
365.12898 -2.72725 213.75888 4126.00000
363.42222 -2.73842 214.93133 4128.00000
361.70120 -2.74858 216.08272 4130.00000
359.96829 -2.75789 217.21640 4132.00000
358.22584 -2.76654 218.33430 4134.00000
356.47871 -2.77494 219.43719 4136.00000
354.73605 -2.78359 220.52377 4138.00000
353.00978 -2.79279 221.59089 4140.00000
351.30560 -2.80254 222.63963 4142.00000
349.61666 -2.81224 223.67814 4144.00000
347.93408 -2.82192 224.71357 4146.00000
346.25288 -2.83188 225.74930 4148.00000
344.57136 -2.84175 226.78629 4150.00000
342.88939 -2.85156 227.82433 4152.00000
341.20716 -2.86160 228.86299 4154.00000
339.52463 -2.87199 229.90209 4156.00000
337.84157 -2.88291 230.94165 4158.00000
336.15831 -2.89437 231.98142 4160.00000
334.47709 -2.90626 233.02007 4162.00000
332.80328 -2.91853 234.05438 4164.00000
331.14448 -2.93118 235.07969 4166.00000
329.50351 -2.94438 236.09415 4168.00000
327.87358 -2.95828 237.10161 4170.00000
326.24663 -2.97290 238.10653 4172.00000
324.61815 -2.98798 239.11166 4174.00000
322.98750 -3.00323 240.11910 4176.00000
321.35706 -3.01886 241.13210 4178.00000
319.73149 -3.03594 242.15594 4180.00000
318.11613 -3.05544 243.19669 4182.00000
316.51527 -3.07772 244.25906 4184.00000
314.93223 -3.10247 245.34594 4186.00000
313.37050 -3.12917 246.45917 4188.00000
311.83424 -3.15744 247.59901 4190.00000
310.32715 -3.18673 248.76211 4192.00000
308.85111 -3.21655 249.94256 4194.00000
307.40424 -3.24639 251.13887 4196.00000
305.98130 -3.27552 252.35553 4198.00000
304.57801 -3.30376 253.59617 4200.00000
303.19252 -3.33093 254.86149 4202.00000
301.82381 -3.35723 256.14948 4204.00000
300.47061 -3.38279 257.45664 4206.00000
299.13217 -3.40781 258.77991 4208.00000
297.80898 -3.43256 260.11750 4210.00000
296.50228 -3.45725 261.46822 4212.00000
295.21381 -3.48189 262.83118 4214.00000
293.94586 -3.50670 264.20667 4216.00000
292.70043 -3.53179 265.59773 4218.00000
291.47673 -3.55704 267.01148 4220.00000
290.27001 -3.58263 268.45905 4222.00000
289.07598 -3.60864 269.94917 4224.00000
287.89843 -3.63467 271.47772 4226.00000
286.74233 -3.66044 273.03392 4228.00000
285.60637 -3.68582 274.60747 4230.00000
284.48358 -3.71084 276.18999 4232.00000
283.36869 -3.73561 277.77714 4234.00000
282.26411 -3.76021 279.37003 4236.00000
281.17928 -3.78469 280.97362 4238.00000
280.12458 -3.80906 282.59295 4240.00000
279.10501 -3.83325 284.23027 4242.00000
278.11848 -3.85728 285.88612 4244.00000
277.15616 -3.88110 287.56229 4246.00000
276.20511 -3.90470 289.26338 4248.00000
275.25404 -3.92785 290.99190 4250.00000
274.29988 -3.95011 292.74019 4252.00000
273.34528 -3.97106 294.49815 4254.00000
272.39464 -3.99066 296.26046 4256.00000
271.45206 -4.00922 298.02626 4258.00000
270.51967 -4.02698 299.79623 4260.00000
269.59773 -4.04404 301.57094 4262.00000
268.68542 -4.06039 303.35046 4264.00000
267.78132 -4.07598 305.13429 4266.00000
266.88419 -4.09076 306.92179 4268.00000
265.99286 -4.10467 308.71232 4270.00000
265.10525 -4.11766 310.50476 4272.00000
264.21897 -4.12968 312.29791 4274.00000
263.33270 -4.14069 314.09113 4276.00000
262.44594 -4.15066 315.88412 4278.00000
261.55815 -4.15958 317.67658 4280.00000
260.66846 -4.16742 319.46803 4282.00000
259.77631 -4.17410 321.25816 4284.00000
258.88247 -4.17945 323.04737 4286.00000
257.98819 -4.18316 324.83633 4288.00000
257.09410 -4.18493 326.62541 4290.00000
256.20021 -4.18500 328.41462 4292.00000
255.30592 -4.18417 330.20361 4294.00000
254.41003 -4.18345 331.99175 4296.00000
253.51132 -4.18342 333.77845 4298.00000
252.60981 -4.18375 335.56377 4300.00000
251.70670 -4.18350 337.34828 4302.00000
250.80310 -4.18206 339.13235 4304.00000
249.89959 -4.17967 340.91590 4306.00000
248.99633 -4.17750 342.69871 4308.00000
248.09315 -4.17700 344.48075 4310.00000
247.18980 -4.17876 346.26231 4312.00000
246.28614 -4.18228 348.04361 4314.00000
245.38218 -4.18646 349.82478 4316.00000
244.47795 -4.19022 351.60585 4318.00000
243.57344 -4.19313 353.38686 4320.00000
242.66865 -4.19531 355.16776 4322.00000
241.76364 -4.19713 356.94856 4324.00000
240.85846 -4.19911 358.72924 4326.00000
239.95309 -4.20157 360.50980 4328.00000
239.04747 -4.20462 362.29026 4330.00000
238.14155 -4.20824 364.07063 4332.00000
237.23535 -4.21239 365.85088 4334.00000
236.32885 -4.21706 367.63097 4336.00000
235.42206 -4.22226 369.41091 4338.00000
234.51501 -4.22787 371.19070 4340.00000
233.60770 -4.23361 372.97037 4342.00000
232.70014 -4.23910 374.74995 4344.00000
231.79238 -4.24395 376.52945 4346.00000
230.88442 -4.24802 378.30886 4348.00000
229.97623 -4.25148 380.08820 4350.00000
229.06782 -4.25480 381.86742 4352.00000
228.15925 -4.25868 383.64649 4354.00000
227.25059 -4.26378 385.42543 4356.00000
226.34189 -4.27063 387.20433 4358.00000
225.43318 -4.27921 388.98321 4360.00000
224.52449 -4.28896 390.76214 4362.00000
223.61582 -4.29898 392.54115 4364.00000
222.70718 -4.30832 394.32020 4366.00000
221.79858 -4.31644 396.09925 4368.00000
220.89001 -4.32321 397.87827 4370.00000
219.98141 -4.32906 399.65729 4372.00000
219.07274 -4.33480 401.43633 4374.00000
218.16400 -4.34130 403.21540 4376.00000
217.25524 -4.34924 404.99449 4378.00000
216.34655 -4.35875 406.77361 4380.00000
215.43797 -4.36955 408.55280 4382.00000
214.52956 -4.38108 410.33209 4384.00000
213.62136 -4.39274 412.11147 4386.00000
212.71333 -4.40420 413.89094 4388.00000
211.80542 -4.41546 415.67049 4390.00000
210.89757 -4.42676 417.45008 4392.00000
209.98977 -4.43836 419.22971 4394.00000
209.08198 -4.45033 421.00944 4396.00000
208.17428 -4.46250 422.78937 4398.00000
207.26677 -4.47448 424.56963 4400.00000
206.35961 -4.48588 426.35026 4402.00000
205.45293 -4.49657 428.13122 4404.00000
204.54676 -4.50669 429.91249 4406.00000
203.64114 -4.51655 431.69403 4408.00000
202.73604 -4.52639 433.47584 4410.00000
201.83144 -4.53630 435.25792 4412.00000
200.92729 -4.54627 437.04023 4414.00000
200.02364 -4.55640 438.82277 4416.00000
199.12055 -4.56680 440.60557 4418.00000
198.21818 -4.57761 442.38873 4420.00000
197.31669 -4.58888 444.17234 4422.00000
196.41623 -4.60063 445.95646 4424.00000
195.51692 -4.61281 447.74116 4426.00000
194.61891 -4.62529 449.52652 4428.00000
193.72240 -4.63773 451.31263 4430.00000
192.82756 -4.64964 453.09957 4432.00000
191.93455 -4.66052 454.88744 4434.00000
191.04365 -4.67039 456.67635 4436.00000
190.15526 -4.67974 458.46649 4438.00000
189.26977 -4.68926 460.25807 4440.00000
188.38741 -4.69944 462.05117 4442.00000
187.50808 -4.71015 463.84572 4444.00000
186.63131 -4.72104 465.64151 4446.00000
185.75609 -4.73183 467.43807 4448.00000
184.88141 -4.74243 469.23494 4450.00000
184.00677 -4.75292 471.03184 4452.00000
183.13208 -4.76332 472.82868 4454.00000
182.25738 -4.77353 474.62548 4456.00000
181.38272 -4.78334 476.42226 4458.00000
180.50810 -4.79265 478.21901 4460.00000
179.63351 -4.80149 480.01571 4462.00000
178.75893 -4.81019 481.81235 4464.00000
177.88435 -4.81928 483.60893 4466.00000
177.00973 -4.82928 485.40547 4468.00000
176.13475 -4.84060 487.20183 4470.00000
175.25824 -4.85323 488.99744 4472.00000
174.37777 -4.86692 490.79108 4474.00000
173.49008 -4.88111 492.58122 4476.00000
172.59196 -4.89529 494.36629 4478.00000
171.68147 -4.90925 496.14535 4480.00000
170.76068 -4.92316 497.91939 4482.00000
169.83510 -4.93742 499.69107 4484.00000
168.90876 -4.95235 501.46237 4486.00000
167.98298 -4.96782 503.23399 4488.00000
167.05780 -4.98346 505.00592 4490.00000
166.13299 -4.99874 506.77801 4492.00000
165.20855 -5.01338 508.55031 4494.00000
164.28494 -5.02780 510.32308 4496.00000
163.36319 -5.04290 512.09678 4498.00000
162.44484 -5.05941 513.87213 4500.00000
161.53111 -5.07734 515.64971 4502.00000
160.62180 -5.09563 517.42945 4504.00000
159.71526 -5.11262 519.21054 4506.00000
158.80981 -5.12676 520.99215 4508.00000
157.90453 -5.13716 522.77385 4510.00000
156.99919 -5.14446 524.55551 4512.00000
156.09378 -5.15045 526.33715 4514.00000
155.18830 -5.15729 528.11879 4516.00000
154.28279 -5.16656 529.90043 4518.00000
153.37731 -5.17840 531.68213 4520.00000
152.47197 -5.19226 533.46388 4522.00000
151.56679 -5.20732 535.24575 4524.00000
150.66175 -5.22293 537.02773 4526.00000
149.75682 -5.23870 538.80978 4528.00000
148.85199 -5.25449 540.59185 4530.00000
147.94725 -5.27030 542.37394 4532.00000
147.04257 -5.28618 544.15608 4534.00000
146.13790 -5.30216 545.93829 4536.00000
145.23319 -5.31823 547.72051 4538.00000
144.32844 -5.33435 549.50267 4540.00000
143.42363 -5.35039 551.28480 4542.00000
142.51875 -5.36619 553.06692 4544.00000
141.61384 -5.38149 554.84901 4546.00000
140.70897 -5.39606 556.63110 4548.00000
139.80427 -5.40981 558.41328 4550.00000
138.89997 -5.42288 560.19567 4552.00000
137.99629 -5.43560 561.97838 4554.00000
137.09336 -5.44841 563.76145 4556.00000
136.19122 -5.46166 565.54487 4558.00000
135.28982 -5.47538 567.32862 4560.00000
134.38908 -5.48929 569.11269 4562.00000
133.48891 -5.50296 570.89710 4564.00000
132.58928 -5.51603 572.68178 4566.00000
131.69016 -5.52849 574.46671 4568.00000
130.79155 -5.54053 576.25187 4570.00000
129.89351 -5.55234 578.03724 4572.00000
128.99620 -5.56396 579.82288 4574.00000
128.09996 -5.57531 581.60901 4576.00000
