VERSION 0.7
FIELDS x y z time arclength
SIZE 4 4 4 4 4
TYPE F F F F F
COUNT 1 1 1 1 1
WIDTH 1064
HEIGHT 1
VIEWPOINT 0.000 0.000 0.000 1.000 -75.275 -3.790 41.496
POINTS 1064
DATA ascii
-294.6684 -3.2161 -530.7579 32.0382 1954.9585
-296.4959 -3.2494 -530.4786 32.0754 1956.8076
-298.0074 -3.2772 -530.2109 32.1126 1958.3429
-299.6048 -3.3047 -529.8902 32.1498 1959.9725
-300.6966 -3.3230 -529.6493 32.1871 1961.0908
-302.3359 -3.3499 -529.2526 32.2243 1962.7776
-303.8419 -3.3716 -528.8501 32.2615 1964.3367
-305.2872 -3.3922 -528.4305 32.2987 1965.8418
-307.1008 -3.4138 -527.8536 32.3359 1967.7451
-308.1290 -3.4252 -527.5010 32.3731 1968.8322
-309.7914 -3.4417 -526.8940 32.4103 1970.6021
-310.9889 -3.4513 -526.4261 32.4475 1971.8877
-312.7328 -3.4636 -525.7000 32.4847 1973.7770
-313.7228 -3.4676 -525.2599 32.5219 1974.8604
-315.4072 -3.4738 -524.4733 32.5592 1976.7195
-316.4163 -3.4761 -523.9749 32.5964 1977.8450
-318.1498 -3.4782 -523.0714 32.6336 1979.7998
-319.1315 -3.4783 -522.5320 32.6708 1980.9199
-320.6967 -3.4769 -521.6293 32.7080 1982.7269
-321.6227 -3.4759 -521.0695 32.7452 1983.8088
-323.3176 -3.4743 -519.9942 32.7824 1985.8163
-324.2904 -3.4755 -519.3481 32.8196 1986.9840
-325.7762 -3.4777 -518.3152 32.8568 1988.7937
-326.9089 -3.4804 -517.4876 32.8941 1990.1965
-328.0364 -3.4825 -516.6266 32.9313 1991.6151
-329.0393 -3.4830 -515.8278 32.9685 1992.8973
-330.1321 -3.4839 -514.9213 33.0057 1994.3171
-331.4973 -3.4850 -513.7338 33.0429 1996.1267
-332.5989 -3.4858 -512.7274 33.0801 1997.6188
-333.6273 -3.4862 -511.7476 33.1173 1999.0392
-334.8930 -3.4863 -510.4846 33.1545 2000.8274
-335.7269 -3.4860 -509.6172 33.1917 2002.0306
-336.9431 -3.4843 -508.2933 33.2289 2003.8284
-337.8036 -3.4820 -507.3122 33.2662 2005.1334
-338.9474 -3.4762 -505.9433 33.3034 2006.9174
-339.9689 -3.4687 -504.6575 33.3406 2008.5596
-340.8200 -3.4607 -503.5340 33.3778 2009.9691
-341.5747 -3.4522 -502.4920 33.4150 2011.2557
-342.4440 -3.4413 -501.2372 33.4522 2012.7823
-343.2313 -3.4309 -500.0463 33.4894 2014.2100
-344.2367 -3.4167 -498.4451 33.5266 2016.1007
-344.8970 -3.4073 -497.3374 33.5638 2017.3904
-345.6388 -3.3972 -496.0383 33.6011 2018.8865
-346.5495 -3.3850 -494.3522 33.6383 2020.8029
-347.1988 -3.3760 -493.0807 33.6755 2022.2306
-347.8042 -3.3661 -491.8326 33.7127 2023.6179
-348.3779 -3.3551 -490.5895 33.7499 2024.9869
-349.1751 -3.3395 -488.7585 33.7871 2026.9840
-349.7457 -3.3276 -487.3605 33.8243 2028.4941
-350.2668 -3.3170 -486.0153 33.8615 2029.9368
-350.8210 -3.3065 -484.5039 33.8987 2031.5468
-351.2123 -3.2991 -483.3781 33.9359 2032.7385
-351.7273 -3.2896 -481.8131 33.9732 2034.3861
-352.1376 -3.2819 -480.4885 34.0104 2035.7729
-352.7333 -3.2704 -478.4123 34.0476 2037.9330
-353.0654 -3.2642 -477.1615 34.0848 2039.2272
-353.4724 -3.2562 -475.5163 34.1220 2040.9220
-353.9009 -3.2477 -473.6302 34.1592 2042.8562
-354.2357 -3.2407 -472.0183 34.1964 2044.5026
-354.4982 -3.2353 -470.6548 34.2336 2045.8911
-354.7716 -3.2291 -469.1237 34.2708 2047.4464
-355.0199 -3.2235 -467.6122 34.3080 2048.9783
-355.3399 -3.2151 -465.4161 34.3453 2051.1975
-355.5302 -3.2097 -463.9459 34.3825 2052.6799
-355.7455 -3.2028 -462.0866 34.4197 2054.5518
-355.8892 -3.1976 -460.7215 34.4569 2055.9243
-356.0942 -3.1897 -458.5744 34.4941 2058.0813
-356.2521 -3.1830 -456.7918 34.5313 2059.8708
-356.4033 -3.1765 -455.0316 34.5685 2061.6377
-356.5838 -3.1682 -452.8296 34.6057 2063.8469
-356.6789 -3.1637 -451.6114 34.6429 2065.0688
-356.8408 -3.1555 -449.4791 34.6802 2067.2075
-356.9576 -3.1496 -447.9322 34.7174 2068.7588
-357.1452 -3.1406 -445.5384 34.7546 2071.1599
-357.2537 -3.1359 -444.2566 34.7918 2072.4463
-357.4879 -3.1272 -441.7947 34.8290 2074.9192
-357.6562 -3.1218 -440.2318 34.8662 2076.4912
-357.9314 -3.1145 -437.8600 34.9034 2078.8789
-358.0905 -3.1107 -436.5890 34.9406 2080.1599
-358.4049 -3.1036 -434.3364 34.9778 2082.4343
-358.5964 -3.1000 -433.0897 35.0150 2083.6958
-358.9663 -3.0939 -430.9236 35.0523 2085.8933
-359.2369 -3.0901 -429.4938 35.0895 2087.3484
-359.6421 -3.0827 -427.5586 35.1267 2089.3257
-359.9358 -3.0757 -426.2723 35.1639 2090.6450
-360.4588 -3.0621 -424.1685 35.2011 2092.8130
-360.7608 -3.0543 -423.0479 35.2383 2093.9736
-361.3106 -3.0391 -421.1593 35.2755 2095.9409
-361.8104 -3.0219 -419.5780 35.3127 2097.5994
-362.2576 -3.0048 -418.2590 35.3499 2098.9922
-362.6797 -2.9868 -417.0811 35.3872 2100.2437
-363.3573 -2.9570 -415.3184 35.4244 2102.1323
-363.9314 -2.9347 -413.9104 35.4616 2103.6531
-364.4486 -2.9170 -412.7054 35.4988 2104.9644
-365.1887 -2.8969 -411.0691 35.5360 2106.7605
-365.7574 -2.8843 -409.8865 35.5732 2108.0728
-366.3622 -2.8724 -408.6931 35.6104 2109.4106
-366.9214 -2.8613 -407.6487 35.6476 2110.5955
-367.4996 -2.8496 -406.6222 35.6848 2111.7737
-368.4019 -2.8326 -405.1192 35.7220 2113.5271
-369.0912 -2.8196 -404.0433 35.7593 2114.8049
-369.6269 -2.8093 -403.2476 35.7965 2115.7642
-370.6053 -2.7914 -401.8723 35.8337 2117.4521
-371.2533 -2.7806 -401.0113 35.8709 2118.5298
-372.1273 -2.7668 -399.9031 35.9081 2119.9414
-372.6867 -2.7584 -399.2257 35.9453 2120.8198
-373.5875 -2.7455 -398.1818 35.9825 2122.1990
-374.3471 -2.7353 -397.3434 36.0197 2123.3303
-375.4033 -2.7226 -396.2365 36.0569 2124.8604
-376.2580 -2.7135 -395.3869 36.0942 2126.0654
-377.0744 -2.7058 -394.6132 36.1314 2127.1904
-377.8585 -2.6992 -393.9020 36.1686 2128.2488
-379.0100 -2.6905 -392.9120 36.2058 2129.7676
-379.8252 -2.6841 -392.2516 36.2430 2130.8167
-380.8089 -2.6765 -391.4933 36.2802 2132.0588
-381.7493 -2.6688 -390.8070 36.3174 2133.2231
-382.5324 -2.6626 -390.2614 36.3546 2134.1775
-383.8782 -2.6529 -389.3765 36.3918 2135.7883
-384.7443 -2.6475 -388.8402 36.4290 2136.8071
-385.6475 -2.6427 -388.3080 36.4663 2137.8555
-386.5757 -2.6386 -387.7897 36.5035 2138.9187
-387.9691 -2.6341 -387.0617 36.5407 2140.4907
-388.9597 -2.6320 -386.5803 36.5779 2141.5920
-389.8307 -2.6299 -386.1834 36.6151 2142.5493
-390.9212 -2.6283 -385.7163 36.6523 2143.7358
-392.1822 -2.6274 -385.2169 36.6895 2145.0920
-393.2225 -2.6262 -384.8394 36.7267 2146.1987
-394.1362 -2.6249 -384.5318 36.7639 2147.1628
-395.4294 -2.6233 -384.1320 36.8012 2148.5166
-396.2067 -2.6226 -383.9122 36.8384 2149.3245
-397.5532 -2.6215 -383.5657 36.8756 2150.7148
-398.6120 -2.6207 -383.3240 36.9128 2151.8008
-399.8271 -2.6205 -383.0793 36.9500 2153.0403
-400.6411 -2.6207 -382.9350 36.9872 2153.8669
-401.9804 -2.6220 -382.7324 37.0244 2155.2217
-402.7882 -2.6232 -382.6310 37.0616 2156.0359
-404.2243 -2.6266 -382.4886 37.0988 2157.4790
-405.0526 -2.6293 -382.4282 37.1360 2158.3096
-406.4172 -2.6342 -382.3664 37.1733 2159.6755
-407.6865 -2.6389 -382.3473 37.2105 2160.9451
-408.6438 -2.6425 -382.3596 37.2477 2161.9026
-409.6354 -2.6461 -382.3943 37.2849 2162.8948
-410.9503 -2.6502 -382.4760 37.3221 2164.2122
-411.7478 -2.6527 -382.5439 37.3593 2165.0127
-413.1595 -2.6574 -382.7021 37.3965 2166.4333
-414.1580 -2.6612 -382.8419 37.4337 2167.4414
-415.1464 -2.6650 -383.0051 37.4709 2168.4434
-416.1902 -2.6694 -383.2034 37.5081 2169.5059
-417.5340 -2.6758 -383.5007 37.5454 2170.8823
-418.8477 -2.6823 -383.8362 37.5826 2172.2383
-419.6559 -2.6864 -384.0667 37.6198 2173.0786
-420.9177 -2.6936 -384.4585 37.6570 2174.3999
-421.7344 -2.6991 -384.7348 37.6942 2175.2622
-423.0802 -2.7099 -385.2260 37.7314 2176.6948
-423.7817 -2.7166 -385.5010 37.7686 2177.4482
-425.0160 -2.7301 -386.0167 37.8058 2178.7861
-425.9974 -2.7419 -386.4560 37.8430 2179.8616
-427.1253 -2.7560 -386.9951 37.8803 2181.1118
-427.9263 -2.7660 -387.4010 37.9175 2182.0098
-429.1646 -2.7808 -388.0677 37.9547 2183.4163
-429.9768 -2.7904 -388.5318 37.9919 2184.3518
-431.0684 -2.8027 -389.1887 38.0291 2185.6260
-432.0340 -2.8139 -389.8024 38.0663 2186.7700
-432.8396 -2.8239 -390.3371 38.1035 2187.7371
-433.9383 -2.8385 -391.1036 38.1407 2189.0769
-435.0848 -2.8544 -391.9483 38.1779 2190.5010
-435.8771 -2.8658 -392.5628 38.2151 2191.5037
-437.0243 -2.8822 -393.4954 38.2524 2192.9824
-437.6860 -2.8917 -394.0591 38.2896 2193.8518
-438.8521 -2.9080 -395.0953 38.3268 2195.4119
-439.6319 -2.9186 -395.8240 38.3640 2196.4792
-440.5055 -2.9301 -396.6771 38.4012 2197.7002
-441.2986 -2.9404 -397.4868 38.4384 2198.8337
-442.3278 -2.9545 -398.5901 38.4756 2200.3425
-443.1993 -2.9675 -399.5706 38.5128 2201.6545
-444.1226 -2.9828 -400.6615 38.5500 2203.0840
-444.7056 -2.9935 -401.3802 38.5873 2204.0093
-445.6380 -3.0127 -402.5862 38.6245 2205.5339
-446.2308 -3.0265 -403.3905 38.6617 2206.5332
-447.2368 -3.0527 -404.8310 38.6989 2208.2905
-447.7879 -3.0675 -405.6680 38.7361 2209.2927
-448.5486 -3.0864 -406.8912 38.7733 2210.7334
-449.1096 -3.0987 -407.8479 38.8105 2211.8425
-449.9596 -3.1141 -409.3982 38.8477 2213.6108
-450.4313 -3.1217 -410.3113 38.8849 2214.6384
-451.1462 -3.1350 -411.7743 38.9221 2216.2668
-451.5742 -3.1446 -412.6938 38.9594 2217.2812
-452.2901 -3.1642 -414.3246 38.9966 2219.0625
-452.7502 -3.1789 -415.4413 39.0338 2220.2703
-453.3092 -3.1971 -416.8977 39.0710 2221.8306
-453.8654 -3.2138 -418.4760 39.1082 2223.5042
-454.2022 -3.2231 -419.5155 39.1454 2224.5967
-454.7094 -3.2365 -421.2117 39.1826 2226.3672
-454.9950 -3.2441 -422.2563 39.2198 2227.4502
-455.4185 -3.2561 -423.9354 39.2570 2229.1819
-455.6471 -3.2631 -424.9247 39.2943 2230.1975
-456.0339 -3.2761 -426.7654 39.3315 2232.0784
-456.2384 -3.2838 -427.8445 39.3687 2233.1768
-456.5530 -3.2973 -429.6967 39.4059 2235.0557
-456.7597 -3.3079 -431.0903 39.4431 2236.4644
-456.9412 -3.3187 -432.4893 39.4803 2237.8752
-457.0747 -3.3274 -433.6816 39.5175 2239.0752
-457.2470 -3.3414 -435.5716 39.5547 2240.9731
-457.3448 -3.3518 -436.9580 39.5919 2242.3630
-457.4334 -3.3646 -438.6805 39.6291 2244.0879
-457.4731 -3.3731 -439.8542 39.6664 2245.2622
-457.5008 -3.3862 -441.8144 39.7036 2247.2227
-457.4954 -3.3940 -443.1183 39.7408 2248.5266
-457.4495 -3.4042 -445.1440 39.7780 2250.5530
-457.3885 -3.4098 -446.5502 39.8152 2251.9604
-457.2852 -3.4150 -448.3019 39.8524 2253.7153
-457.1384 -3.4189 -450.1721 39.8896 2255.5913
-457.0138 -3.4214 -451.4752 39.9268 2256.9004
-456.8306 -3.4243 -453.1442 39.9640 2258.5793
-456.6479 -3.4276 -454.6209 40.0013 2260.0674
-456.3486 -3.4338 -456.7793 40.0385 2262.2463
-456.1091 -3.4399 -458.3498 40.0757 2263.8350
-455.8738 -3.4461 -459.7749 40.1129 2265.2795
-455.6053 -3.4533 -461.2852 40.1501 2266.8135
-455.3441 -3.4603 -462.6638 40.1873 2268.2166
-454.8604 -3.4725 -465.0285 40.2245 2270.6304
-454.5385 -3.4806 -466.4956 40.2617 2272.1323
-454.1211 -3.4920 -468.3007 40.2989 2273.9851
-453.8346 -3.4997 -469.4829 40.3361 2275.2017
-453.3768 -3.5121 -471.2926 40.3734 2277.0684
-453.0096 -3.5221 -472.6826 40.4106 2278.5061
-452.3975 -3.5389 -474.8879 40.4478 2280.7949
-451.9957 -3.5500 -476.2695 40.4850 2282.2339
-451.4833 -3.5640 -477.9669 40.5222 2284.0068
-451.0112 -3.5769 -479.4746 40.5594 2285.5869
-450.2867 -3.5965 -481.6947 40.5966 2287.9221
-449.8247 -3.6082 -483.0622 40.6338 2289.3657
-449.1346 -3.6260 -485.0385 40.6710 2291.4590
-448.6700 -3.6377 -486.3245 40.7082 2292.8267
-447.8274 -3.6599 -488.5691 40.7455 2295.2241
-447.2525 -3.6759 -490.0537 40.7827 2296.8164
-446.4920 -3.6951 -491.9643 40.8199 2298.8728
-445.9445 -3.7090 -493.3113 40.8571 2300.3269
-444.9807 -3.7351 -495.6352 40.8943 2302.8428
-444.2957 -3.7520 -497.2572 40.9315 2304.6038
-443.5739 -3.7723 -498.9401 40.9687 2306.4348
-442.6232 -3.7989 -501.1157 41.0059 2308.8093
-442.0852 -3.8130 -502.3277 41.0431 2310.1355
-441.0456 -3.8394 -504.6339 41.0804 2312.6653
-440.4178 -3.8541 -506.0069 41.1176 2314.1750
-439.3643 -3.8786 -508.2809 41.1548 2316.6814
-438.7853 -3.8921 -509.5168 41.1920 2318.0461
-437.7329 -3.9164 -511.7419 41.2292 2320.5078
-437.0855 -3.9317 -513.0944 41.2664 2322.0073
-435.9932 -3.9553 -515.3485 41.3036 2324.5122
-435.2307 -3.9692 -516.9050 41.3408 2326.2456
-434.1766 -3.9922 -519.0330 41.3780 2328.6206
-433.5137 -4.0068 -520.3569 41.4152 2330.1011
-432.3457 -4.0350 -522.6562 41.4525 2332.6802
-431.5663 -4.0527 -524.1691 41.4897 2334.3821
-430.4172 -4.0782 -526.3716 41.5269 2336.8665
-429.4788 -4.0978 -528.1489 41.5641 2338.8765
-428.5857 -4.1174 -529.8245 41.6013 2340.7754
-427.2713 -4.1466 -532.2666 41.6385 2343.5488
-426.4827 -4.1640 -533.7203 41.6757 2345.2029
-425.4086 -4.1878 -535.6880 41.7129 2347.4448
-424.4850 -4.2077 -537.3702 41.7501 2349.3638
-423.1261 -4.2343 -539.8289 41.7874 2352.1731
-422.1746 -4.2524 -541.5386 41.8246 2354.1299
-421.1833 -4.2718 -543.3095 41.8618 2356.1594
-419.9854 -4.2953 -545.4349 41.8990 2358.5994
-418.8647 -4.3166 -547.4079 41.9362 2360.8684
-417.8885 -4.3347 -549.1114 41.9734 2362.8320
-416.7518 -4.3553 -551.0759 42.0106 2365.1018
-415.5518 -4.3767 -553.1292 42.0478 2367.4800
-414.7256 -4.3912 -554.5302 42.0850 2369.1064
-413.5263 -4.4117 -556.5454 42.1222 2371.4517
-412.1539 -4.4345 -558.8257 42.1595 2374.1133
-410.9530 -4.4539 -560.8009 42.1967 2376.4250
-409.9692 -4.4694 -562.4061 42.2339 2378.3079
-408.7213 -4.4885 -564.4252 42.2711 2380.6814
-407.2821 -4.5100 -566.7294 42.3083 2383.3982
-406.0542 -4.5276 -568.6741 42.3455 2385.6982
-404.9654 -4.5429 -570.3807 42.3827 2387.7227
-403.8478 -4.5582 -572.1131 42.4199 2389.7842
-402.2554 -4.5730 -574.5489 42.4571 2392.6946
-400.9504 -4.5760 -576.5124 42.4944 2395.0520
-399.6870 -4.5758 -578.3853 42.5316 2397.3113
-398.5632 -4.5781 -580.0306 42.5688 2399.3037
-396.8736 -4.5853 -582.4660 42.6060 2402.2678
-395.8210 -4.5889 -583.9630 42.6432 2404.0979
-394.1133 -4.5912 -586.3561 42.6804 2407.0378
-392.6253 -4.5903 -588.4067 42.7176 2409.5715
-391.3286 -4.5883 -590.1659 42.7548 2411.7568
-389.5796 -4.5830 -592.5013 42.7920 2414.6746
-388.2094 -4.5773 -594.3010 42.8292 2416.9368
-387.0647 -4.5724 -595.7842 42.8665 2418.8101
-385.1785 -4.5650 -598.1883 42.9037 2421.8660
-383.7939 -4.5595 -599.9235 42.9409 2424.0859
-382.0303 -4.5519 -602.1010 42.9781 2426.8879
-380.8398 -4.5472 -603.5508 43.0153 2428.7639
-378.7368 -4.5404 -606.0742 43.0525 2432.0488
-377.6341 -4.5368 -607.3773 43.0897 2433.7559
-375.3742 -4.5266 -610.0058 43.1269 2437.2224
-373.9522 -4.5190 -611.6304 43.1641 2439.3813
-371.9784 -4.5096 -613.8489 43.2014 2442.3508
-370.7947 -4.5044 -615.1585 43.2386 2444.1162
-368.6167 -4.4920 -617.5268 43.2758 2447.3337
-366.9333 -4.4770 -619.3226 43.3130 2449.7952
-364.9075 -4.4538 -621.4446 43.3502 2452.7290
-363.0582 -4.4305 -623.3463 43.3874 2455.3818
-361.2682 -4.4085 -625.1547 43.4246 2457.9263
-359.5926 -4.3887 -626.8203 43.4618 2460.2891
-357.5387 -4.3642 -628.8273 43.4990 2463.1609
-355.5691 -4.3406 -630.7156 43.5362 2465.8894
-353.8371 -4.3208 -632.3481 43.5735 2468.2698
-351.9190 -4.3013 -634.1262 43.6107 2470.8853
-350.2305 -4.2885 -635.6664 43.6479 2473.1707
-347.6787 -4.2776 -637.9503 43.6851 2476.5952
-346.0840 -4.2733 -639.3497 43.7223 2478.7170
-343.9799 -4.2676 -641.1665 43.7595 2481.4971
-341.9461 -4.2602 -642.8889 43.7967 2484.1621
-340.3080 -4.2534 -644.2535 43.8339 2486.2942
-338.2301 -4.2474 -645.9557 43.8711 2488.9802
-335.6620 -4.2444 -648.0167 43.9083 2492.2732
-333.5314 -4.2413 -649.6910 43.9456 2494.9829
-331.8923 -4.2378 -650.9578 43.9828 2497.0544
-329.9362 -4.2370 -652.4485 44.0200 2499.5139
-327.2231 -4.2441 -654.4801 44.0572 2502.9033
-325.0443 -4.2494 -656.0789 44.0944 2505.6057
-323.1010 -4.2473 -657.4771 44.1316 2507.9998
-320.8843 -4.2393 -659.0388 44.1688 2510.7114
-319.1351 -4.2318 -660.2479 44.2060 2512.8379
-316.1159 -4.2202 -662.2864 44.2432 2516.4810
-314.0696 -4.2147 -663.6353 44.2805 2518.9316
-312.1115 -4.2147 -664.9024 44.3177 2521.2642
-309.9714 -4.2195 -666.2610 44.3549 2523.7991
-306.8192 -4.2233 -668.2135 44.3921 2527.5071
-304.7982 -4.2198 -669.4365 44.4293 2529.8691
-302.6753 -4.2145 -670.6968 44.4665 2532.3381
-300.5199 -4.2119 -671.9525 44.5037 2534.8325
-298.1481 -4.2129 -673.3066 44.5409 2537.5637
-295.0594 -4.2123 -675.0287 44.5781 2541.1001
-292.9477 -4.2057 -676.1789 44.6153 2543.5046
-290.7520 -4.1953 -677.3518 44.6526 2545.9941
-287.4743 -4.1808 -679.0602 44.6898 2549.6902
-285.1405 -4.1752 -680.2453 44.7270 2552.3079
-283.0343 -4.1724 -681.2926 44.7642 2554.6602
-280.0137 -4.1679 -682.7588 44.8014 2558.0178
-278.2674 -4.1637 -683.5866 44.8386 2559.9502
-275.1679 -4.1534 -685.0236 44.8758 2563.3667
-273.4401 -4.1482 -685.8060 44.9130 2565.2634
-270.0694 -4.1441 -687.2957 44.9502 2568.9487
-268.1761 -4.1455 -688.1107 44.9875 2571.0100
-265.1119 -4.1483 -689.3965 45.0247 2574.3330
-262.3645 -4.1482 -690.5151 45.0619 2577.2993
-259.6646 -4.1491 -691.5820 45.0991 2580.2024
-257.8083 -4.1517 -692.2983 45.1363 2582.1921
-254.6343 -4.1583 -693.4906 45.1735 2585.5828
-251.6133 -4.1634 -694.5919 45.2107 2588.7983
-249.3685 -4.1656 -695.3878 45.2479 2591.1799
-247.1340 -4.1652 -696.1641 45.2851 2593.5454
-243.9055 -4.1482 -697.2560 45.3223 2596.9536
-241.9203 -4.1304 -697.9113 45.3596 2599.0442
-238.4863 -4.1079 -699.0116 45.3968 2602.6504
-236.1517 -4.1039 -699.7390 45.4340 2605.0957
-232.7202 -4.1032 -700.7731 45.4712 2608.6797
-229.8740 -4.0953 -701.6047 45.5084 2611.6448
-227.4538 -4.0854 -702.2936 45.5456 2614.1614
-225.0769 -4.0775 -702.9550 45.5828 2616.6284
-222.1735 -4.0703 -703.7388 45.6200 2619.6357
-218.7636 -4.0601 -704.6296 45.6572 2623.1602
-216.6522 -4.0524 -705.1642 45.6945 2625.3381
-213.1856 -4.0397 -706.0154 45.7317 2628.9080
-211.0646 -4.0323 -706.5201 45.7689 2631.0881
-207.5650 -4.0194 -707.3268 45.8061 2634.6794
-205.3616 -4.0107 -707.8185 45.8433 2636.9370
-201.7941 -3.9963 -708.5909 45.8805 2640.5874
-199.8813 -3.9884 -708.9920 45.9177 2642.5417
-196.3424 -3.9738 -709.7102 45.9549 2646.1528
-193.8421 -3.9627 -710.1979 45.9921 2648.7002
-190.8094 -3.9487 -710.7686 46.0293 2651.7861
-187.9048 -3.9352 -711.2933 46.0666 2654.7378
-185.6809 -3.9247 -711.6834 46.1038 2656.9956
-181.7735 -3.9059 -712.3450 46.1410 2660.9587
-179.1357 -3.8928 -712.7775 46.1782 2663.6318
-176.6492 -3.8803 -713.1743 46.2154 2666.1499
-174.0372 -3.8670 -713.5801 46.2526 2668.7932
-170.1089 -3.8466 -714.1686 46.2898 2672.7654
-167.3492 -3.8320 -714.5675 46.3270 2675.5537
-164.9055 -3.8190 -714.9111 46.3642 2678.0215
-161.4256 -3.8001 -715.3887 46.4015 2681.5342
-159.3002 -3.7885 -715.6748 46.4387 2683.6787
-155.6544 -3.7685 -716.1595 46.4759 2687.3567
-153.0725 -3.7542 -716.4986 46.5131 2689.9609
-150.4519 -3.7397 -716.8390 46.5503 2692.6035
-147.5323 -3.7233 -717.2133 46.5875 2695.5469
-144.0337 -3.7037 -717.6549 46.6247 2699.0735
-141.1436 -3.6873 -718.0145 46.6619 2701.9858
-137.9081 -3.6689 -718.4121 46.6991 2705.2458
-135.7456 -3.6565 -718.6755 46.7363 2707.4243
-132.3840 -3.6372 -719.0829 46.7736 2710.8105
-130.2190 -3.6248 -719.3446 46.8108 2712.9912
-126.4871 -3.6033 -719.7938 46.8480 2716.7502
-124.0839 -3.5894 -720.0818 46.8852 2719.1707
-120.5765 -3.5691 -720.5001 46.9224 2722.7031
-117.0273 -3.5485 -720.9211 46.9596 2726.2771
-114.5978 -3.5343 -721.2081 46.9968 2728.7236
-110.9008 -3.5128 -721.6437 47.0340 2732.4463
-108.7886 -3.5004 -721.8923 47.0712 2734.5730
-105.0151 -3.4783 -722.3357 47.1084 2738.3726
-102.4662 -3.4634 -722.6345 47.1457 2740.9390
-99.8105 -3.4478 -722.9455 47.1829 2743.6128
-96.7228 -3.4296 -723.3064 47.2201 2746.7217
-93.2409 -3.4091 -723.7123 47.2573 2750.2271
-90.3955 -3.3923 -724.0435 47.2945 2753.0918
-87.6536 -3.3761 -724.3631 47.3317 2755.8523
-85.0586 -3.3607 -724.6649 47.3689 2758.4648
-82.2273 -3.3440 -724.9938 47.4061 2761.3152
-78.7598 -3.3234 -725.3970 47.4433 2764.8062
-75.5457 -3.3043 -725.7711 47.4806 2768.0420
-72.6246 -3.2870 -726.1108 47.5178 2770.9829
-70.1180 -3.2721 -726.4022 47.5550 2773.5063
-66.8174 -3.2526 -726.7855 47.5922 2776.8293
-63.3527 -3.2320 -727.1880 47.6294 2780.3174
-60.4849 -3.2148 -727.5204 47.6666 2783.2043
-56.7531 -3.1922 -727.9532 47.7038 2786.9612
-54.7562 -3.1801 -728.1848 47.7410 2788.9717
-50.9035 -3.1567 -728.6321 47.7782 2792.8501
-48.7073 -3.1433 -728.8875 47.8154 2795.0613
-44.7385 -3.1188 -729.3499 47.8527 2799.0569
-42.5658 -3.1054 -729.6036 47.8899 2801.2444
-38.7134 -3.0819 -730.0547 47.9271 2805.1233
-36.5268 -3.0686 -730.3113 47.9643 2807.3250
-32.6487 -3.0448 -730.7679 48.0015 2811.2297
-30.4118 -3.0311 -731.0323 48.0387 2813.4824
-26.8078 -3.0090 -731.4599 48.0759 2817.1118
-24.4852 -2.9948 -731.7365 48.1131 2819.4507
-20.9537 -2.9732 -732.1587 48.1503 2823.0073
-18.3907 -2.9576 -732.4661 48.1876 2825.5889
-14.0370 -2.9309 -732.9902 48.2248 2829.9741
-11.3603 -2.9145 -733.3137 48.2620 2832.6702
-8.5766 -2.8975 -733.6511 48.2992 2835.4744
-6.0127 -2.8818 -733.9626 48.3364 2838.0571
-1.6587 -2.8551 -734.4935 48.3736 2842.4436
1.0737 -2.8384 -734.8278 48.4108 2845.1965
3.5705 -2.8231 -735.1339 48.4480 2847.7119
6.6291 -2.8044 -735.5098 48.4852 2850.7937
10.1155 -2.7830 -735.9398 48.5224 2854.3066
13.5043 -2.7623 -736.3597 48.5597 2857.7212
15.8746 -2.7477 -736.6545 48.5969 2860.1099
19.0293 -2.7284 -737.0480 48.6341 2863.2891
22.2380 -2.7087 -737.4489 48.6713 2866.5229
25.7728 -2.6870 -737.8911 48.7085 2870.0852
28.7827 -2.6680 -738.2675 48.7457 2873.1187
31.3261 -2.6510 -738.5861 48.7829 2875.6819
34.8711 -2.6285 -739.0298 48.8201 2879.2546
37.1985 -2.6139 -739.3215 48.8573 2881.6003
41.2306 -2.5885 -739.8267 48.8946 2885.6641
43.9524 -2.5711 -740.1680 48.9318 2888.4072
47.1690 -2.5509 -740.5720 48.9690 2891.6492
49.6268 -2.5351 -740.8805 49.0062 2894.1262
53.4324 -2.5107 -741.3582 49.0434 2897.9617
56.6949 -2.4903 -741.7680 49.0806 2901.2500
59.5159 -2.4724 -742.1221 49.1178 2904.0933
63.4153 -2.4481 -742.6111 49.1550 2908.0232
65.6971 -2.4331 -742.8966 49.1922 2910.3230
69.3624 -2.4101 -743.3553 49.2294 2914.0168
72.0147 -2.3931 -743.6876 49.2667 2916.6899
75.5829 -2.3703 -744.1339 49.3039 2920.2859
78.8594 -2.3501 -744.5419 49.3411 2923.5879
81.8470 -2.3302 -744.9110 49.3783 2926.5984
84.0952 -2.3158 -745.1866 49.4155 2928.8633
87.9867 -2.2922 -745.6609 49.4527 2932.7837
90.6110 -2.2750 -745.9775 49.4899 2935.4270
94.3444 -2.2505 -746.4189 49.5271 2939.1865
96.5294 -2.2367 -746.6703 49.5643 2941.3860
100.5463 -2.2109 -747.1093 49.6016 2945.4270
103.2762 -2.1934 -747.3892 49.6388 2948.1711
106.9987 -2.1692 -747.7487 49.6760 2951.9111
110.0722 -2.1491 -748.0250 49.7132 2954.9971
112.8398 -2.1313 -748.2528 49.7504 2957.7742
116.8812 -2.1057 -748.5438 49.7876 2961.8262
119.8753 -2.0863 -748.7173 49.8248 2964.8252
122.6085 -2.0685 -748.8397 49.8620 2967.5613
125.3778 -2.0475 -748.9261 49.8992 2970.3320
129.2428 -2.0144 -748.9792 49.9364 2974.1975
132.1569 -1.9904 -748.9648 49.9737 2977.1118
134.9621 -1.9676 -748.9057 50.0109 2979.9177
138.1337 -1.9403 -748.7855 50.0481 2983.0918
140.2800 -1.9210 -748.6709 50.0853 2985.2412
143.5478 -1.8919 -748.4453 50.1225 2988.5171
146.8628 -1.8623 -748.1550 50.1597 2991.8450
149.6858 -1.8360 -747.8566 50.1969 2994.6838
151.9234 -1.8145 -747.5879 50.2341 2996.9375
155.5378 -1.7794 -747.0866 50.2713 3000.5869
158.4882 -1.7502 -746.6195 50.3085 3003.5742
160.7405 -1.7274 -746.2255 50.3458 3005.8608
164.2660 -1.6907 -745.5455 50.3830 3009.4517
166.4686 -1.6669 -745.0778 50.4202 3011.7034
169.6314 -1.6328 -744.3554 50.4574 3014.9480
171.7726 -1.6122 -743.8288 50.4946 3017.1531
174.6079 -1.5941 -743.0916 50.5318 3020.0828
177.2962 -1.5915 -742.3437 50.5690 3022.8730
180.4583 -1.5970 -741.4037 50.6062 3026.1719
182.4292 -1.5980 -740.7777 50.6434 3028.2400
185.7455 -1.5788 -739.6601 50.6807 3031.7397
187.6526 -1.5548 -738.9776 50.7179 3033.7654
190.8972 -1.5242 -737.7585 50.7551 3037.2317
193.1578 -1.5182 -736.8659 50.7923 3039.6621
195.7211 -1.5151 -735.8015 50.8295 3042.4377
197.6251 -1.5080 -734.9702 50.8667 3044.5154
200.7252 -1.4835 -733.5383 50.9039 3047.9302
202.8490 -1.4666 -732.5071 50.9411 3050.2913
205.6535 -1.4551 -731.0869 50.9783 3053.4348
207.4121 -1.4509 -730.1591 51.0155 3055.4233
209.9746 -1.4361 -728.7482 51.0528 3058.3486
212.2112 -1.4146 -727.4624 51.0900 3060.9287
215.0334 -1.3878 -725.7696 51.1272 3064.2197
217.2685 -1.3727 -724.3752 51.1644 3066.8540
219.3292 -1.3638 -723.0453 51.2016 3069.3069
222.3127 -1.3472 -721.0342 51.2388 3072.9050
224.4221 -1.3301 -719.5493 51.2760 3075.4846
226.2916 -1.3143 -718.1860 51.3132 3077.7986
228.7722 -1.2953 -716.3113 51.3504 3080.9080
230.2318 -1.2858 -715.1709 51.3877 3082.7603
232.7408 -1.2708 -713.1406 51.4249 3085.9880
234.3449 -1.2597 -711.7962 51.4621 3088.0811
237.0237 -1.2375 -709.4621 51.4993 3091.6340
238.5042 -1.2254 -708.1249 51.5365 3093.6292
240.6773 -1.2106 -706.0979 51.5737 3096.6008
242.9147 -1.1980 -703.9301 51.6109 3099.7166
244.9015 -1.1871 -701.9286 51.6481 3102.5366
246.2937 -1.1791 -700.4823 51.6853 3104.5442
248.4787 -1.1644 -698.1317 51.7225 3107.7534
250.5708 -1.1485 -695.7907 51.7598 3110.8933
252.0190 -1.1383 -694.1108 51.7970 3113.1111
253.5591 -1.1290 -692.2751 51.8342 3115.5076
255.4189 -1.1190 -689.9742 51.8714 3118.4661
257.4655 -1.1057 -687.3382 51.9086 3121.8035
258.8981 -1.0918 -685.4206 51.9458 3124.1970
260.2888 -1.0749 -683.5007 51.9830 3126.5679
261.9520 -1.0574 -681.1186 52.0202 3129.4731
263.8080 -1.0476 -678.3584 52.0574 3132.7993
264.9459 -1.0426 -676.6005 52.0947 3134.8936
266.7783 -1.0245 -673.6559 52.1319 3138.3618
267.7788 -1.0091 -671.9821 52.1691 3140.3120
269.4647 -0.9835 -669.0549 52.2063 3143.6902
270.7419 -0.9689 -666.7392 52.2435 3146.3347
272.0768 -0.9566 -664.2197 52.2807 3149.1860
273.0064 -0.9466 -662.3993 52.3179 3151.2300
274.5258 -0.9197 -659.2954 52.3551 3154.6860
275.5458 -0.8943 -657.1166 52.3923 3157.0920
276.7051 -0.8672 -654.5486 52.4295 3159.9097
277.7560 -0.8477 -652.1263 52.4668 3162.5503
278.6410 -0.8348 -650.0114 52.5040 3164.8428
279.6769 -0.8200 -647.4349 52.5412 3167.6199
280.9354 -0.8049 -644.1477 52.5784 3171.1399
281.7737 -0.7910 -641.8564 52.6156 3173.5798
282.5952 -0.7756 -639.5421 52.6528 3176.0356
283.4291 -0.7592 -637.1262 52.6900 3178.5916
284.6321 -0.7277 -633.5198 52.7272 3182.3933
285.3589 -0.7034 -631.2739 52.7644 3184.7542
286.3742 -0.6725 -628.0616 52.8017 3188.1230
286.9634 -0.6598 -626.1577 52.8389 3190.1162
287.9456 -0.6466 -622.9288 52.8761 3193.4912
288.5096 -0.6401 -621.0455 52.9133 3195.4570
289.5422 -0.6156 -617.5495 52.9505 3199.1025
290.1300 -0.5977 -615.5283 52.9877 3201.2075
291.0290 -0.5747 -612.3896 53.0249 3204.4724
291.6387 -0.5590 -610.2221 53.0621 3206.7241
292.6099 -0.5278 -606.6918 53.0993 3210.3857
293.1383 -0.5076 -604.7289 53.1365 3212.4187
294.0057 -0.4819 -601.4261 53.1738 3215.8335
294.7685 -0.4612 -598.4391 53.2110 3218.9165
295.3798 -0.4409 -595.9814 53.2482 3221.4492
296.2208 -0.4091 -592.5023 53.2854 3225.0286
296.8127 -0.3885 -589.9772 53.3226 3227.6223
297.4488 -0.3734 -587.1958 53.3598 3230.4756
297.9730 -0.3644 -584.8480 53.3970 3232.8811
298.7393 -0.3450 -581.3253 53.4342 3236.4863
299.2509 -0.3246 -578.9044 53.4714 3238.9607
299.8703 -0.2971 -575.9009 53.5086 3242.0276
300.4250 -0.2741 -573.1355 53.5459 3244.8481
300.8762 -0.2571 -570.8335 53.5831 3247.1941
301.4930 -0.2323 -567.6086 53.6203 3250.4773
301.8641 -0.2159 -565.6299 53.6575 3252.4907
302.5167 -0.1865 -562.0658 53.6947 3256.1143
302.9825 -0.1672 -559.4568 53.7319 3258.7644
303.5198 -0.1432 -556.3702 53.7691 3261.8977
303.8996 -0.1244 -554.1385 53.8063 3264.1614
304.5330 -0.0937 -550.3096 53.8435 3268.0427
304.9600 -0.0755 -547.6501 53.8808 3270.7361
305.3733 -0.0578 -545.0059 53.9180 3273.4126
305.7398 -0.0402 -542.6055 53.9552 3275.8408
306.3257 -0.0091 -538.6426 53.9924 3279.8469
306.7184 0.0110 -535.8954 54.0296 3282.6221
307.0583 0.0267 -533.4443 54.0668 3285.0969
307.5409 0.0524 -529.8481 54.1040 3288.7253
307.7983 0.0703 -527.8652 54.1412 3290.7249
308.2682 0.1038 -524.1127 54.1784 3294.5068
308.5295 0.1196 -521.9509 54.2156 3296.6843
308.9773 0.1454 -518.1168 54.2529 3300.5447
309.2448 0.1637 -515.7405 54.2901 3302.9360
309.5966 0.1902 -512.5177 54.3273 3306.1782
309.8895 0.2118 -509.7380 54.3645 3308.9734
310.1594 0.2314 -507.0922 54.4017 3311.6331
310.4684 0.2557 -503.9546 54.4389 3314.7859
310.8072 0.2876 -500.3695 54.4761 3318.3870
311.0378 0.3107 -497.8260 54.5133 3320.9409
311.3416 0.3387 -494.3486 54.5505 3324.4319
311.5146 0.3541 -492.2971 54.5878 3326.4907
311.8062 0.3811 -488.7318 54.6250 3330.0679
311.9774 0.3961 -486.5732 54.6622 3332.2334
312.2758 0.4219 -482.7051 54.6994 3336.1130
312.4397 0.4398 -480.5225 54.7366 3338.3020
312.6763 0.4723 -477.2938 54.7738 3341.5393
312.8638 0.4988 -474.6750 54.8110 3344.1650
313.1256 0.5288 -470.9230 54.8482 3347.9263
313.2922 0.5443 -468.4896 54.8854 3350.3655
313.5330 0.5674 -464.9158 54.9226 3353.9475
313.7551 0.5913 -461.5527 54.9599 3357.3179
313.9216 0.6083 -458.9758 54.9971 3359.9001
314.1653 0.6312 -455.1059 55.0343 3363.7778
314.3141 0.6457 -452.6838 55.0715 3366.2046
314.5106 0.6647 -449.4269 55.1087 3369.4675
314.6893 0.6786 -446.4109 55.1459 3372.4888
314.8292 0.6881 -444.0268 55.1831 3374.8772
315.0039 0.7008 -441.0348 55.2203 3377.8743
315.2181 0.7168 -437.3638 55.2575 3381.5515
315.3942 0.7273 -434.3582 55.2948 3384.5623
315.5482 0.7347 -431.7456 55.3320 3387.1794
315.7057 0.7424 -429.0974 55.3692 3389.8323
315.8786 0.7521 -426.2109 55.4064 3392.7239
316.0888 0.7650 -422.7147 55.4436 3396.2263
316.2816 0.7755 -419.5146 55.4808 3399.4324
316.4612 0.7841 -416.5330 55.5180 3402.4194
316.6104 0.7912 -414.0558 55.5552 3404.9011
316.8661 0.8047 -409.8052 55.5924 3409.1594
317.0277 0.8131 -407.1166 55.6296 3411.8528
317.1983 0.8186 -404.2823 55.6669 3414.6924
317.4143 0.8213 -400.6884 55.7041 3418.2927
317.5997 0.8227 -397.6022 55.7413 3421.3845
317.7716 0.8237 -394.7439 55.7785 3424.2480
317.9065 0.8216 -392.5029 55.8157 3426.4929
318.1341 0.8049 -388.7221 55.8529 3430.2808
318.2932 0.7895 -386.0869 55.8901 3432.9207
318.5161 0.7741 -382.4126 55.9273 3436.6018
318.7003 0.7644 -379.3919 55.9645 3439.6282
318.8564 0.7544 -376.8394 56.0018 3442.1855
319.0246 0.7419 -374.0987 56.0390 3444.9314
319.2599 0.7255 -370.2972 56.0762 3448.7400
319.4558 0.7132 -367.1735 56.1134 3451.8701
319.6364 0.7018 -364.3359 56.1506 3454.7134
319.9013 0.6845 -360.2663 56.1878 3458.7915
320.0910 0.6725 -357.4255 56.2250 3461.6387
320.2834 0.6609 -354.6140 56.2622 3464.4568
320.5193 0.6469 -351.2639 56.2994 3467.8152
320.6899 0.6370 -348.9079 56.3366 3470.1775
320.9583 0.6216 -345.3016 56.3739 3473.7937
321.1309 0.6120 -343.0486 56.4111 3476.0535
321.4294 0.5961 -339.3104 56.4483 3479.8035
321.6479 0.5848 -336.7003 56.4855 3482.4229
322.0077 0.5672 -332.6441 56.5227 3486.4949
322.2990 0.5536 -329.5475 56.5599 3489.6052
322.5331 0.5431 -327.1767 56.5971 3491.9875
322.8622 0.5289 -324.0051 56.6343 3495.1763
323.2860 0.5115 -320.1600 56.6715 3499.0447
323.5208 0.5022 -318.1332 56.7087 3501.0850
323.9944 0.4843 -314.2464 56.7460 3505.0007
324.3299 0.4720 -311.6329 56.7832 3507.6357
324.8135 0.4551 -308.0504 56.8204 3511.2507
325.1366 0.4441 -305.7553 56.8576 3513.5684
325.7386 0.4245 -301.7003 56.8948 3517.6680
326.1781 0.4108 -298.8968 56.9320 3520.5056
326.6921 0.3953 -295.7901 56.9692 3523.6548
327.3372 0.3766 -292.1023 57.0064 3527.3987
327.7682 0.3646 -289.7718 57.0436 3529.7686
328.5297 0.3442 -285.8625 57.0809 3533.7515
328.9956 0.3321 -283.5979 57.1181 3536.0635
329.8186 0.3115 -279.7840 57.1553 3539.9653
330.4632 0.2958 -276.9489 57.1925 3542.8728
331.1594 0.2794 -274.0096 57.2297 3545.8936
331.9449 0.2612 -270.8282 57.2669 3549.1704
332.5162 0.2483 -268.5934 57.3041 3551.4773
333.6212 0.2240 -264.4378 57.3413 3555.7773
334.3868 0.2061 -261.6723 57.3785 3558.6470
335.1423 0.1843 -259.0294 57.4157 3561.3958
336.2428 0.1454 -255.3136 57.4530 3565.2715
336.8466 0.1231 -253.3390 57.4902 3567.3364
338.0339 0.0788 -249.5689 57.5274 3571.2893
338.7338 0.0509 -247.4065 57.5646 3573.5623
340.0525 -0.0036 -243.4505 57.6018 3577.7327
340.8474 -0.0353 -241.1421 57.6390 3580.1743
342.0809 -0.0788 -237.6617 57.6762 3583.8669
343.1081 -0.1066 -234.8535 57.7134 3586.8574
344.1221 -0.1294 -232.1596 57.7506 3589.7358
345.6049 -0.1727 -228.3428 57.7879 3593.8308
346.7289 -0.2117 -225.5368 57.8251 3596.8538
347.7789 -0.2491 -222.9656 57.8623 3599.6313
349.1629 -0.2931 -219.6356 57.8995 3603.2378
350.0267 -0.3150 -217.5882 57.9367 3605.4602
351.4704 -0.3598 -214.2059 57.9739 3609.1379
352.7819 -0.4158 -211.1595 58.0111 3612.4551
354.1222 -0.4640 -208.0596 58.0483 3615.8328
355.0338 -0.4866 -205.9544 58.0855 3618.1270
356.6015 -0.5222 -202.3270 58.1227 3622.0789
357.4095 -0.5451 -200.4466 58.1600 3624.1255
358.9341 -0.5908 -196.8688 58.1972 3628.0149
360.4761 -0.6250 -193.2132 58.2344 3631.9827
361.4414 -0.6368 -190.8936 58.2716 3634.4951
362.7072 -0.6490 -187.7849 58.3088 3637.8516
363.8305 -0.6672 -184.9294 58.3460 3640.9202
364.6760 -0.6847 -182.7043 58.3832 3643.3005
365.6270 -0.7063 -180.1087 58.4204 3646.0649
366.5793 -0.7222 -177.3923 58.4576 3648.9436
367.7289 -0.7308 -173.9115 58.4949 3652.6094
368.5313 -0.7396 -171.3287 58.5321 3655.3140
369.3878 -0.7569 -168.3842 58.5693 3658.3806
370.3344 -0.7736 -164.8577 58.6065 3662.0320
370.8779 -0.7793 -162.6628 58.6437 3664.2935
371.6723 -0.7945 -159.1941 58.6809 3667.8518
372.1060 -0.8080 -157.1378 58.7181 3669.9536
372.7754 -0.8262 -153.6352 58.7553 3673.5198
373.2178 -0.8311 -151.0240 58.7925 3676.1682
373.6425 -0.8337 -148.2217 58.8297 3679.0024
374.0442 -0.8418 -145.2083 58.8670 3682.0425
374.2871 -0.8526 -143.1593 58.9042 3684.1060
374.5887 -0.8706 -140.2565 58.9414 3687.0244
374.8936 -0.8913 -136.7028 58.9786 3690.5913
375.0625 -0.8908 -134.2050 59.0158 3693.0950
375.2192 -0.8781 -131.1170 59.0530 3696.1868
375.3093 -0.8747 -128.6088 59.0902 3698.6968
375.3792 -0.8869 -125.1043 59.1274 3702.2021
375.3801 -0.8958 -122.7852 59.1646 3704.5212
375.3141 -0.8960 -119.4475 59.2019 3707.8596
375.2212 -0.8919 -117.1553 59.2391 3710.1538
375.0417 -0.8905 -114.0305 59.2763 3713.2837
374.8969 -0.8926 -112.0771 59.3135 3715.2424
374.5606 -0.9013 -108.4334 59.3507 3718.9019
374.3342 -0.9040 -106.3934 59.3879 3720.9543
373.9037 -0.8952 -103.0326 59.4251 3724.3428
373.4940 -0.8790 -100.2416 59.4623 3727.1636
373.0832 -0.8632 -97.7141 59.4995 3729.7244
372.6062 -0.8492 -95.0282 59.5367 3732.4524
371.9751 -0.8349 -91.7883 59.5740 3735.7532
371.4028 -0.8192 -89.0896 59.6112 3738.5120
370.7726 -0.7974 -86.3214 59.6484 3741.3511
370.2860 -0.7808 -84.2977 59.6856 3743.4326
369.4483 -0.7567 -81.0124 59.7228 3746.8230
368.9363 -0.7419 -79.1032 59.7600 3748.7998
367.9906 -0.7117 -75.7448 59.7972 3752.2891
367.3212 -0.6931 -73.4495 59.8344 3754.6799
366.3194 -0.6747 -70.0812 59.8716 3758.1943
365.4792 -0.6609 -67.2945 59.9088 3761.1050
364.6514 -0.6419 -64.5777 59.9461 3763.9451
364.0166 -0.6216 -62.4939 59.9833 3766.1235
363.2110 -0.5918 -59.8300 60.0205 3768.9067
362.2366 -0.5625 -56.5602 60.0577 3772.3186
361.4703 -0.5466 -53.9503 60.0949 3775.0388
360.7789 -0.5347 -51.5553 60.1321 3777.5317
359.9991 -0.5216 -48.7764 60.1693 3780.4180
359.4258 -0.5123 -46.6631 60.2065 3782.6077
358.5049 -0.5011 -43.0930 60.2437 3786.2947
357.9069 -0.4962 -40.6374 60.2810 3788.8220
357.3373 -0.4901 -38.1526 60.3182 3791.3713
356.6185 -0.4752 -34.7789 60.3554 3794.8208
356.2297 -0.4601 -32.7873 60.3926 3796.8501
355.6406 -0.4331 -29.4780 60.4298 3800.2117
355.3554 -0.4209 -27.6974 60.4670 3802.0149
354.8998 -0.4055 -24.5130 60.5042 3805.2319
354.6351 -0.3981 -22.3560 60.5414 3807.4050
354.3452 -0.3893 -19.5733 60.5786 3810.2029
354.1586 -0.3815 -17.3423 60.6158 3812.4417
354.0077 -0.3721 -15.0349 60.6531 3814.7542
353.8613 -0.3605 -11.6181 60.6903 3818.1743
353.8130 -0.3576 -9.2870 60.7275 3820.5059
353.8053 -0.3594 -7.1779 60.7647 3822.6150
353.8402 -0.3665 -4.6916 60.8019 3825.1016
353.9498 -0.3800 -1.6641 60.8391 3828.1311
354.0856 -0.3919 0.6690 60.8763 3830.4683
354.2436 -0.4016 2.7081 60.9135 3832.5134
354.5281 -0.4121 5.6167 60.9507 3835.4360
354.7202 -0.4165 7.2530 60.9880 3837.0837
355.1200 -0.4209 10.1973 61.0252 3840.0549
355.3616 -0.4218 11.7651 61.0624 3841.6414
355.8303 -0.4217 14.4927 61.0996 3844.4089
356.2034 -0.4237 16.4711 61.1368 3846.4224
356.8938 -0.4329 19.7735 61.1740 3849.7961
357.3656 -0.4434 21.8305 61.2112 3851.9067
357.8584 -0.4540 23.8342 61.2484 3853.9702
358.4428 -0.4652 26.0433 61.2856 3856.2551
359.1683 -0.4762 28.5762 61.3228 3858.8901
359.6992 -0.4819 30.3165 61.3601 3860.7097
360.6432 -0.4979 33.2278 61.3973 3863.7703
361.2265 -0.5084 34.9172 61.4345 3865.5576
362.1628 -0.5195 37.4560 61.4717 3868.2634
363.1563 -0.5404 40.0045 61.5089 3870.9990
363.8552 -0.5652 41.7247 61.5461 3872.8560
365.0025 -0.6117 44.4056 61.5833 3875.7725
365.7782 -0.6379 46.1090 61.6205 3877.6443
366.9654 -0.6688 48.5695 61.6577 3880.3767
368.0274 -0.6968 50.6522 61.6950 3882.7146
368.9080 -0.7214 52.3105 61.7322 3884.5923
370.2141 -0.7534 54.6708 61.7694 3887.2903
370.9903 -0.7699 56.0344 61.8066 3888.8594
372.5828 -0.8018 58.7663 61.8438 3892.0217
373.6097 -0.8222 60.4852 61.8810 3894.0242
374.6665 -0.8469 62.2345 61.9182 3896.0679
376.1460 -0.8824 64.6685 61.9554 3898.9165
377.2583 -0.9069 66.4980 61.9926 3901.0579
378.5357 -0.9330 68.6043 62.0298 3903.5212
379.7071 -0.9597 70.5365 62.0671 3905.7810
380.6920 -0.9843 72.1627 62.1043 3907.6824
382.0751 -1.0198 74.4671 62.1415 3910.3701
383.4243 -1.0533 76.7556 62.1787 3913.0271
384.3452 -1.0761 78.3506 62.2159 3914.8689
385.7919 -1.1129 80.9221 62.2531 3917.8198
386.6592 -1.1356 82.5151 62.2903 3919.6338
387.9161 -1.1681 84.8940 62.3275 3922.3245
388.9167 -1.1934 86.8529 62.3647 3924.5244
390.1620 -1.2241 89.3962 62.4020 3927.3562
390.8048 -1.2416 90.7622 62.4392 3928.8662
391.9494 -1.2820 93.2823 62.4764 3931.6343
392.5527 -1.3066 94.6724 62.5136 3933.1499
393.5104 -1.3435 96.9957 62.5508 3935.6631
394.2140 -1.3675 98.8048 62.5880 3937.6045
395.1109 -1.3997 101.2620 62.6252 3940.2205
395.8165 -1.4293 103.3248 62.6624 3942.4009
396.5497 -1.4626 105.6373 62.6996 3944.8269
396.9501 -1.4811 106.9943 62.7368 3946.2419
397.6264 -1.5139 109.4631 62.7741 3948.8020
397.9579 -1.5311 110.7742 62.8113 3950.1545
398.5533 -1.5652 113.3450 62.8485 3952.7937
398.8542 -1.5839 114.7732 62.8857 3954.2534
399.3637 -1.6194 117.4832 62.9229 3957.0112
399.6631 -1.6440 119.3053 62.9601 3958.8579
399.9543 -1.6709 121.3306 62.9973 3960.9043
400.1369 -1.6902 122.7830 63.0345 3962.3682
400.3953 -1.7228 125.2239 63.0717 3964.8230
400.5280 -1.7435 126.7970 63.1089 3966.4019
400.6624 -1.7673 128.8484 63.1462 3968.4578
400.7402 -1.7777 130.6514 63.1834 3970.2627
400.7857 -1.7794 132.5431 63.2206 3972.1548
400.7990 -1.7787 134.2495 63.2578 3973.8613
400.7731 -1.7807 136.6511 63.2950 3976.2632
400.6997 -1.7922 139.0045 63.3322 3978.6177
400.6337 -1.8007 140.3361 63.3694 3979.9509
400.4749 -1.8167 142.6469 63.4066 3982.2673
400.3068 -1.8311 144.4892 63.4438 3984.1174
400.1178 -1.8463 146.2080 63.4811 3985.8467
399.8639 -1.8665 148.1618 63.5183 3987.8169
399.6500 -1.8831 149.6086 63.5555 3989.2798
399.2586 -1.9119 151.9169 63.5927 3991.6211
398.8085 -1.9388 154.1980 63.6299 3993.9465
398.5359 -1.9539 155.4446 63.6671 3995.2227
397.9868 -1.9851 157.7508 63.7043 3997.5935
397.5768 -2.0088 159.3228 63.7415 3999.2183
397.0184 -2.0391 161.3049 63.7787 4001.2778
396.4877 -2.0648 163.0437 63.8159 4003.0962
396.0173 -2.0854 164.4940 63.8532 4004.6208
395.2963 -2.1150 166.5753 63.8904 4006.8237
394.4717 -2.1486 168.7997 63.9276 4009.1963
393.9883 -2.1679 170.0332 63.9648 4010.5215
393.0396 -2.2035 172.3279 64.0020 4013.0049
392.4305 -2.2245 173.7197 64.0392 4014.5242
391.4708 -2.2556 175.8091 64.0764 4016.8237
390.6651 -2.2813 177.4758 64.1136 4018.6750
389.8874 -2.3064 179.0189 64.1508 4020.4033
388.9598 -2.3359 180.7793 64.1880 4022.3933
387.8019 -2.3706 182.8684 64.2253 4024.7822
386.8957 -2.3956 184.4251 64.2625 4026.5837
385.8156 -2.4234 186.2029 64.2997 4028.6641
385.0841 -2.4414 187.3638 64.3369 4030.0364
383.5393 -2.4771 189.7070 64.3741 4032.8433
382.5338 -2.4986 191.1620 64.4113 4034.6121
381.2366 -2.5252 192.9669 64.4485 4036.8350
380.3850 -2.5423 194.1095 64.4857 4038.2600
378.8444 -2.5712 196.0990 64.5229 4040.7766
377.7639 -2.5898 197.4371 64.5602 4042.4966
376.4365 -2.6108 199.0257 64.5974 4044.5669
375.1734 -2.6291 200.4841 64.6346 4046.4963
373.6704 -2.6490 202.1598 64.6718 4048.7476
372.1061 -2.6680 203.8412 64.7090 4051.0442
370.6454 -2.6845 205.3525 64.7462 4053.1460
369.4662 -2.6972 206.5370 64.7834 4054.8176
367.9646 -2.7125 208.0021 64.8206 4056.9155
366.6517 -2.7249 209.2467 64.8578 4058.7246
364.7129 -2.7416 211.0258 64.8951 4061.3562
363.2098 -2.7530 212.3605 64.9323 4063.3665
361.4710 -2.7651 213.8531 64.9695 4065.6580
359.5446 -2.7776 215.4533 65.0067 4068.1624
358.2851 -2.7852 216.4679 65.0439 4069.7798
356.1751 -2.7967 218.1193 65.0811 4072.4592
354.8817 -2.8029 219.1020 65.1183 4074.0835
352.7032 -2.8132 220.7050 65.1555 4076.7883
351.0356 -2.8203 221.8890 65.1927 4078.8335
349.2495 -2.8282 223.1221 65.2299 4081.0039
347.2927 -2.8374 224.4372 65.2672 4083.3618
345.9584 -2.8439 225.3161 65.3044 4084.9595
344.0225 -2.8533 226.5719 65.3416 4087.2671
341.6735 -2.8657 228.0714 65.3788 4090.0540
339.9922 -2.8756 229.1282 65.4160 4092.0398
337.5876 -2.8903 230.6231 65.4532 4094.8711
336.2133 -2.8994 231.4736 65.4904 4096.4873
333.8018 -2.9167 232.9698 65.5276 4099.3252
332.4371 -2.9280 233.8229 65.5648 4100.9351
329.8159 -2.9473 235.4807 65.6021 4104.0361
328.3865 -2.9585 236.3948 65.6393 4105.7329
326.1876 -2.9802 237.8159 65.6765 4108.3516
324.2977 -2.9978 239.0570 65.7137 4110.6123
322.5191 -3.0142 240.2437 65.7509 4112.7505
319.9573 -3.0464 241.9872 65.7881 4115.8496
318.1422 -3.0708 243.2530 65.8253 4118.0625
316.4796 -3.0936 244.4352 65.8625 4120.1030
314.2625 -3.1289 246.0422 65.8997 4122.8413
312.9089 -3.1550 247.0418 65.9369 4124.5239
310.6005 -3.2024 248.7820 65.9742 4127.4155
309.3309 -3.2262 249.7600 66.0114 4129.0181
306.9111 -3.2704 251.6606 66.0486 4132.0957
305.4973 -3.2994 252.7934 66.0858 4133.9072
303.2281 -3.3458 254.6531 66.1230 4136.8418
301.2532 -3.3816 256.3138 66.1602 4139.4224
299.2697 -3.4164 258.0229 66.1974 4142.0410
297.9757 -3.4400 259.1606 66.2346 4143.7642
295.7115 -3.4814 261.1961 66.2718 4146.8091
294.5175 -3.5029 262.2933 66.3091 4148.4307
292.2800 -3.5389 264.3950 66.3463 4151.5005
290.8140 -3.5618 265.8022 66.3835 4153.5327
288.8567 -3.5956 267.7205 66.4207 4156.2739
286.7505 -3.6318 269.8347 66.4579 4159.2583
285.3554 -3.6538 271.2659 66.4951 4161.2568
283.1763 -3.6877 273.5493 66.5323 4164.4136
281.9320 -3.7077 274.8808 66.5695 4166.2363
279.9310 -3.7403 277.0610 66.6067 4169.1958
278.3215 -3.7671 278.8515 66.6439 4171.6035
276.8115 -3.7938 280.5616 66.6812 4173.8848
275.0242 -3.8275 282.6271 66.7184 4176.6162
273.8313 -3.8496 284.0295 66.7556 4178.4575
271.8549 -3.8816 286.4022 66.7928 4181.5459
270.1893 -3.9076 288.4479 66.8300 4184.1841
268.6511 -3.9323 290.3771 66.8672 4186.6514
267.3813 -3.9511 291.9994 66.9044 4188.7119
265.2332 -3.9764 294.8093 66.9416 4192.2490
263.7627 -3.9926 296.7778 66.9788 4194.7061
262.4608 -4.0078 298.5552 67.0160 4196.9092
260.5577 -4.0293 301.2085 67.0533 4200.1748
259.2422 -4.0423 303.0840 67.0905 4202.4653
257.7373 -4.0561 305.2695 67.1277 4205.1191
256.6542 -4.0652 306.8698 67.1649 4207.0513
255.1466 -4.0772 309.1367 67.2021 4209.7739
253.7958 -4.0866 311.2077 67.2393 4212.2466
251.8644 -4.0976 314.2348 67.2765 4215.8374
250.6709 -4.1029 316.1439 67.3137 4218.0889
249.0026 -4.1085 318.8577 67.3509 4221.2744
247.9614 -4.1106 320.5801 67.3882 4223.2871
246.3957 -4.1116 323.2084 67.4254 4226.3467
245.4442 -4.1103 324.8293 67.4626 4228.2261
243.6966 -4.1076 327.8516 67.4998 4231.7173
242.7227 -4.1080 329.5610 67.5370 4233.6846
241.1218 -4.1111 332.4136 67.5742 4236.9556
239.7868 -4.1138 334.8323 67.6114 4239.7183
238.6070 -4.1166 336.9990 67.6486 4242.1855
236.9828 -4.1239 340.0223 67.6858 4245.6177
235.8950 -4.1318 342.0721 67.7230 4247.9380
234.5957 -4.1415 344.5492 67.7603 4250.7354
233.2963 -4.1477 347.0586 67.7975 4253.5610
232.3885 -4.1495 348.8290 67.8347 4255.5508
231.1531 -4.1520 351.2578 67.8719 4258.2754
230.0373 -4.1563 353.4670 67.9091 4260.7505
228.4622 -4.1673 356.6072 67.9463 4264.2637
227.3762 -4.1770 358.7861 67.9835 4266.6982
226.0054 -4.1885 361.5518 68.0207 4269.7852
224.6439 -4.1984 364.3135 68.0579 4272.8643
223.4562 -4.2063 366.7353 68.0952 4275.5615
222.4057 -4.2131 368.8871 68.1324 4277.9561
221.0371 -4.2210 371.7046 68.1696 4281.0884
219.8091 -4.2272 374.2444 68.2068 4283.9097
218.6445 -4.2333 376.6628 68.2440 4286.5938
217.5304 -4.2395 378.9848 68.2812 4289.1689
216.2876 -4.2478 381.5853 68.3184 4292.0513
214.8012 -4.2618 384.7061 68.3556 4295.5078
213.7003 -4.2764 387.0236 68.3928 4298.0737
212.5572 -4.2928 389.4339 68.4300 4300.7417
211.3588 -4.3076 391.9652 68.4673 4303.5420
210.3962 -4.3164 394.0011 68.5045 4305.7939
208.7332 -4.3259 397.5229 68.5417 4309.6890
207.6252 -4.3301 399.8706 68.5789 4312.2852
206.5495 -4.3348 402.1497 68.6161 4314.8052
205.0181 -4.3450 405.3951 68.6533 4318.3936
204.0358 -4.3544 407.4770 68.6905 4320.6958
202.7068 -4.3696 410.2939 68.7277 4323.8105
201.8473 -4.3805 412.1157 68.7649 4325.8247
200.4745 -4.3997 415.0254 68.8021 4329.0420
199.3140 -4.4158 417.4856 68.8394 4331.7622
197.6496 -4.4359 421.0133 68.8766 4335.6631
196.5921 -4.4475 423.2546 68.9138 4338.1416
195.0616 -4.4658 426.4987 68.9510 4341.7285
194.2046 -4.4778 428.3152 68.9882 4343.7368
192.6804 -4.5011 431.5454 69.0254 4347.3086
191.5233 -4.5190 433.9977 69.0626 4350.0205
190.1690 -4.5380 436.8676 69.0998 4353.1938
189.2803 -4.5478 438.7511 69.1370 4355.2764
187.7447 -4.5613 442.0050 69.1743 4358.8745
186.8594 -4.5703 443.8805 69.2115 4360.9487
185.3239 -4.5916 447.1344 69.2487 4364.5469
184.2612 -4.6072 449.3867 69.2859 4367.0371
182.4865 -4.6289 453.1475 69.3231 4371.1958
181.3354 -4.6411 455.5868 69.3603 4373.8931
180.2409 -4.6544 457.9061 69.3975 4376.4575
179.0269 -4.6713 460.4787 69.4347 4379.3022
177.5088 -4.6901 463.6953 69.4719 4382.8594
176.6546 -4.6980 465.5051 69.5091 4384.8604
174.9589 -4.7137 469.0984 69.5464 4388.8340
173.9096 -4.7263 471.3219 69.5836 4391.2925
172.3631 -4.7457 474.5986 69.6208 4394.9160
171.4956 -4.7560 476.4368 69.6580 4396.9487
169.9112 -4.7763 479.7941 69.6952 4400.6611
168.7314 -4.7919 482.2936 69.7324 4403.4248
167.3294 -4.8076 485.2643 69.7696 4406.7100
165.8387 -4.8254 488.4229 69.8068 4410.2026
164.8485 -4.8415 490.5206 69.8440 4412.5225
163.5000 -4.8689 493.3777 69.8813 4415.6816
162.0158 -4.9017 496.5228 69.9185 4419.1597
161.1364 -4.9196 498.3864 69.9557 4421.2202
159.6803 -4.9461 501.4722 69.9929 4424.6328
158.2311 -4.9727 504.5430 70.0301 4428.0283
156.9804 -4.9957 507.1930 70.0673 4430.9585
155.9381 -5.0142 509.4013 70.1045 4433.4009
154.3877 -5.0465 512.6863 70.1417 4437.0332
152.9077 -5.0814 515.8223 70.1789 4440.5010
151.8106 -5.1006 518.1469 70.2161 4443.0718
150.1827 -5.1087 521.5967 70.2534 4446.8862
149.2512 -5.1043 523.5704 70.2906 4449.0688
147.6215 -5.1017 527.0231 70.3278 4452.8867
146.5088 -5.1152 529.3804 70.3650 4455.4937
144.9396 -5.1481 532.7047 70.4022 4459.1699
143.8698 -5.1730 534.9714 70.4394 4461.6763
142.3811 -5.2035 538.1262 70.4766 4465.1650
141.0844 -5.2281 540.8738 70.5138 4468.2031
139.9803 -5.2521 543.2134 70.5510 4470.7905
138.7911 -5.2806 545.7337 70.5882 4473.5771
137.1660 -5.3188 549.1781 70.6255 4477.3862
135.8226 -5.3471 552.0253 70.6627 4480.5342
134.6004 -5.3695 554.6157 70.6999 4483.3989
132.8624 -5.3944 558.2995 70.7371 4487.4722
131.6193 -5.4085 560.9344 70.7743 4490.3857
130.4240 -5.4230 563.4678 70.8115 4493.1865
129.2641 -5.4419 565.9260 70.8487 4495.9048
127.9757 -5.4677 568.6564 70.8859 4498.9243
126.4358 -5.4953 571.9200 70.9231 4502.5327
125.0060 -5.5138 574.9498 70.9604 4505.8833
123.5900 -5.5306 577.9504 70.9976 4509.2012
122.6109 -5.5438 580.0247 71.0348 4511.4951
120.9391 -5.5677 583.5664 71.0720 4515.4116
120.0474 -5.5798 585.4550 71.1092 4517.5000
118.3372 -5.6031 589.0762 71.1464 4521.5049
117.1685 -5.6212 591.5507 71.1836 4524.2417
115.8959 -5.6410 594.2443 71.2208 4527.2207
114.6398 -5.6571 596.9026 71.2580 4530.1606
112.9032 -5.6783 600.5772 71.2952 4534.2251
111.7193 -5.6969 603.0815 71.3325 4536.9951
110.2976 -5.7181 606.0881 71.3697 4540.3213
108.6266 -5.7363 609.6218 71.4069 4544.2300
107.5920 -5.7482 611.8097 71.4441 4546.6504
105.9134 -5.7714 615.3580 71.4813 4550.5757
104.8928 -5.7853 617.5151 71.5185 4552.9619
103.2078 -5.8023 621.0763 71.5557 4556.9019
101.9018 -5.8131 623.8361 71.5929 4559.9551
