VERSION 0.7
FIELDS x y z time arclength lapdistance
SIZE 4 4 4 4 4 4
TYPE F F F F F F
COUNT 1 1 1 1 1 1
WIDTH 885
HEIGHT 1
VIEWPOINT 0.000 0.000 0.000 1.000 -75.039 -3.786 41.288
POINTS 885
DATA ascii
389.4870 -2.3193 179.7889 64.1677 4021.2688 4084.6055
389.0747 -2.3323 180.5660 64.1843 4022.1484 4085.4941
388.6551 -2.3452 181.3405 64.2010 4023.0295 4086.3809
388.2283 -2.3580 182.1124 64.2177 4023.9116 4087.2656
387.7942 -2.3706 182.8815 64.2344 4024.7949 4088.1494
387.3527 -2.3831 183.6479 64.2510 4025.6794 4089.0322
386.9040 -2.3953 184.4116 64.2677 4026.5652 4089.9141
386.4479 -2.4074 185.1724 64.2844 4027.4524 4090.7949
385.9846 -2.4193 185.9304 64.3010 4028.3408 4091.6758
385.5140 -2.4310 186.6855 64.3177 4029.2307 4092.5557
385.0363 -2.4426 187.4378 64.3344 4030.1218 4093.4355
384.5513 -2.4541 188.1871 64.3510 4031.0146 4094.3145
384.0591 -2.4654 188.9335 64.3677 4031.9087 4095.1934
383.5597 -2.4766 189.6770 64.3844 4032.8044 4096.0732
383.0530 -2.4876 190.4174 64.4010 4033.7017 4096.9531
382.5392 -2.4986 191.1549 64.4177 4034.6006 4097.8320
382.0182 -2.5095 191.8893 64.4344 4035.5010 4098.7129
381.4901 -2.5203 192.6205 64.4510 4036.4031 4099.5938
380.9547 -2.5311 193.3486 64.4677 4037.3069 4100.4756
380.4121 -2.5418 194.0734 64.4844 4038.2124 4101.3584
379.8623 -2.5523 194.7950 64.5011 4039.1196 4102.2422
379.3053 -2.5628 195.5132 64.5177 4040.0286 4103.1270
378.7409 -2.5730 196.2281 64.5344 4040.9395 4104.0137
378.1693 -2.5829 196.9398 64.5511 4041.8523 4104.9014
377.5906 -2.5926 197.6480 64.5677 4042.7671 4105.7910
377.0048 -2.6020 198.3530 64.5844 4043.6836 4106.6816
376.4119 -2.6112 199.0546 64.6011 4044.6023 4107.5762
375.8122 -2.6200 199.7529 64.6177 4045.5229 4108.4707
375.2056 -2.6286 200.4481 64.6344 4046.4456 4109.3691
374.5924 -2.6370 201.1400 64.6511 4047.3701 4110.2676
373.9724 -2.6451 201.8289 64.6678 4048.2969 4111.1699
373.3459 -2.6531 202.5145 64.6844 4049.2256 4112.0723
372.7127 -2.6608 203.1966 64.7011 4050.1565 4112.9766
372.0731 -2.6684 203.8751 64.7178 4051.0889 4113.8809
371.4268 -2.6759 204.5500 64.7344 4052.0234 4114.7871
370.7741 -2.6832 205.2214 64.7511 4052.9597 4115.6953
370.1150 -2.6904 205.8893 64.7678 4053.8982 4116.6055
369.4495 -2.6974 206.5537 64.7844 4054.8386 4117.5166
368.7779 -2.7044 207.2147 64.8011 4055.7810 4118.4297
368.1000 -2.7111 207.8723 64.8178 4056.7253 4119.3438
367.4161 -2.7178 208.5266 64.8344 4057.6719 4120.2598
366.7262 -2.7242 209.1774 64.8511 4058.6204 4121.1768
366.0302 -2.7304 209.8248 64.8678 4059.5708 4122.0957
365.3283 -2.7364 210.4686 64.8845 4060.5234 4123.0166
364.6205 -2.7422 211.1090 64.9011 4061.4780 4123.9395
363.9066 -2.7478 211.7458 64.9178 4062.4346 4124.8633
363.1870 -2.7532 212.3789 64.9345 4063.3931 4125.7891
362.4615 -2.7584 213.0083 64.9511 4064.3535 4126.7168
361.7301 -2.7634 213.6339 64.9678 4065.3159 4127.6475
360.9930 -2.7684 214.2558 64.9845 4066.2805 4128.5781
360.2502 -2.7732 214.8738 65.0011 4067.2468 4129.5117
359.5016 -2.7779 215.4881 65.0178 4068.2151 4130.4473
358.7474 -2.7825 216.0985 65.0345 4069.1853 4131.3848
357.9877 -2.7869 216.7052 65.0512 4070.1577 4132.3242
357.2224 -2.7911 217.3080 65.0678 4071.1318 4133.2656
356.4516 -2.7952 217.9070 65.0845 4072.1079 4134.2100
355.6753 -2.7991 218.5020 65.1012 4073.0862 4135.1553
354.8934 -2.8030 219.0929 65.1178 4074.0662 4136.1035
354.1060 -2.8067 219.6795 65.1345 4075.0481 4137.0527
353.3132 -2.8103 220.2617 65.1512 4076.0317 4138.0059
352.5150 -2.8139 220.8394 65.1678 4077.0171 4138.9756
351.7113 -2.8174 221.4128 65.1845 4078.0044 4139.9678
350.9023 -2.8210 221.9820 65.2012 4078.9934 4140.9629
350.0882 -2.8245 222.5472 65.2178 4079.9846 4141.9600
349.2692 -2.8282 223.1086 65.2345 4080.9775 4142.9600
348.4455 -2.8320 223.6665 65.2512 4081.9724 4143.9629
347.6173 -2.8358 224.2213 65.2679 4082.9692 4144.9678
346.7849 -2.8398 224.7734 65.2845 4083.9680 4145.9756
345.9484 -2.8438 225.3231 65.3012 4084.9690 4146.9863
345.1083 -2.8479 225.8708 65.3179 4085.9719 4147.9980
344.2645 -2.8521 226.4168 65.3345 4086.9771 4149.0137
343.4173 -2.8564 226.9612 65.3512 4087.9841 4150.0303
342.5668 -2.8609 227.5042 65.3679 4088.9932 4151.0508
341.7130 -2.8656 228.0457 65.3845 4090.0042 4152.0723
340.8561 -2.8705 228.5859 65.4012 4091.0171 4153.0957
339.9962 -2.8755 229.1250 65.4179 4092.0320 4154.1211
339.1333 -2.8807 229.6633 65.4345 4093.0491 4155.1504
338.2678 -2.8860 230.2012 65.4512 4094.0681 4156.1797
337.4000 -2.8916 230.7392 65.4679 4095.0891 4157.2129
336.5302 -2.8973 231.2776 65.4845 4096.1123 4158.2471
335.6588 -2.9033 231.8172 65.5012 4097.1372 4159.2832
334.7861 -2.9096 232.3584 65.5179 4098.1641 4160.3223
333.9123 -2.9161 232.9017 65.5345 4099.1929 4161.3633
333.0378 -2.9228 233.4474 65.5512 4100.2236 4162.4062
332.1627 -2.9296 233.9959 65.5679 4101.2568 4163.4502
331.2872 -2.9363 234.5472 65.5845 4102.2915 4164.4971
330.4114 -2.9429 235.1016 65.6012 4103.3276 4165.5762
329.5353 -2.9498 235.6590 65.6179 4104.3662 4166.6621
328.6588 -2.9569 236.2194 65.6346 4105.4067 4167.7490
327.7822 -2.9646 236.7828 65.6512 4106.4487 4168.8369
326.9056 -2.9727 237.3493 65.6679 4107.4922 4169.9258
326.0291 -2.9809 237.9194 65.6846 4108.5381 4171.0176
325.1539 -2.9892 238.4924 65.7012 4109.5840 4172.1094
324.2816 -2.9975 239.0677 65.7179 4110.6289 4173.1982
323.4107 -3.0060 239.6463 65.7346 4111.6748 4174.2891
322.5389 -3.0150 240.2300 65.7513 4112.7241 4175.3828
321.6681 -3.0248 240.8178 65.7679 4113.7744 4176.4785
320.7984 -3.0353 241.4100 65.7846 4114.8267 4177.5742
319.9304 -3.0463 242.0065 65.8013 4115.8799 4178.6729
319.0641 -3.0578 242.6076 65.8179 4116.9346 4179.7725
318.1994 -3.0694 243.2132 65.8346 4117.9902 4180.8730
317.3362 -3.0814 243.8235 65.8513 4119.0474 4181.9766
316.4747 -3.0939 244.4382 65.8679 4120.1060 4183.0801
315.6146 -3.1071 245.0574 65.8846 4121.1660 4184.1875
314.7560 -3.1213 245.6810 65.9013 4122.2271 4185.2949
313.8989 -3.1365 246.3091 65.9179 4123.2900 4186.4062
313.0434 -3.1528 246.9418 65.9346 4124.3540 4187.5176
312.1894 -3.1696 247.5794 65.9513 4125.4199 4188.6328
311.3372 -3.1866 248.2219 65.9679 4126.4873 4189.7500
310.4868 -3.2034 248.8693 65.9846 4127.5562 4190.8711
309.6383 -3.2197 249.5217 66.0013 4128.6265 4191.9922
308.7915 -3.2356 250.1790 66.0179 4129.6987 4193.1377
307.9464 -3.2515 250.8410 66.0346 4130.7725 4194.2891
307.1030 -3.2677 251.5076 66.0513 4131.8477 4195.4395
306.2613 -3.2843 252.1789 66.0679 4132.9243 4196.5898
305.4214 -3.3012 252.8551 66.0846 4134.0024 4197.7383
304.5835 -3.3182 253.5364 66.1013 4135.0825 4198.8867
303.7477 -3.3349 254.2228 66.1179 4136.1646 4200.0352
302.9141 -3.3510 254.9143 66.1346 4137.2476 4201.1816
302.0830 -3.3666 255.6109 66.1513 4138.3320 4202.3291
301.2540 -3.3816 256.3129 66.1680 4139.4185 4203.4766
300.4276 -3.3963 257.0199 66.1846 4140.5063 4204.6240
299.6039 -3.4109 257.7319 66.2013 4141.5952 4205.7715
298.7827 -3.4256 258.4489 66.2180 4142.6855 4206.9180
297.9639 -3.4404 259.1711 66.2346 4143.7773 4208.0664
297.1476 -3.4553 259.8986 66.2513 4144.8706 4209.2148
296.3338 -3.4701 260.6313 66.2680 4145.9658 4210.3652
295.5227 -3.4847 261.3691 66.2846 4147.0625 4211.5156
294.7141 -3.4988 262.1122 66.3013 4148.1606 4212.6680
293.9081 -3.5125 262.8604 66.3180 4149.2607 4213.8203
293.1047 -3.5257 263.6138 66.3346 4150.3623 4214.9756
292.3038 -3.5386 264.3723 66.3513 4151.4653 4216.1318
291.5053 -3.5513 265.1357 66.3680 4152.5698 4217.2910
290.7093 -3.5643 265.9040 66.3846 4153.6763 4218.4512
289.9157 -3.5775 266.6771 66.4013 4154.7842 4219.6133
289.1246 -3.5910 267.4551 66.4180 4155.8940 4220.7773
288.3359 -3.6046 268.2380 66.4346 4157.0054 4221.9082
287.5497 -3.6180 269.0259 66.4513 4158.1187 4223.0312
286.7662 -3.6310 269.8187 66.4680 4159.2334 4224.1533
285.9854 -3.6437 270.6165 66.4847 4160.3496 4225.2764
285.2072 -3.6561 271.4191 66.5013 4161.4678 4226.3994
284.4317 -3.6682 272.2265 66.5180 4162.5869 4227.5234
283.6589 -3.6803 273.0386 66.5347 4163.7085 4228.6484
282.8887 -3.6924 273.8555 66.5513 4164.8311 4229.7734
282.1211 -3.7047 274.6770 66.5680 4165.9556 4230.8984
281.3560 -3.7170 275.5031 66.5847 4167.0815 4232.0254
280.5935 -3.7293 276.3336 66.6013 4168.2090 4233.1523
279.8335 -3.7418 277.1687 66.6180 4169.3384 4234.2803
279.0759 -3.7545 278.0082 66.6347 4170.4692 4235.4092
278.3209 -3.7673 278.8521 66.6513 4171.6016 4236.5391
277.5685 -3.7805 279.7005 66.6680 4172.7354 4237.6699
276.8188 -3.7941 280.5532 66.6847 4173.8711 4238.8008
276.0719 -3.8079 281.4105 66.7013 4175.0083 4239.9336
275.3278 -3.8217 282.2722 66.7180 4176.1470 4241.0664
274.5866 -3.8354 283.1385 66.7347 4177.2871 4242.2012
273.8483 -3.8486 284.0094 66.7514 4178.4287 4243.3379
273.1131 -3.8613 284.8848 66.7680 4179.5723 4244.4746
272.3808 -3.8733 285.7647 66.7847 4180.7168 4245.6133
271.6516 -3.8850 286.6492 66.8014 4181.8633 4246.7539
270.9255 -3.8965 287.5381 66.8180 4183.0112 4247.8818
270.2026 -3.9079 288.4313 66.8347 4184.1602 4249.0078
269.4828 -3.9193 289.3290 66.8514 4185.3110 4250.1367
268.7663 -3.9304 290.2312 66.8680 4186.4629 4251.2695
268.0530 -3.9410 291.1380 66.8847 4187.6167 4252.4033
267.3430 -3.9510 292.0493 66.9014 4188.7720 4253.5391
266.6364 -3.9601 292.9649 66.9180 4189.9287 4254.6787
265.9331 -3.9686 293.8849 66.9347 4191.0869 4255.8203
265.2331 -3.9766 294.8092 66.9514 4192.2461 4256.9629
264.5363 -3.9843 295.7378 66.9680 4193.4072 4258.1094
263.8428 -3.9921 296.6706 66.9847 4194.5698 4259.2568
263.1525 -3.9999 297.6077 67.0014 4195.7334 4260.4072
262.4655 -4.0078 298.5489 67.0180 4196.8989 4261.5596
261.7818 -4.0156 299.4942 67.0347 4198.0654 4262.7139
261.1015 -4.0232 300.4437 67.0514 4199.2334 4263.8711
260.4244 -4.0304 301.3974 67.0680 4200.4033 4265.0293
259.7507 -4.0373 302.3551 67.0847 4201.5742 4266.1895
259.0802 -4.0439 303.3169 67.1014 4202.7466 4267.3535
258.4130 -4.0501 304.2825 67.1180 4203.9204 4268.5176
257.7490 -4.0560 305.2522 67.1347 4205.0957 4269.6846
257.0882 -4.0617 306.2256 67.1514 4206.2720 4270.8535
256.4306 -4.0672 307.2030 67.1681 4207.4502 4272.0234
255.7762 -4.0724 308.1842 67.1847 4208.6294 4273.1963
255.1251 -4.0773 309.1692 67.2014 4209.8105 4274.3711
254.4773 -4.0820 310.1581 67.2181 4210.9927 4275.5469
253.8327 -4.0863 311.1507 67.2347 4212.1763 4276.7256
253.1913 -4.0903 312.1470 67.2514 4213.3608 4277.9053
252.5530 -4.0940 313.1469 67.2681 4214.5474 4279.0879
251.9177 -4.0973 314.1504 67.2847 4215.7349 4280.2705
251.2854 -4.1003 315.1573 67.3014 4216.9238 4281.4561
250.6559 -4.1030 316.1677 67.3181 4218.1143 4282.6426
250.0291 -4.1054 317.1814 67.3347 4219.3062 4283.8320
249.4050 -4.1074 318.1983 67.3514 4220.4995 4285.0215
248.7835 -4.1090 319.2185 67.3681 4221.6938 4286.2129
248.1646 -4.1103 320.2419 67.3847 4222.8901 4287.4062
247.5484 -4.1111 321.2684 67.4014 4224.0874 4288.6016
246.9347 -4.1114 322.2981 67.4181 4225.2856 4289.7988
246.3241 -4.1112 323.3297 67.4347 4226.4849 4290.9961
245.7173 -4.1106 324.3622 67.4514 4227.6821 4292.1914
245.1132 -4.1096 325.3971 67.4681 4228.8804 4293.3887
244.5102 -4.1087 326.4371 67.4848 4230.0830 4294.5889
243.9098 -4.1081 327.4796 67.5014 4231.2856 4295.7910
243.3118 -4.1079 328.5246 67.5181 4232.4897 4296.9941
242.7163 -4.1082 329.5724 67.5348 4233.6948 4298.1982
242.1232 -4.1090 330.6232 67.5514 4234.9019 4299.4043
241.5324 -4.1100 331.6768 67.5681 4236.1094 4300.6113
240.9441 -4.1112 332.7332 67.5848 4237.3188 4301.8203
240.3582 -4.1124 333.7925 67.6014 4238.5293 4303.0293
239.7746 -4.1136 334.8545 67.6181 4239.7412 4304.2412
239.1931 -4.1150 335.9192 67.6348 4240.9541 4305.4531
238.6137 -4.1167 336.9864 67.6514 4242.1685 4306.6680
238.0361 -4.1188 338.0562 67.6681 4243.3843 4307.8828
237.4603 -4.1215 339.1284 67.6848 4244.6016 4309.0977
236.8862 -4.1249 340.2030 67.7014 4245.8198 4310.3164
236.3139 -4.1288 341.2800 67.7181 4247.0396 4311.5352
235.7433 -4.1331 342.3595 67.7348 4248.2603 4312.7539
235.1747 -4.1372 343.4414 67.7514 4249.4824 4313.9766
234.6080 -4.1410 344.5259 67.7681 4250.7061 4315.1992
234.0431 -4.1442 345.6127 67.7848 4251.9312 4316.4229
233.4801 -4.1466 346.7020 67.8014 4253.1572 4317.6484
232.9187 -4.1483 347.7936 67.8181 4254.3848 4318.8750
232.3587 -4.1496 348.8875 67.8348 4255.6138 4320.1025
231.8000 -4.1507 349.9833 67.8514 4256.8438 4321.3320
231.2424 -4.1520 351.0812 67.8681 4258.0752 4322.5625
230.6858 -4.1537 352.1811 67.8848 4259.3076 4323.7939
230.1299 -4.1561 353.2828 67.9015 4260.5420 4325.0273
229.5748 -4.1592 354.3863 67.9181 4261.7769 4326.2607
229.0203 -4.1630 355.4916 67.9348 4263.0137 4327.4961
228.4665 -4.1674 356.5987 67.9515 4264.2515 4328.7334
227.9132 -4.1721 357.7075 67.9681 4265.4907 4329.9707
227.3604 -4.1770 358.8180 67.9848 4266.7314 4331.2109
226.8081 -4.1818 359.9303 68.0015 4267.9731 4332.4512
226.2563 -4.1864 361.0442 68.0181 4269.2163 4333.6934
225.7049 -4.1907 362.1598 68.0348 4270.4604 4334.9365
225.1540 -4.1948 363.2770 68.0515 4271.7061 4336.1816
224.6034 -4.1987 364.3959 68.0681 4272.9531 4337.4268
224.0533 -4.2024 365.5164 68.0848 4274.2017 4338.6738
223.5036 -4.2061 366.6385 68.1015 4275.4512 4339.9219
222.9544 -4.2096 367.7622 68.1181 4276.7017 4341.1719
222.4055 -4.2130 368.8876 68.1348 4277.9541 4342.4219
221.8571 -4.2163 370.0146 68.1515 4279.2075 4343.6748
221.3092 -4.2194 371.1432 68.1681 4280.4619 4344.9277
220.7615 -4.2224 372.2733 68.1848 4281.7178 4346.1826
220.2142 -4.2252 373.4051 68.2015 4282.9746 4347.4375
219.6672 -4.2280 374.5383 68.2181 4284.2334 4348.6953
219.1205 -4.2308 375.6731 68.2348 4285.4927 4349.9531
218.5740 -4.2336 376.8094 68.2515 4286.7539 4351.2129
218.0278 -4.2366 377.9472 68.2682 4288.0156 4352.4736
217.4818 -4.2398 379.0865 68.2848 4289.2793 4353.7354
216.9361 -4.2432 380.2273 68.3015 4290.5439 4354.9980
216.3905 -4.2471 381.3695 68.3182 4291.8096 4356.2627
215.8451 -4.2515 382.5132 68.3348 4293.0767 4357.5283
215.2997 -4.2567 383.6582 68.3515 4294.3452 4358.7949
214.7544 -4.2628 384.8046 68.3682 4295.6147 4360.0625
214.2090 -4.2696 385.9523 68.3848 4296.8853 4361.3320
213.6634 -4.2770 387.1013 68.4015 4298.1572 4362.6025
213.1177 -4.2848 388.2517 68.4182 4299.4307 4363.8740
212.5718 -4.2924 389.4032 68.4348 4300.7051 4365.1465
212.0257 -4.2996 390.5561 68.4515 4301.9805 4366.4209
211.4794 -4.3060 391.7102 68.4682 4303.2573 4367.6963
210.9330 -4.3116 392.8655 68.4848 4304.5356 4368.9727
210.3864 -4.3163 394.0220 68.5015 4305.8149 4370.2500
209.8394 -4.3201 395.1798 68.5182 4307.0952 4371.5293
209.2922 -4.3232 396.3387 68.5348 4308.3770 4372.8086
208.7445 -4.3258 397.4988 68.5515 4309.6597 4374.0908
208.1965 -4.3280 398.6599 68.5682 4310.9438 4375.3730
207.6479 -4.3301 399.8222 68.5848 4312.2290 4376.6562
207.0990 -4.3324 400.9854 68.6015 4313.5151 4377.9414
206.5495 -4.3349 402.1497 68.6182 4314.8027 4379.2275
205.9996 -4.3380 403.3151 68.6348 4316.0913 4380.5137
205.4492 -4.3418 404.4815 68.6515 4317.3809 4381.8027
204.8984 -4.3462 405.6489 68.6682 4318.6719 4383.0918
204.3470 -4.3513 406.8174 68.6849 4319.9639 4384.3828
203.7952 -4.3569 407.9869 68.7015 4321.2568 4385.6738
203.2430 -4.3631 409.1574 68.7182 4322.5513 4386.9668
202.6903 -4.3698 410.3290 68.7349 4323.8467 4388.2617
202.1371 -4.3768 411.5016 68.7515 4325.1431 4389.5566
201.5833 -4.3842 412.6752 68.7682 4326.4409 4390.8525
201.0292 -4.3919 413.8498 68.7849 4327.7397 4392.1494
200.4746 -4.3997 415.0254 68.8015 4329.0396 4393.4482
199.9195 -4.4074 416.2021 68.8182 4330.3408 4394.7480
199.3639 -4.4149 417.3797 68.8349 4331.6426 4396.0488
198.8079 -4.4221 418.5583 68.8515 4332.9458 4397.3496
198.2513 -4.4289 419.7380 68.8682 4334.2505 4398.6533
197.6943 -4.4353 420.9186 68.8849 4335.5557 4399.9580
197.1367 -4.4415 422.1002 68.9015 4336.8623 4401.2637
196.5788 -4.4477 423.2828 68.9182 4338.1699 4402.5703
196.0204 -4.4541 424.4664 68.9349 4339.4785 4403.8770
195.4616 -4.4609 425.6509 68.9515 4340.7886 4405.1855
194.9023 -4.4681 426.8364 68.9682 4342.0991 4406.4961
194.3425 -4.4759 428.0229 68.9849 4343.4111 4407.8066
193.7823 -4.4841 429.2103 69.0015 4344.7241 4409.1191
193.2215 -4.4927 430.3987 69.0182 4346.0381 4410.4316
192.6603 -4.5014 431.5880 69.0349 4347.3535 4411.7461
192.0987 -4.5102 432.7783 69.0515 4348.6694 4413.0605
191.5366 -4.5188 433.9695 69.0682 4349.9868 4414.3770
190.9740 -4.5270 435.1617 69.0849 4351.3047 4415.6943
190.4110 -4.5346 436.3548 69.1015 4352.6240 4417.0117
189.8476 -4.5414 437.5489 69.1182 4353.9448 4418.3320
189.2837 -4.5474 438.7439 69.1349 4355.2661 4419.6523
188.7193 -4.5527 439.9398 69.1516 4356.5884 4420.9736
188.1545 -4.5578 441.1367 69.1682 4357.9116 4422.2969
187.5892 -4.5632 442.3344 69.1849 4359.2363 4423.6191
187.0235 -4.5691 443.5330 69.2016 4360.5615 4424.9443
186.4574 -4.5759 444.7325 69.2182 4361.8882 4426.2695
185.8908 -4.5835 445.9330 69.2349 4363.2158 4427.5957
185.3239 -4.5916 447.1344 69.2516 4364.5439 4428.9238
184.7566 -4.5998 448.3368 69.2682 4365.8735 4430.2520
184.1888 -4.6078 449.5400 69.2849 4367.2041 4431.5820
183.6206 -4.6153 450.7441 69.3016 4368.5356 4432.9121
183.0520 -4.6223 451.9492 69.3182 4369.8682 4434.2441
182.4829 -4.6288 453.1551 69.3349 4371.2017 4435.5762
181.9134 -4.6350 454.3619 69.3516 4372.5361 4436.9102
181.3435 -4.6414 455.5696 69.3682 4373.8716 4438.2451
180.7732 -4.6481 456.7782 69.3849 4375.2075 4439.5801
180.2025 -4.6553 457.9876 69.4016 4376.5449 4440.9170
179.6313 -4.6630 459.1979 69.4182 4377.8833 4442.2539
179.0597 -4.6708 460.4091 69.4349 4379.2227 4443.5938
178.4877 -4.6783 461.6212 69.4516 4380.5630 4444.9326
177.9153 -4.6851 462.8341 69.4682 4381.9043 4446.2734
177.3424 -4.6913 464.0479 69.4849 4383.2466 4447.6152
176.7691 -4.6969 465.2625 69.5016 4384.5894 4448.9570
176.1955 -4.7021 466.4780 69.5182 4385.9336 4450.3008
175.6215 -4.7074 467.6943 69.5349 4387.2788 4451.6445
175.0471 -4.7132 468.9115 69.5516 4388.6245 4452.9902
174.4723 -4.7196 470.1295 69.5682 4389.9712 4454.3359
173.8971 -4.7264 471.3484 69.5849 4391.3193 4455.6836
173.3214 -4.7335 472.5680 69.6016 4392.6680 4457.0312
172.7454 -4.7407 473.7886 69.6182 4394.0176 4458.3799
172.1690 -4.7478 475.0099 69.6349 4395.3682 4459.7305
171.5922 -4.7550 476.2321 69.6516 4396.7197 4461.0801
171.0151 -4.7622 477.4551 69.6683 4398.0718 4462.4326
170.4380 -4.7696 478.6779 69.6849 4399.4238 4463.7842
169.8615 -4.7771 479.8995 69.7016 4400.7749 4465.1348
169.2848 -4.7845 481.1213 69.7182 4402.1260 4466.4844
168.7068 -4.7917 482.3459 69.7349 4403.4800 4467.8389
168.1288 -4.7985 483.5706 69.7516 4404.8345 4469.1924
167.5504 -4.8049 484.7960 69.7683 4406.1895 4470.5469
166.9718 -4.8114 486.0221 69.7849 4407.5454 4471.9023
166.3928 -4.8183 487.2489 69.8016 4408.9019 4473.2578
165.8134 -4.8261 488.4765 69.8183 4410.2593 4474.6152
165.2336 -4.8351 489.7049 69.8349 4411.6177 4475.9727
164.6534 -4.8454 490.9340 69.8516 4412.9771 4477.3320
164.0729 -4.8568 492.1638 69.8683 4414.3369 4478.6914
163.4921 -4.8691 493.3944 69.8849 4415.6978 4480.0527
162.9110 -4.8818 494.6258 69.9016 4417.0596 4481.4131
162.3295 -4.8945 495.8580 69.9183 4418.4219 4482.7754
161.7477 -4.9069 497.0910 69.9349 4419.7852 4484.1387
161.1655 -4.9186 498.3247 69.9516 4421.1494 4485.5020
160.5830 -4.9298 499.5592 69.9683 4422.5146 4486.8672
160.0002 -4.9406 500.7944 69.9849 4423.8804 4488.2324
159.4169 -4.9512 502.0304 70.0016 4425.2471 4489.5986
158.8333 -4.9617 503.2671 70.0183 4426.6147 4490.9658
158.2493 -4.9724 504.5045 70.0349 4427.9829 4492.3340
157.6649 -4.9830 505.7426 70.0516 4429.3525 4493.7031
157.0802 -4.9935 506.9815 70.0683 4430.7222 4495.0723
156.4951 -5.0041 508.2212 70.0849 4432.0933 4496.4434
155.9097 -5.0150 509.4615 70.1016 4433.4648 4497.8145
155.3240 -5.0267 510.7026 70.1183 4434.8369 4499.1865
154.7379 -5.0393 511.9444 70.1349 4436.2104 4500.5586
154.1515 -5.0527 513.1869 70.1516 4437.5845 4501.9336
153.5647 -5.0664 514.4302 70.1683 4438.9590 4503.3076
152.9775 -5.0795 515.6743 70.1849 4440.3350 4504.6836
152.3901 -5.0910 516.9189 70.2016 4441.7114 4506.0586
151.8023 -5.0999 518.1645 70.2183 4443.0884 4507.4365
151.2142 -5.1057 519.4108 70.2349 4444.4668 4508.8145
150.6258 -5.1081 520.6577 70.2516 4445.8452 4510.1934
150.0370 -5.1076 521.9053 70.2683 4447.2251 4511.5723
149.4479 -5.1053 523.1537 70.2849 4448.6055 4512.9531
148.8584 -5.1027 524.4027 70.3016 4449.9868 4514.3340
148.2686 -5.1015 525.6523 70.3183 4451.3687 4515.7148
147.6784 -5.1029 526.9025 70.3349 4452.7510 4517.0977
147.0880 -5.1078 528.1534 70.3516 4454.1343 4518.4805
146.4971 -5.1159 529.4052 70.3683 4455.5186 4519.8652
145.9059 -5.1266 530.6575 70.3849 4456.9033 4521.2500
145.3144 -5.1393 531.9106 70.4016 4458.2891 4522.6357
144.7226 -5.1528 533.1645 70.4183 4459.6758 4524.0215
144.1305 -5.1665 534.4191 70.4350 4461.0630 4525.4092
143.5381 -5.1797 535.6744 70.4516 4462.4512 4526.7969
142.9454 -5.1921 536.9304 70.4683 4463.8398 4528.1855
142.3524 -5.2038 538.1870 70.4850 4465.2295 4529.5752
141.7590 -5.2153 539.4444 70.5016 4466.6201 4530.9658
141.1653 -5.2270 540.7025 70.5183 4468.0112 4532.3574
140.5713 -5.2393 541.9612 70.5350 4469.4028 4533.7480
139.9769 -5.2525 543.2206 70.5516 4470.7959 4535.1406
139.3823 -5.2663 544.4808 70.5683 4472.1895 4536.5352
138.7874 -5.2806 545.7416 70.5850 4473.5835 4537.9287
138.1921 -5.2949 547.0032 70.6016 4474.9785 4539.3242
137.5965 -5.3089 548.2654 70.6183 4476.3740 4540.7197
137.0007 -5.3224 549.5284 70.6350 4477.7705 4542.1162
136.4045 -5.3353 550.7920 70.6516 4479.1680 4543.5137
135.8080 -5.3474 552.0563 70.6683 4480.5659 4544.9121
135.2112 -5.3587 553.3212 70.6850 4481.9648 4546.3105
134.6140 -5.3692 554.5869 70.7016 4483.3643 4547.7100
134.0165 -5.3786 555.8532 70.7183 4484.7646 4549.1104
133.4188 -5.3871 557.1202 70.7350 4486.1655 4550.5117
132.8207 -5.3946 558.3879 70.7516 4487.5669 4551.9131
132.2224 -5.4016 559.6562 70.7683 4488.9697 4553.3164
131.6236 -5.4084 560.9253 70.7850 4490.3726 4554.7188
131.0246 -5.4155 562.1949 70.8016 4491.7769 4556.1230
130.4252 -5.4235 563.4652 70.8183 4493.1812 4557.5273
129.8255 -5.4327 564.7361 70.8350 4494.5864 4558.9336
129.2255 -5.4432 566.0077 70.8516 4495.9927 4560.3398
128.6252 -5.4546 567.2798 70.8683 4497.3994 4561.7461
128.0246 -5.4665 568.5527 70.8850 4498.8066 4563.1543
127.4237 -5.4780 569.8262 70.9016 4500.2148 4564.5625
126.8225 -5.4886 571.1004 70.9183 4501.6240 4565.9727
126.2209 -5.4981 572.3752 70.9350 4503.0337 4567.3818
125.6191 -5.5063 573.6507 70.9516 4504.4438 4568.7930
125.0169 -5.5138 574.9268 70.9683 4505.8550 4570.2041
124.4144 -5.5209 576.2036 70.9850 4507.2666 4571.6162
123.8116 -5.5282 577.4809 71.0016 4508.6792 4573.0293
123.2084 -5.5359 578.7589 71.0183 4510.0923 4574.4424
122.6049 -5.5440 580.0375 71.0350 4511.5063 4575.8564
122.0011 -5.5525 581.3167 71.0517 4512.9209 4577.2715
121.3969 -5.5610 582.5966 71.0683 4514.3364 4578.6875
120.7924 -5.5694 583.8770 71.0850 4515.7524 4580.1035
120.1876 -5.5777 585.1581 71.1016 4517.1689 4581.5205
119.5824 -5.5859 586.4397 71.1183 4518.5864 4582.9385
118.9769 -5.5943 587.7219 71.1350 4520.0044 4584.3564
118.3710 -5.6030 589.0048 71.1516 4521.4233 4585.7754
117.7648 -5.6121 590.2882 71.1683 4522.8428 4587.1953
117.1583 -5.6215 591.5723 71.1850 4524.2627 4588.6152
116.5514 -5.6309 592.8569 71.2017 4525.6836 4590.0371
115.9442 -5.6398 594.1422 71.2183 4527.1050 4591.4590
115.3366 -5.6481 595.4280 71.2350 4528.5273 4592.8809
114.7287 -5.6558 596.7144 71.2517 4529.9502 4594.3047
114.1205 -5.6632 598.0014 71.2683 4531.3735 4595.7266
113.5120 -5.6708 599.2890 71.2850 4532.7979 4597.1523
112.9031 -5.6790 600.5772 71.3017 4534.2227 4598.5762
112.2939 -5.6880 601.8660 71.3183 4535.6479 4600.0020
111.6844 -5.6974 603.1553 71.3350 4537.0742 4601.4297
111.0745 -5.7066 604.4453 71.3517 4538.5010 4602.8555
110.4642 -5.7152 605.7358 71.3683 4539.9287 4604.2832
109.8538 -5.7229 607.0269 71.3850 4541.3569 4605.7109
109.2429 -5.7299 608.3185 71.4017 4542.7856 4607.1406
108.6318 -5.7366 609.6108 71.4183 4544.2153 4608.5703
108.0204 -5.7435 610.9037 71.4350 4545.6455 4610.0000
107.4087 -5.7510 612.1972 71.4517 4547.0762 4611.4316
106.7966 -5.7591 613.4912 71.4683 4548.5078 4612.8633
106.1842 -5.7676 614.7858 71.4850 4549.9399 4614.2969
105.5714 -5.7761 616.0809 71.5017 4551.3726 4615.7285
104.9584 -5.7840 617.3765 71.5183 4552.8062 4617.1621
104.3451 -5.7912 618.6727 71.5350 4554.2402 4618.5957
103.7315 -5.7974 619.9696 71.5517 4555.6748 4620.0312
103.1176 -5.8029 621.2670 71.5683 4557.1099 4621.4668
102.5034 -5.8081 622.5649 71.5850 4558.5459 4622.9023
101.8890 -5.8135 623.8634 71.6017 4559.9824 4624.3398
101.2743 -5.8195 625.1625 71.6183 4561.4199 4625.7754
100.6594 -5.8262 626.4621 71.6350 4562.8574 4627.2148
100.0441 -5.8336 627.7622 71.6517 4564.2959 4628.6523
99.4281 -5.8417 629.0626 71.6683 4565.7349 4630.0918
98.8108 -5.8502 630.3631 71.6850 4567.1743 4631.5312
98.1915 -5.8586 631.6633 71.7017 4568.6147 4632.9707
97.5699 -5.8667 632.9629 71.7183 4570.0552 4634.4121
96.9463 -5.8742 634.2621 71.7350 4571.4966 4635.8516
96.3214 -5.8810 635.5614 71.7517 4572.9380 4637.2949
95.6961 -5.8873 636.8611 71.7683 4574.3804 4638.7363
95.0716 -5.8933 638.1618 71.7850 4575.8232 4640.1797
94.4485 -5.8995 639.4636 71.8017 4577.2666 4641.6230
93.8273 -5.9062 640.7668 71.8183 4578.7104 4643.0664
93.2078 -5.9134 642.0715 71.8350 4580.1548 4644.5117
92.5898 -5.9211 643.3774 71.8517 4581.5996 4645.9551
91.9725 -5.9292 644.6843 71.8683 4583.0449 4647.4004
91.3557 -5.9372 645.9921 71.8850 4584.4907 4648.8477
90.7391 -5.9447 647.3006 71.9017 4585.9370 4650.2930
90.1227 -5.9515 648.6097 71.9184 4587.3843 4651.7402
89.5064 -5.9575 649.9196 71.9350 4588.8320 4653.1875
88.8900 -5.9628 651.2300 71.9517 4590.2798 4654.6367
88.2735 -5.9677 652.5411 71.9683 4591.7290 4656.0859
87.6567 -5.9728 653.8527 71.9850 4593.1782 4657.5352
87.0395 -5.9785 655.1646 72.0017 4594.6279 4658.9844
86.4216 -5.9851 656.4769 72.0183 4596.0786 4660.4336
85.8030 -5.9927 657.7896 72.0350 4597.5298 4661.8867
85.1838 -6.0014 659.1025 72.0517 4598.9814 4663.3359
84.5639 -6.0106 660.4157 72.0684 4600.4336 4664.7891
83.9434 -6.0201 661.7294 72.0850 4601.8862 4666.2422
83.3225 -6.0293 663.0434 72.1017 4603.3398 4667.6953
82.7011 -6.0380 664.3579 72.1184 4604.7939 4669.1484
82.0796 -6.0460 665.6729 72.1350 4606.2480 4670.6035
81.4578 -6.0536 666.9884 72.1517 4607.7036 4672.0586
80.8359 -6.0610 668.3045 72.1684 4609.1592 4673.5137
80.2138 -6.0687 669.6212 72.1850 4610.6152 4674.9707
79.5916 -6.0772 670.9384 72.2017 4612.0723 4676.4258
78.9691 -6.0870 672.2560 72.2184 4613.5293 4677.8828
78.3464 -6.0981 673.5742 72.2350 4614.9873 4679.3418
77.7235 -6.1105 674.8928 72.2517 4616.4458 4680.8008
77.1002 -6.1237 676.2120 72.2684 4617.9048 4682.2578
76.4766 -6.1370 677.5316 72.2850 4619.3643 4683.7188
75.8527 -6.1498 678.8517 72.3017 4620.8247 4685.1777
75.2285 -6.1620 680.1722 72.3184 4622.2852 4686.6387
74.6038 -6.1737 681.4932 72.3350 4623.7466 4688.0996
73.9788 -6.1854 682.8146 72.3517 4625.2080 4689.5605
73.3534 -6.1975 684.1364 72.3684 4626.6704 4691.0234
72.7275 -6.2109 685.4585 72.3850 4628.1333 4692.4863
72.1012 -6.2256 686.7810 72.4017 4629.5967 4693.9492
71.4745 -6.2419 688.1039 72.4184 4631.0605 4695.4121
70.8473 -6.2593 689.4272 72.4350 4632.5254 4696.8770
70.2196 -6.2773 690.7509 72.4517 4633.9902 4698.3418
69.5915 -6.2954 692.0750 72.4684 4635.4561 4699.8066
68.9629 -6.3131 693.3994 72.4850 4636.9219 4701.2734
68.3338 -6.3301 694.7242 72.5017 4638.3887 4702.7383
67.7042 -6.3463 696.0494 72.5184 4639.8560 4704.2051
67.0742 -6.3617 697.3749 72.5350 4641.3237 4705.6719
66.4435 -6.3765 698.7007 72.5517 4642.7920 4707.1406
65.8124 -6.3910 700.0269 72.5684 4644.2607 4708.6094
65.1807 -6.4053 701.3535 72.5850 4645.7300 4710.0781
64.5485 -6.4198 702.6803 72.6017 4647.1997 4711.5469
63.9157 -6.4348 704.0074 72.6184 4648.6704 4713.0176
63.2824 -6.4508 705.3350 72.6350 4650.1411 4714.4883
62.6485 -6.4679 706.6627 72.6517 4651.6128 4715.9590
62.0140 -6.4861 707.9908 72.6684 4653.0845 4717.4316
61.3790 -6.5051 709.3191 72.6850 4654.5571 4718.9023
60.7434 -6.5242 710.6477 72.7017 4656.0298 4720.3750
60.1073 -6.5425 711.9767 72.7184 4657.5034 4721.8496
59.4707 -6.5594 713.3060 72.7350 4658.9775 4723.3223
58.8337 -6.5745 714.6357 72.7517 4660.4517 4724.7969
58.1963 -6.5880 715.9657 72.7684 4661.9268 4726.2715
57.5585 -6.6010 717.2961 72.7850 4663.4023 4727.7461
56.9204 -6.6143 718.6270 72.8017 4664.8784 4729.2227
56.2818 -6.6288 719.9581 72.8184 4666.3545 4730.6992
55.6429 -6.6449 721.2897 72.8350 4667.8315 4732.1758
55.0036 -6.6621 722.6216 72.8517 4669.3091 4733.6523
54.3640 -6.6801 723.9539 72.8684 4670.7871 4735.1289
53.7240 -6.6978 725.2865 72.8850 4672.2656 4736.6074
53.0836 -6.7145 726.6195 72.9017 4673.7446 4738.0859
52.4428 -6.7297 727.9529 72.9184 4675.2241 4739.5645
51.8015 -6.7435 729.2866 72.9350 4676.7041 4741.0449
51.1598 -6.7564 730.6207 72.9517 4678.1846 4742.5254
50.5177 -6.7691 731.9551 72.9684 4679.6655 4744.0059
49.8750 -6.7825 733.2898 72.9850 4681.1470 4745.4863
49.2317 -6.7973 734.6246 73.0017 4682.6284 4746.9688
48.5879 -6.8138 735.9598 73.0184 4684.1108 4748.4492
47.9436 -6.8318 737.2952 73.0350 4685.5938 4749.9316
47.2987 -6.8510 738.6308 73.0517 4687.0771 4751.4141
46.6532 -6.8708 739.9667 73.0684 4688.5610 4752.8984
46.0071 -6.8906 741.3029 73.0851 4690.0454 4754.3828
45.3605 -6.9100 742.6393 73.1017 4691.5298 4755.8672
44.7132 -6.9288 743.9760 73.1184 4693.0151 4757.3516
44.0653 -6.9473 745.3128 73.1350 4694.5010 4758.8359
43.4167 -6.9660 746.6498 73.1517 4695.9868 4760.3223
42.7674 -6.9848 747.9871 73.1684 4697.4736 4761.8086
42.1175 -7.0037 749.3245 73.1851 4698.9609 4763.2949
41.4668 -7.0220 750.6621 73.2017 4700.4482 4764.7812
40.8154 -7.0391 751.9999 73.2184 4701.9365 4766.2695
40.1632 -7.0548 753.3378 73.2351 4703.4248 4767.7578
39.5103 -7.0690 754.6760 73.2517 4704.9141 4769.2461
38.8566 -7.0825 756.0141 73.2684 4706.4033 4770.7344
38.2020 -7.0961 757.3522 73.2850 4707.8931 4772.2246
37.5464 -7.1105 758.6906 73.3017 4709.3833 4773.7148
36.8899 -7.1259 760.0291 73.3184 4710.8740 4775.2051
36.2325 -7.1422 761.3676 73.3351 4712.3657 4776.6934
35.5742 -7.1587 762.7061 73.3517 4713.8574 4778.1797
34.9150 -7.1745 764.0446 73.3684 4715.3496 4779.6680
34.2548 -7.1889 765.3831 73.3851 4716.8418 4781.1562
33.5937 -7.2013 766.7216 73.4017 4718.3350 4782.6445
32.9316 -7.2119 768.0601 73.4184 4719.8281 4784.1328
32.2685 -7.2209 769.3986 73.4351 4721.3218 4785.6211
31.6041 -7.2292 770.7370 73.4517 4722.8164 4787.1113
30.9387 -7.2372 772.0752 73.4684 4724.3105 4788.6016
30.2720 -7.2453 773.4133 73.4851 4725.8057 4790.0918
29.6040 -7.2537 774.7513 73.5017 4727.3013 4791.5820
28.9349 -7.2620 776.0891 73.5184 4728.7974 4793.0723
28.2645 -7.2700 777.4269 73.5351 4730.2935 4794.5645
27.5929 -7.2777 778.7643 73.5517 4731.7900 4796.0547
26.9200 -7.2850 780.1017 73.5684 4733.2871 4797.5469
26.2459 -7.2919 781.4387 73.5851 4734.7847 4799.0391
25.5704 -7.2986 782.7758 73.6017 4736.2827 4800.5332
24.8938 -7.3048 784.1124 73.6184 4737.7808 4802.0254
24.2158 -7.3105 785.4491 73.6351 4739.2798 4803.5195
23.5367 -7.3155 786.7854 73.6517 4740.7783 4805.0137
22.8563 -7.3198 788.1216 73.6684 4742.2778 4806.5078
22.1746 -7.3235 789.4576 73.6851 4743.7778 4808.0020
21.4917 -7.3266 790.7934 73.7017 4745.2783 4809.4980
20.8076 -7.3296 792.1290 73.7184 4746.7788 4810.9922
20.1223 -7.3326 793.4645 73.7351 4748.2798 4812.4883
19.4359 -7.3359 794.7997 73.7517 4749.7812 4813.9844
18.7484 -7.3397 796.1349 73.7684 4751.2827 4815.4824
18.0598 -7.3436 797.4700 73.7851 4752.7852 4816.9785
17.3702 -7.3473 798.8048 73.8017 4754.2876 4818.4766
16.6796 -7.3502 800.1396 73.8184 4755.7905 4819.9746
15.9879 -7.3520 801.4745 73.8351 4757.2939 4821.4746
15.2952 -7.3521 802.8090 73.8517 4758.7974 4822.9746
14.6014 -7.3505 804.1434 73.8684 4760.3018 4824.4766
13.9064 -7.3472 805.4776 73.8851 4761.8057 4825.9766
13.2101 -7.3427 806.8116 73.9017 4763.3105 4827.4785
12.5124 -7.3376 808.1452 73.9184 4764.8159 4828.9805
11.8133 -7.3326 809.4785 73.9351 4766.3213 4830.4805
11.1127 -7.3280 810.8113 73.9517 4767.8271 4831.9844
10.4105 -7.3238 812.1438 73.9684 4769.3330 4833.4863
9.7067 -7.3198 813.4758 73.9851 4770.8398 4834.9883
9.0014 -7.3153 814.8074 74.0017 4772.3467 4836.4922
8.2945 -7.3101 816.1384 74.0184 4773.8535 4837.9961
7.5859 -7.3039 817.4691 74.0351 4775.3613 4839.5000
6.8756 -7.2970 818.7991 74.0517 4776.8691 4841.0039
6.1636 -7.2895 820.1287 74.0684 4778.3774 4842.5078
5.4498 -7.2820 821.4576 74.0851 4779.8857 4844.0117
4.7340 -7.2747 822.7858 74.1017 4781.3945 4845.5176
4.0160 -7.2678 824.1132 74.1184 4782.9038 4847.0234
3.2960 -7.2613 825.4398 74.1351 4784.4131 4848.5293
2.5739 -7.2546 826.7657 74.1517 4785.9229 4850.0352
1.8497 -7.2474 828.0909 74.1684 4787.4331 4851.5410
1.1237 -7.2393 829.4153 74.1851 4788.9434 4853.0469
0.3958 -7.2301 830.7390 74.2017 4790.4541 4854.5547
-0.3338 -7.2198 832.0621 74.2184 4791.9653 4856.0625
-1.0652 -7.2087 833.3847 74.2351 4793.4766 4857.5703
-1.7982 -7.1972 834.7067 74.2517 4794.9883 4859.0781
-2.5328 -7.1859 836.0282 74.2684 4796.5000 4860.5859
-3.2690 -7.1749 837.3491 74.2851 4798.0122 4862.0938
-4.0066 -7.1645 838.6696 74.3017 4799.5249 4863.6035
-4.7456 -7.1544 839.9897 74.3184 4801.0381 4865.1113
-5.4858 -7.1441 841.3095 74.3351 4802.5513 4866.6211
-6.2270 -7.1328 842.6290 74.3517 4804.0645 4868.1289
-6.9693 -7.1199 843.9482 74.3684 4805.5781 4869.6367
-7.7125 -7.1051 845.2673 74.3851 4807.0923 4871.1445
-8.4566 -7.0885 846.5861 74.4017 4808.6069 4872.6543
-9.2017 -7.0704 847.9048 74.4184 4810.1216 4874.1621
-9.9479 -7.0513 849.2231 74.4351 4811.6367 4875.6719
-10.6954 -7.0318 850.5411 74.4518 4813.1519 4877.1816
-11.4442 -7.0124 851.8585 74.4684 4814.6675 4878.6914
-12.1946 -6.9932 853.1755 74.4851 4816.1831 4880.1992
-12.9465 -6.9741 854.4919 74.5017 4817.6992 4881.7109
-13.7000 -6.9549 855.8077 74.5184 4819.2158 4883.2207
-14.4550 -6.9353 857.1230 74.5351 4820.7324 4884.7305
-15.2116 -6.9152 858.4376 74.5518 4822.2495 4886.2422
-15.9695 -6.8944 859.7516 74.5684 4823.7666 4887.7520
-16.7290 -6.8730 861.0652 74.5851 4825.2842 4889.2617
-17.4898 -6.8508 862.3783 74.6018 4826.8018 4890.7734
-18.2520 -6.8279 863.6909 74.6184 4828.3198 4892.2852
-19.0155 -6.8041 865.0029 74.6351 4829.8379 4893.7969
-19.7804 -6.7795 866.3145 74.6517 4831.3564 4895.3086
-20.5467 -6.7543 867.6255 74.6684 4832.8750 4896.8203
-21.3142 -6.7284 868.9360 74.6851 4834.3940 4898.3320
-22.0830 -6.7019 870.2462 74.7018 4835.9136 4899.8438
-22.8530 -6.6747 871.5558 74.7184 4837.4331 4901.3574
-23.6241 -6.6468 872.8651 74.7351 4838.9526 4902.8711
-24.3965 -6.6180 874.1739 74.7518 4840.4727 4904.3828
-25.1700 -6.5882 875.4822 74.7684 4841.9927 4905.8965
-25.9448 -6.5572 876.7902 74.7851 4843.5132 4907.4102
-26.7207 -6.5251 878.0975 74.8018 4845.0337 4908.9238
-27.4979 -6.4921 879.4044 74.8184 4846.5547 4910.4375
-28.2765 -6.4588 880.7108 74.8351 4848.0762 4911.9531
-29.0564 -6.4255 882.0166 74.8518 4849.5972 4913.4688
-29.8367 -6.3929 883.3201 74.8684 4851.1167 4914.9805
-30.6148 -6.3616 884.6168 74.8851 4852.6294 4916.4883
-31.3901 -6.3317 885.9059 74.9017 4854.1338 4917.9844
-32.1632 -6.3032 887.1884 74.9184 4855.6318 4919.4766
-32.9333 -6.2757 888.4628 74.9351 4857.1211 4920.9609
-33.6997 -6.2490 889.7285 74.9517 4858.6011 4922.4336
-34.4626 -6.2228 890.9858 74.9684 4860.0718 4923.8984
-35.2224 -6.1970 892.2355 74.9850 4861.5347 4925.3555
-35.9784 -6.1714 893.4766 75.0017 4862.9878 4926.8008
-36.7299 -6.1457 894.7076 75.0183 4864.4307 4928.2383
-37.4769 -6.1199 895.9288 75.0350 4865.8623 4929.6641
-38.2199 -6.0936 897.1407 75.0517 4867.2842 4931.0801
-38.9603 -6.0666 898.3453 75.0683 4868.6982 4932.4883
-39.6985 -6.0388 899.5434 75.0850 4870.1060 4933.8887
-40.4339 -6.0103 900.7339 75.1016 4871.5054 4935.2832
-41.1663 -5.9814 901.9161 75.1183 4872.8965 4936.6680
-41.8954 -5.9523 903.0899 75.1350 4874.2783 4938.0430
-42.6221 -5.9232 904.2567 75.1516 4875.6533 4939.4141
-43.3475 -5.8941 905.4180 75.1683 4877.0229 4940.7773
-44.0717 -5.8650 906.5739 75.1849 4878.3872 4942.1367
-44.7938 -5.8359 907.7225 75.2016 4879.7441 4943.4863
-45.5129 -5.8067 908.8621 75.2183 4881.0923 4944.8281
-46.2301 -5.7775 909.9933 75.2349 4882.4321 4946.1641
-46.9465 -5.7484 911.1177 75.2516 4883.7656 4947.4922
-47.6622 -5.7194 912.2344 75.2682 4885.0923 4948.8125
-48.3764 -5.6910 913.3419 75.2849 4886.4102 4950.1250
-49.0887 -5.6635 914.4392 75.3016 4887.7188 4951.4258
-49.7989 -5.6368 915.5259 75.3182 4889.0171 4952.7188
-50.5076 -5.6110 916.6033 75.3349 4890.3071 4954.0039
-51.2153 -5.5857 917.6720 75.3515 4891.5889 4955.2793
-51.9219 -5.5610 918.7320 75.3682 4892.8633 4956.5469
-52.6271 -5.5370 919.7824 75.3848 4894.1289 4957.8066
-53.3314 -5.5139 920.8236 75.4015 4895.3857 4959.0586
-54.0363 -5.4920 921.8568 75.4182 4896.6367 4960.3027
-54.7426 -5.4714 922.8823 75.4348 4897.8823 4961.5430
-55.4510 -5.4520 923.9001 75.4515 4899.1226 4962.7773
-56.1610 -5.4335 924.9091 75.4681 4900.3564 4964.0059
-56.8716 -5.4153 925.9067 75.4848 4901.5811 4965.2246
-57.5843 -5.3972 926.8946 75.5014 4902.7998 4966.4375
-58.3005 -5.3788 927.8740 75.5181 4904.0132 4967.6445
-59.0202 -5.3600 928.8449 75.5348 4905.2217 4968.8477
-59.7421 -5.3412 929.8056 75.5514 4906.4238 4970.0430
-60.4653 -5.3226 930.7548 75.5681 4907.6172 4971.2305
-61.1905 -5.3044 931.6937 75.5847 4908.8037 4972.4102
-61.9180 -5.2866 932.6226 75.6014 4909.9834 4973.5820
-62.6481 -5.2692 933.5414 75.6181 4911.1572 4974.7500
-63.3805 -5.2523 934.4496 75.6347 4912.3242 4975.9082
-64.1144 -5.2357 935.3459 75.6514 4913.4824 4977.0586
-64.8512 -5.2192 936.2317 75.6680 4914.6348 4978.2031
-65.5919 -5.2025 937.1075 75.6847 4915.7822 4979.3398
-66.3372 -5.1854 937.9736 75.7014 4916.9248 4980.4727
-67.0865 -5.1678 938.8295 75.7180 4918.0625 4981.5996
-67.8387 -5.1494 939.6735 75.7347 4919.1934 4982.7188
-68.5947 -5.1306 940.5067 75.7513 4920.3184 4983.8320
-69.3550 -5.1113 941.3297 75.7680 4921.4390 4984.9199
-70.1201 -5.0921 942.1434 75.7847 4922.5562 4985.9961
-70.8893 -5.0731 942.9471 75.8013 4923.6689 4987.0684
-71.6607 -5.0548 943.7396 75.8180 4924.7749 4988.1348
-72.4353 -5.0374 944.5219 75.8346 4925.8760 4989.1973
-73.2121 -5.0209 945.2935 75.8513 4926.9712 4990.2539
-73.9889 -5.0055 946.0527 75.8680 4928.0571 4991.3008
-74.7657 -4.9911 946.7994 75.8846 4929.1348 4992.3398
-75.5426 -4.9776 947.5341 75.9013 4930.2041 4993.3730
-76.3199 -4.9648 948.2566 75.9179 4931.2656 4994.3984
-77.0983 -4.9525 948.9674 75.9346 4932.3198 4995.4180
-77.8786 -4.9403 949.6669 75.9512 4933.3677 4996.4336
-78.6604 -4.9278 950.3541 75.9679 4934.4087 4997.4414
-79.4441 -4.9150 951.0294 75.9846 4935.4434 4998.4453
-80.2309 -4.9016 951.6935 76.0012 4936.4731 4999.4434
-81.0207 -4.8876 952.3466 76.0179 4937.4980 5000.4395
-81.8131 -4.8732 952.9886 76.0345 4938.5181 5001.4297
-82.6088 -4.8585 953.6202 76.0512 4939.5337 5002.4199
-83.4080 -4.8437 954.2422 76.0679 4940.5469 5003.4062
-84.2109 -4.8288 954.8549 76.0845 4941.5566 5004.3926
-85.0175 -4.8139 955.4583 76.1012 4942.5645 5005.3789
-85.8278 -4.7989 956.0529 76.1178 4943.5693 5006.3633
-86.6417 -4.7835 956.6386 76.1345 4944.5723 5007.3477
-87.4594 -4.7676 957.2156 76.1512 4945.5732 5008.3320
-88.2806 -4.7509 957.7839 76.1678 4946.5718 5009.3203
-89.1053 -4.7336 958.3438 76.1845 4947.5688 5010.3066
-89.9334 -4.7158 958.8954 76.2012 4948.5640 5011.2910
-90.7647 -4.6977 959.4389 76.2178 4949.5576 5012.2734
-91.5989 -4.6796 959.9747 76.2345 4950.5493 5013.2539
-92.4361 -4.6618 960.5031 76.2512 4951.5391 5014.2344
-93.2760 -4.6445 961.0240 76.2678 4952.5278 5015.2148
-94.1187 -4.6279 961.5377 76.2845 4953.5146 5016.1934
-94.9640 -4.6118 962.0439 76.3011 4954.5005 5017.1719
-95.8116 -4.5961 962.5424 76.3178 4955.4839 5018.1504
-96.6606 -4.5807 963.0323 76.3345 4956.4639 5019.1270
-97.5115 -4.5653 963.5138 76.3511 4957.4419 5020.1016
-98.3650 -4.5497 963.9872 76.3678 4958.4180 5021.0781
-99.2208 -4.5339 964.4523 76.3845 4959.3921 5022.0547
-100.0785 -4.5180 964.9089 76.4011 4960.3638 5023.0293
-100.9382 -4.5022 965.3571 76.4178 4961.3335 5024.0039
-101.8002 -4.4865 965.7972 76.4345 4962.3018 5024.9805
-102.6645 -4.4713 966.2292 76.4511 4963.2681 5025.9590
-103.5307 -4.4563 966.6530 76.4678 4964.2324 5026.9375
-104.3989 -4.4416 967.0682 76.4845 4965.1948 5027.9180
-105.2693 -4.4269 967.4748 76.5011 4966.1558 5028.8984
-106.1418 -4.4117 967.8727 76.5178 4967.1147 5029.8809
-107.0166 -4.3959 968.2616 76.5344 4968.0723 5030.8672
-107.8935 -4.3793 968.6416 76.5511 4969.0278 5031.8535
-108.7724 -4.3618 969.0128 76.5678 4969.9824 5032.8418
-109.6533 -4.3436 969.3752 76.5844 4970.9351 5033.8359
-110.5359 -4.3251 969.7292 76.6011 4971.8862 5034.8320
-111.4200 -4.3067 970.0752 76.6178 4972.8359 5035.8242
-112.3057 -4.2889 970.4134 76.6344 4973.7837 5036.8164
-113.1926 -4.2720 970.7440 76.6511 4974.7305 5037.8027
-114.0808 -4.2562 971.0670 76.6678 4975.6758 5038.7891
-114.9701 -4.2415 971.3824 76.6844 4976.6196 5039.7715
-115.8605 -4.2277 971.6899 76.7011 4977.5615 5040.7520
-116.7519 -4.2146 971.9893 76.7178 4978.5020 5041.7305
-117.6445 -4.2020 972.2802 76.7344 4979.4409 5042.7070
-118.5381 -4.1895 972.5624 76.7511 4980.3779 5043.6836
-119.4326 -4.1770 972.8359 76.7677 4981.3135 5044.6562
-120.3282 -4.1641 973.1003 76.7844 4982.2476 5045.6289
-121.2250 -4.1507 973.3559 76.8011 4983.1802 5046.5996
-122.1234 -4.1368 973.6027 76.8177 4984.1118 5047.5703
-123.0234 -4.1222 973.8408 76.8344 4985.0430 5048.5430
-123.9250 -4.1069 974.0704 76.8511 4985.9736 5049.5137
-124.8281 -4.0912 974.2916 76.8677 4986.9033 5050.4863
-125.7326 -4.0752 974.5047 76.8844 4987.8330 5051.4590
-126.6385 -4.0592 974.7099 76.9011 4988.7617 5052.4336
-127.5456 -4.0433 974.9073 76.9177 4989.6904 5053.4102
-128.4539 -4.0277 975.0969 76.9344 4990.6182 5054.3887
-129.3634 -4.0124 975.2788 76.9511 4991.5459 5055.3672
-130.2740 -3.9972 975.4528 76.9677 4992.4731 5056.3496
-131.1856 -3.9821 975.6186 76.9844 4993.3999 5057.3340
-132.0982 -3.9666 975.7761 77.0011 4994.3262 5058.3223
-133.0117 -3.9506 975.9250 77.0177 4995.2520 5059.3203
-133.9261 -3.9339 976.0654 77.0344 4996.1772 5060.3164
-134.8415 -3.9166 976.1973 77.0511 4997.1021 5061.3086
-135.7576 -3.8987 976.3208 77.0677 4998.0264 5062.3008
-136.6745 -3.8805 976.4362 77.0844 4998.9507 5063.2910
-137.5921 -3.8625 976.5436 77.1011 4999.8750 5064.2812
-138.5103 -3.8449 976.6434 77.1177 5000.7988 5065.2676
-139.4292 -3.8279 976.7356 77.1344 5001.7222 5066.2559
-140.3485 -3.8119 976.8203 77.1511 5002.6460 5067.2422
-141.2684 -3.7969 976.8976 77.1677 5003.5688 5068.2305
-142.1887 -3.7829 976.9673 77.1844 5004.4922 5069.2168
-143.1094 -3.7698 977.0294 77.2011 5005.4150 5070.2031
-144.0303 -3.7576 977.0836 77.2177 5006.3374 5071.1914
-144.9515 -3.7459 977.1296 77.2344 5007.2598 5072.1797
-145.8728 -3.7345 977.1672 77.2511 5008.1821 5073.1699
-146.7941 -3.7229 977.1960 77.2677 5009.1040 5074.1602
-147.7154 -3.7110 977.2158 77.2844 5010.0254 5075.1504
-148.6366 -3.6984 977.2264 77.3010 5010.9468 5076.1445
-149.5577 -3.6851 977.2278 77.3177 5011.8682 5077.1387
-150.4787 -3.6712 977.2203 77.3344 5012.7891 5078.1348
-151.3996 -3.6569 977.2042 77.3511 5013.7104 5079.1328
-152.3203 -3.6426 977.1796 77.3677 5014.6313 5080.1367
-153.2407 -3.6286 977.1472 77.3844 5015.5527 5081.1406
-154.1611 -3.6153 977.1071 77.4011 5016.4741 5082.1484
-155.0814 -3.6028 977.0593 77.4177 5017.3955 5083.1582
-156.0014 -3.5912 977.0038 77.4344 5018.3174 5084.1641
-156.9210 -3.5803 976.9407 77.4510 5019.2393 5085.1680
-157.8402 -3.5700 976.8696 77.4677 5020.1611 5086.1699
-158.7589 -3.5601 976.7903 77.4844 5021.0835 5087.1699
-159.6771 -3.5506 976.7029 77.5011 5022.0059 5088.1699
-160.5946 -3.5413 976.6072 77.5177 5022.9282 5089.1680
-161.5115 -3.5322 976.5032 77.5344 5023.8511 5090.1641
-162.4277 -3.5232 976.3911 77.5511 5024.7744 5091.1602
-163.3433 -3.5145 976.2707 77.5677 5025.6978 5092.1562
-164.2582 -3.5059 976.1423 77.5844 5026.6216 5093.1523
-165.1724 -3.4975 976.0060 77.6011 5027.5459 5094.1484
-166.0859 -3.4894 975.8618 77.6177 5028.4707 5095.1445
-166.9987 -3.4816 975.7098 77.6344 5029.3960 5096.1406
-167.9108 -3.4742 975.5504 77.6511 5030.3223 5097.1387
-168.8221 -3.4673 975.3835 77.6677 5031.2485 5098.1367
-169.7327 -3.4610 975.2093 77.6844 5032.1758 5099.1367
-170.6426 -3.4551 975.0278 77.7011 5033.1035 5100.1387
-171.5517 -3.4497 974.8388 77.7177 5034.0322 5101.1426
-172.4599 -3.4445 974.6422 77.7344 5034.9614 5102.1484
-173.3670 -3.4394 974.4378 77.7511 5035.8911 5103.1543
-174.2728 -3.4343 974.2254 77.7677 5036.8218 5104.1641
-175.1774 -3.4291 974.0050 77.7844 5037.7529 5105.1758
-176.0806 -3.4237 973.7764 77.8011 5038.6846 5106.1914
-176.9823 -3.4181 973.5397 77.8177 5039.6167 5107.2090
-177.8826 -3.4123 973.2946 77.8344 5040.5498 5108.2266
-178.7813 -3.4062 973.0413 77.8511 5041.4834 5109.2402
-179.6784 -3.3999 972.7797 77.8677 5042.4180 5110.2500
-180.5738 -3.3936 972.5098 77.8844 5043.3530 5111.2578
-181.4675 -3.3873 972.2318 77.9011 5044.2891 5112.2656
-182.3595 -3.3813 971.9458 77.9177 5045.2261 5113.2695
-183.2498 -3.3757 971.6519 77.9344 5046.1636 5114.2715
-184.1382 -3.3708 971.3501 77.9511 5047.1021 5115.2734
-185.0246 -3.3666 971.0405 77.9677 5048.0410 5116.2715
-185.9090 -3.3631 970.7231 77.9844 5048.9805 5117.2695
-186.7912 -3.3602 970.3977 78.0011 5049.9209 5118.2656
-187.6711 -3.3578 970.0641 78.0177 5050.8618 5119.2617
-188.5484 -3.3557 969.7223 78.0344 5051.8032 5120.2578
-189.4229 -3.3537 969.3719 78.0511 5052.7456 5121.2500
-190.2947 -3.3517 969.0130 78.0677 5053.6880 5122.2461
-191.1635 -3.3495 968.6454 78.0844 5054.6313 5123.2383
-192.0293 -3.3471 968.2693 78.1011 5055.5757 5124.2324
-192.8920 -3.3446 967.8846 78.1178 5056.5200 5125.2266
-193.7518 -3.3420 967.4915 78.1344 5057.4653 5126.2227
-194.6086 -3.3394 967.0901 78.1511 5058.4116 5127.2188
-195.4624 -3.3370 966.6807 78.1678 5059.3584 5128.2148
-196.3133 -3.3350 966.2634 78.1844 5060.3062 5129.2129
-197.1614 -3.3334 965.8384 78.2011 5061.2549 5130.2129
-198.0065 -3.3325 965.4058 78.2178 5062.2041 5131.2129
-198.8487 -3.3323 964.9657 78.2344 5063.1548 5132.2324
-199.6879 -3.3328 964.5181 78.2511 5064.1055 5133.2539
-200.5240 -3.3340 964.0631 78.2678 5065.0576 5134.2695
-201.3569 -3.3357 963.6005 78.2844 5066.0103 5135.2832
-202.1865 -3.3378 963.1303 78.3011 5066.9639 5136.2910
-203.0127 -3.3402 962.6524 78.3178 5067.9185 5137.2969
-203.8353 -3.3427 962.1667 78.3344 5068.8735 5138.2988
-204.6544 -3.3453 961.6733 78.3511 5069.8301 5139.2988
-205.4698 -3.3477 961.1723 78.3678 5070.7871 5140.2969
-206.2815 -3.3502 960.6636 78.3844 5071.7451 5141.2891
-207.0896 -3.3526 960.1475 78.4011 5072.7036 5142.2812
-207.8941 -3.3550 959.6238 78.4178 5073.6636 5143.2734
-208.6949 -3.3575 959.0930 78.4344 5074.6245 5144.2617
-209.4921 -3.3603 958.5549 78.4511 5075.5864 5145.2480
-210.2857 -3.3632 958.0098 78.4678 5076.5488 5146.2344
-211.0755 -3.3666 957.4575 78.4845 5077.5127 5147.2188
-211.8616 -3.3702 956.8983 78.5011 5078.4775 5148.2012
-212.6438 -3.3742 956.3320 78.5178 5079.4434 5149.1855
-213.4221 -3.3785 955.7587 78.5345 5080.4097 5150.1680
-214.1963 -3.3830 955.1783 78.5511 5081.3774 5151.1504
-214.9663 -3.3876 954.5908 78.5678 5082.3462 5152.1328
-215.7320 -3.3921 953.9962 78.5845 5083.3154 5153.1152
-216.4933 -3.3966 953.3943 78.6011 5084.2861 5154.0977
-217.2502 -3.4009 952.7855 78.6178 5085.2573 5155.0820
-218.0026 -3.4049 952.1694 78.6345 5086.2300 5156.0645
-218.7503 -3.4086 951.5464 78.6511 5087.2031 5157.0430
-219.4935 -3.4119 950.9163 78.6678 5088.1772 5158.0176
-220.2319 -3.4148 950.2792 78.6845 5089.1528 5158.9902
-220.9658 -3.4174 949.6351 78.7011 5090.1289 5159.9609
-221.6949 -3.4197 948.9843 78.7178 5091.1064 5160.9297
-222.4194 -3.4218 948.3268 78.7345 5092.0850 5161.8984
-223.1393 -3.4240 947.6628 78.7511 5093.0645 5162.8633
-223.8547 -3.4266 946.9924 78.7678 5094.0444 5163.8281
-224.5657 -3.4299 946.3158 78.7845 5095.0259 5164.7930
-225.2723 -3.4342 945.6332 78.8011 5096.0088 5165.7539
-225.9747 -3.4396 944.9448 78.8178 5096.9922 5166.7168
-226.6726 -3.4463 944.2505 78.8345 5097.9766 5167.6758
-227.3660 -3.4542 943.5504 78.8511 5098.9619 5168.6367
-228.0546 -3.4631 942.8441 78.8678 5099.9482 5169.5957
-228.7382 -3.4727 942.1318 78.8845 5100.9355 5170.5547
-229.4166 -3.4826 941.4131 78.9012 5101.9243 5171.5117
