VERSION 0.7
FIELDS x y z i j k w r ib_distance ob_distance
SIZE 4 4 4 4 4 4 4 4 4 4
TYPE F F F F F F F F F F
COUNT 1 1 1 1 1 1 1 1 1 1
WIDTH 587
HEIGHT 1
VIEWPOINT -0.625 0.327 0.325 0.630 -558.457 -10.415 467.204
POINTS 587
DATA ascii
160.1424 -1.3601 26.9701 -0.5744 -0.4123 -0.4150 0.5726 982.0000 -7.7473 7.7471
160.7738 -1.3631 28.8678 -0.5745 -0.4123 -0.4148 0.5726 984.0000 -7.7461 7.7458
161.4056 -1.3653 30.7654 -0.5746 -0.4124 -0.4147 0.5726 986.0000 -7.7452 7.7451
162.0374 -1.3669 32.6630 -0.5746 -0.4125 -0.4147 0.5724 988.0000 -7.7450 7.7451
162.6681 -1.3680 34.5609 -0.5745 -0.4129 -0.4149 0.5722 990.0000 -7.7462 7.7469
163.2964 -1.3687 36.4597 -0.5742 -0.4134 -0.4153 0.5718 992.0000 -7.7499 7.7516
163.9212 -1.3692 38.3596 -0.5737 -0.4139 -0.4159 0.5714 994.0000 -7.7570 7.7597
164.5419 -1.3704 40.2608 -0.5731 -0.4144 -0.4167 0.5711 996.0000 -7.7672 7.7711
165.1579 -1.3732 42.1636 -0.5724 -0.4148 -0.4178 0.5708 998.0000 -7.7802 7.7854
165.7693 -1.3789 44.0678 -0.5716 -0.4150 -0.4189 0.5706 1000.0000 -7.7956 7.8020
166.3769 -1.3880 45.9733 -0.5708 -0.4150 -0.4199 0.5707 1002.0000 -7.8133 7.8208
166.9821 -1.4007 47.8795 -0.5704 -0.4147 -0.4205 0.5708 1004.0000 -7.8331 7.8414
167.5867 -1.4161 49.7858 -0.5701 -0.4144 -0.4209 0.5711 1006.0000 -7.8542 7.8630
168.1918 -1.4332 51.6920 -0.5701 -0.4141 -0.4209 0.5713 1008.0000 -7.8757 7.8846
168.7975 -1.4501 53.5980 -0.5703 -0.4142 -0.4206 0.5712 1010.0000 -7.8973 7.9062
169.4036 -1.4648 55.5039 -0.5707 -0.4146 -0.4201 0.5709 1012.0000 -7.9188 7.9279
170.0108 -1.4750 57.4095 -0.5714 -0.4151 -0.4191 0.5705 1014.0000 -7.9406 7.9500
170.6208 -1.4793 59.3142 -0.5725 -0.4154 -0.4176 0.5703 1016.0000 -7.9633 7.9725
171.2364 -1.4775 61.2171 -0.5739 -0.4152 -0.4156 0.5705 1018.0000 -7.9860 7.9941
171.8606 -1.4704 63.1172 -0.5755 -0.4143 -0.4135 0.5712 1020.0000 -8.0069 8.0131
172.4965 -1.4605 65.0134 -0.5771 -0.4125 -0.4112 0.5725 1022.0000 -8.0251 8.0296
173.1478 -1.4502 66.9043 -0.5789 -0.4097 -0.4087 0.5745 1024.0000 -8.0427 8.0463
173.8193 -1.4420 68.7882 -0.5810 -0.4058 -0.4056 0.5773 1026.0000 -8.0639 8.0658
174.5167 -1.4375 70.6626 -0.5838 -0.4006 -0.4015 0.5810 1028.0000 -8.0839 8.0838
175.2508 -1.4370 72.5229 -0.5882 -0.3930 -0.3949 0.5862 1030.0000 -8.0851 8.0855
176.0407 -1.4394 74.3603 -0.5949 -0.3822 -0.3846 0.5934 1032.0000 -8.0566 8.0526
176.9019 -1.4434 76.1651 -0.6025 -0.3698 -0.3724 0.6013 1034.0000 -8.0070 7.9769
177.8364 -1.4481 77.9333 -0.6099 -0.3574 -0.3600 0.6089 1036.0000 -7.9480 7.8693
178.8446 -1.4531 79.6603 -0.6176 -0.3438 -0.3464 0.6167 1038.0000 -7.8813 7.7561
179.9356 -1.4581 81.3363 -0.6269 -0.3267 -0.3290 0.6261 1040.0000 -7.7979 7.6596
181.1385 -1.4619 82.9334 -0.6397 -0.3015 -0.3030 0.6389 1042.0000 -7.6731 7.5693
182.4730 -1.4634 84.4222 -0.6518 -0.2750 -0.2754 0.6509 1044.0000 -7.4969 7.4527
183.9161 -1.4620 85.8065 -0.6609 -0.2532 -0.2524 0.6599 1046.0000 -7.3390 7.3141
185.4467 -1.4577 87.0932 -0.6686 -0.2322 -0.2307 0.6678 1048.0000 -7.1976 7.1670
187.0583 -1.4544 88.2769 -0.6756 -0.2089 -0.2086 0.6756 1050.0000 -7.0640 7.0223
188.7486 -1.4563 89.3452 -0.6823 -0.1835 -0.1849 0.6831 1052.0000 -6.9460 6.9041
190.5150 -1.4613 90.2820 -0.6890 -0.1559 -0.1573 0.6901 1054.0000 -6.8556 6.8274
192.3539 -1.4648 91.0669 -0.6950 -0.1262 -0.1266 0.6964 1056.0000 -6.7988 6.7837
194.2554 -1.4655 91.6844 -0.6999 -0.0946 -0.0943 0.7016 1058.0000 -6.7687 6.7599
196.2058 -1.4646 92.1237 -0.7034 -0.0621 -0.0614 0.7054 1060.0000 -6.7528 6.7462
198.1887 -1.4630 92.3793 -0.7053 -0.0291 -0.0284 0.7078 1062.0000 -6.7422 6.7347
200.1868 -1.4611 92.4460 -0.7056 0.0048 0.0056 0.7086 1064.0000 -6.7232 6.7109
202.1826 -1.4588 92.3265 -0.7045 0.0360 0.0367 0.7078 1066.0000 -6.6776 6.6569
204.1625 -1.4562 92.0468 -0.7025 0.0619 0.0626 0.7062 1068.0000 -6.6136 6.5791
206.1175 -1.4533 91.6269 -0.6997 0.0871 0.0877 0.7036 1070.0000 -6.5511 6.5093
208.0348 -1.4500 91.0598 -0.6954 0.1156 0.1161 0.6997 1072.0000 -6.5028 6.4661
209.8959 -1.4467 90.3293 -0.6893 0.1474 0.1476 0.6938 1074.0000 -6.4700 6.4430
211.6799 -1.4437 89.4270 -0.6813 0.1809 0.1806 0.6859 1076.0000 -6.4482 6.4299
213.3660 -1.4414 88.3529 -0.6712 0.2155 0.2147 0.6759 1078.0000 -6.4330 6.4222
214.9316 -1.4402 87.1099 -0.6589 0.2512 0.2497 0.6636 1080.0000 -6.4208 6.4163
216.3582 -1.4402 85.7094 -0.6453 0.2851 0.2829 0.6498 1082.0000 -6.4083 6.4081
217.6450 -1.4409 84.1792 -0.6326 0.3128 0.3103 0.6369 1084.0000 -6.3924 6.3945
218.8161 -1.4412 82.5583 -0.6226 0.3319 0.3298 0.6272 1086.0000 -6.3686 6.3742
219.9034 -1.4390 80.8799 -0.6152 0.3446 0.3434 0.6203 1088.0000 -6.3414 6.3482
220.9271 -1.4325 79.1618 -0.6090 0.3541 0.3543 0.6149 1090.0000 -6.3283 6.3281
221.9002 -1.4210 77.4146 -0.6040 0.3611 0.3627 0.6109 1092.0000 -6.3436 6.3334
222.8353 -1.4051 75.6468 -0.6004 0.3661 0.3688 0.6079 1094.0000 -6.3818 6.3694
223.7423 -1.3867 73.8644 -0.5977 0.3700 0.3731 0.6055 1096.0000 -6.4284 6.4213
224.6287 -1.3684 72.0716 -0.5961 0.3732 0.3757 0.6035 1098.0000 -6.4731 6.4730
225.5000 -1.3530 70.2715 -0.5950 0.3761 0.3774 0.6017 1100.0000 -6.5126 6.5175
226.3574 -1.3417 68.4646 -0.5939 0.3791 0.3791 0.5998 1102.0000 -6.5484 6.5556
227.2001 -1.3347 66.6508 -0.5927 0.3822 0.3810 0.5979 1104.0000 -6.5829 6.5905
228.0278 -1.3312 64.8302 -0.5915 0.3850 0.3829 0.5961 1106.0000 -6.6168 6.6240
228.8419 -1.3297 63.0033 -0.5902 0.3873 0.3849 0.5946 1108.0000 -6.6500 6.6569
229.6425 -1.3287 61.1706 -0.5887 0.3895 0.3871 0.5931 1110.0000 -6.6837 6.6905
230.4287 -1.3268 59.3316 -0.5870 0.3917 0.3898 0.5916 1112.0000 -6.7196 6.7264
231.1994 -1.3234 57.4861 -0.5852 0.3940 0.3925 0.5901 1114.0000 -6.7582 6.7648
231.9543 -1.3185 55.6340 -0.5834 0.3963 0.3952 0.5886 1116.0000 -6.7973 6.8031
232.6932 -1.3122 53.7755 -0.5815 0.3987 0.3979 0.5869 1118.0000 -6.8328 6.8370
233.4153 -1.3052 51.9105 -0.5797 0.4014 0.4007 0.5851 1120.0000 -6.8609 6.8636
234.1200 -1.2980 50.0388 -0.5778 0.4041 0.4034 0.5833 1122.0000 -6.8801 6.8815
234.8078 -1.2911 48.1608 -0.5761 0.4067 0.4058 0.5814 1124.0000 -6.8908 6.8913
235.4805 -1.2844 46.2773 -0.5747 0.4088 0.4078 0.5799 1126.0000 -6.8950 6.8952
236.1416 -1.2782 44.3897 -0.5736 0.4104 0.4093 0.5788 1128.0000 -6.8968 6.8968
236.7935 -1.2721 42.4990 -0.5727 0.4117 0.4106 0.5779 1130.0000 -6.8989 6.8991
237.4367 -1.2661 40.6053 -0.5717 0.4131 0.4120 0.5768 1132.0000 -6.9019 6.9021
238.0694 -1.2602 38.7080 -0.5704 0.4149 0.4138 0.5755 1134.0000 -6.9043 6.9043
238.6885 -1.2546 36.8062 -0.5688 0.4173 0.4160 0.5738 1136.0000 -6.9030 6.9026
239.2913 -1.2492 34.8992 -0.5670 0.4198 0.4185 0.5719 1138.0000 -6.8957 6.8950
239.8779 -1.2442 32.9872 -0.5654 0.4221 0.4207 0.5703 1140.0000 -6.8831 6.8822
240.4513 -1.2393 31.0712 -0.5642 0.4238 0.4223 0.5690 1142.0000 -6.8689 6.8681
241.0152 -1.2348 29.1523 -0.5633 0.4251 0.4235 0.5680 1144.0000 -6.8571 6.8564
241.5711 -1.2307 27.2312 -0.5624 0.4264 0.4246 0.5671 1146.0000 -6.8493 6.8488
242.1177 -1.2270 25.3073 -0.5613 0.4280 0.4261 0.5658 1148.0000 -6.8445 6.8440
242.6511 -1.2237 23.3798 -0.5596 0.4303 0.4283 0.5641 1150.0000 -6.8393 6.8388
243.1675 -1.2209 21.4476 -0.5577 0.4330 0.4309 0.5620 1152.0000 -6.8304 6.8298
243.6669 -1.2186 19.5109 -0.5560 0.4353 0.4330 0.5602 1154.0000 -6.8187 6.8182
244.1528 -1.2167 17.5708 -0.5547 0.4371 0.4347 0.5588 1156.0000 -6.8086 6.8082
244.6261 -1.2154 15.6277 -0.5533 0.4391 0.4365 0.5572 1158.0000 -6.8016 6.8014
245.0853 -1.2146 13.6811 -0.5517 0.4413 0.4386 0.5554 1160.0000 -6.7964 6.7963
245.5287 -1.2141 11.7309 -0.5499 0.4436 0.4408 0.5536 1162.0000 -6.7915 6.7915
245.9569 -1.2139 9.7773 -0.5483 0.4457 0.4428 0.5519 1164.0000 -6.7878 6.7878
246.3713 -1.2139 7.8207 -0.5468 0.4476 0.4446 0.5504 1166.0000 -6.7878 6.7878
246.7731 -1.2140 5.8615 -0.5455 0.4493 0.4463 0.5490 1168.0000 -6.7937 6.7937
247.1628 -1.2141 3.8998 -0.5441 0.4510 0.4480 0.5476 1170.0000 -6.8066 6.8065
247.5412 -1.2142 1.9359 -0.5429 0.4524 0.4495 0.5464 1172.0000 -6.8255 6.8256
247.9101 -1.2143 -0.0298 -0.5420 0.4535 0.4506 0.5455 1174.0000 -6.8483 6.8488
248.2725 -1.2143 -1.9967 -0.5414 0.4542 0.4513 0.5449 1176.0000 -6.8719 6.8729
248.6305 -1.2142 -3.9644 -0.5409 0.4548 0.4518 0.5445 1178.0000 -6.8941 6.8957
248.9848 -1.2141 -5.9327 -0.5405 0.4553 0.4524 0.5440 1180.0000 -6.9146 6.9166
249.3351 -1.2139 -7.9018 -0.5400 0.4559 0.4530 0.5435 1182.0000 -6.9336 6.9360
249.6793 -1.2138 -9.8720 -0.5391 0.4570 0.4541 0.5426 1184.0000 -6.9521 6.9546
250.0136 -1.2137 -11.8438 -0.5377 0.4587 0.4557 0.5412 1186.0000 -6.9699 6.9721
250.3335 -1.2138 -13.8181 -0.5358 0.4609 0.4579 0.5393 1188.0000 -6.9843 6.9856
250.6368 -1.2139 -15.7949 -0.5339 0.4631 0.4602 0.5373 1190.0000 -6.9908 6.9909
250.9245 -1.2140 -17.7741 -0.5323 0.4650 0.4621 0.5357 1192.0000 -6.9859 6.9848
251.2005 -1.2140 -19.7550 -0.5312 0.4663 0.4634 0.5346 1194.0000 -6.9706 6.9686
251.4681 -1.2139 -21.7370 -0.5302 0.4674 0.4644 0.5336 1196.0000 -6.9492 6.9467
251.7267 -1.2138 -23.7202 -0.5290 0.4688 0.4658 0.5324 1198.0000 -6.9272 6.9248
251.9726 -1.2137 -25.7050 -0.5273 0.4708 0.4678 0.5306 1200.0000 -6.9095 6.9081
252.2017 -1.2137 -27.6919 -0.5251 0.4732 0.4702 0.5284 1202.0000 -6.8995 6.8991
252.4120 -1.2138 -29.6808 -0.5229 0.4757 0.4727 0.5262 1204.0000 -6.8971 6.8972
252.6049 -1.2139 -31.6714 -0.5210 0.4778 0.4748 0.5242 1206.0000 -6.8988 6.8990
252.7827 -1.2139 -33.6635 -0.5193 0.4796 0.4767 0.5225 1208.0000 -6.8991 6.8990
252.9471 -1.2139 -35.6567 -0.5177 0.4814 0.4784 0.5209 1210.0000 -6.8927 6.8924
253.0981 -1.2139 -37.6510 -0.5162 0.4831 0.4801 0.5193 1212.0000 -6.8766 6.8763
253.2365 -1.2139 -39.6462 -0.5147 0.4846 0.4817 0.5179 1214.0000 -6.8511 6.8508
253.3633 -1.2140 -41.6422 -0.5133 0.4862 0.4832 0.5164 1216.0000 -6.8173 6.8170
253.4765 -1.2142 -43.6390 -0.5115 0.4882 0.4852 0.5145 1218.0000 -6.7747 6.7748
253.5728 -1.2145 -45.6367 -0.5092 0.4906 0.4875 0.5122 1220.0000 -6.7217 6.7233
253.6497 -1.2149 -47.6352 -0.5069 0.4930 0.4900 0.5098 1222.0000 -6.6599 6.6633
253.7086 -1.2153 -49.6343 -0.5049 0.4951 0.4921 0.5078 1224.0000 -6.5937 6.5982
253.7531 -1.2155 -51.6338 -0.5033 0.4966 0.4936 0.5063 1226.0000 -6.5294 6.5336
253.7866 -1.2156 -53.6335 -0.5021 0.4979 0.4950 0.5050 1228.0000 -6.4729 6.4758
253.8089 -1.2157 -55.6334 -0.5005 0.4995 0.4966 0.5034 1230.0000 -6.4287 6.4305
253.8163 -1.2158 -57.6334 -0.4984 0.5016 0.4987 0.5013 1232.0000 -6.4011 6.4020
253.8062 -1.2159 -59.6334 -0.4962 0.5038 0.5009 0.4990 1234.0000 -6.3927 6.3927
253.7785 -1.2159 -61.6332 -0.4940 0.5060 0.5030 0.4969 1236.0000 -6.4029 6.4020
253.7347 -1.2160 -63.6327 -0.4922 0.5078 0.5049 0.4950 1238.0000 -6.4284 6.4274
253.6768 -1.2160 -65.6318 -0.4904 0.5095 0.5066 0.4932 1240.0000 -6.4644 6.4636
253.6031 -1.2160 -67.6305 -0.4881 0.5117 0.5089 0.4909 1242.0000 -6.5078 6.5065
253.5074 -1.2160 -69.6282 -0.4847 0.5149 0.5121 0.4875 1244.0000 -6.5586 6.5552
253.3811 -1.2158 -71.6241 -0.4803 0.5191 0.5163 0.4830 1246.0000 -6.6179 6.6099
253.2166 -1.2155 -73.6173 -0.4748 0.5241 0.5213 0.4776 1248.0000 -6.6855 6.6717
253.0075 -1.2150 -75.6063 -0.4686 0.5297 0.5270 0.4712 1250.0000 -6.7595 6.7415
252.7472 -1.2142 -77.5892 -0.4612 0.5362 0.5336 0.4638 1252.0000 -6.8336 6.8173
252.4241 -1.2136 -79.5629 -0.4515 0.5445 0.5419 0.4539 1254.0000 -6.8990 6.8881
252.0195 -1.2132 -81.5213 -0.4390 0.5548 0.5522 0.4411 1256.0000 -6.9457 6.9392
251.5189 -1.2135 -83.4574 -0.4248 0.5659 0.5633 0.4266 1258.0000 -6.9641 6.9622
250.9204 -1.2141 -85.3656 -0.4107 0.5763 0.5738 0.4122 1260.0000 -6.9543 6.9570
250.2313 -1.2146 -87.2429 -0.3975 0.5855 0.5831 0.3990 1262.0000 -6.9263 6.9311
249.4610 -1.2145 -89.0885 -0.3852 0.5936 0.5914 0.3867 1264.0000 -6.8936 6.8970
248.6153 -1.2141 -90.9007 -0.3730 0.6013 0.5993 0.3743 1266.0000 -6.8642 6.8653
247.6948 -1.2143 -92.6761 -0.3604 0.6091 0.6071 0.3614 1268.0000 -6.8402 6.8395
246.6994 -1.2149 -94.4106 -0.3473 0.6167 0.6148 0.3481 1270.0000 -6.8203 6.8181
245.6287 -1.2153 -96.0997 -0.3334 0.6242 0.6225 0.3342 1272.0000 -6.8024 6.7987
244.4822 -1.2154 -97.7383 -0.3190 0.6316 0.6302 0.3198 1274.0000 -6.7848 6.7796
243.2620 -1.2152 -99.3227 -0.3048 0.6385 0.6373 0.3055 1276.0000 -6.7676 6.7615
241.9756 -1.2151 -100.8539 -0.2924 0.6443 0.6432 0.2929 1278.0000 -6.7517 6.7453
240.6378 -1.2150 -102.3405 -0.2831 0.6484 0.6474 0.2835 1280.0000 -6.7356 6.7285
239.2650 -1.2151 -103.7949 -0.2769 0.6510 0.6501 0.2772 1282.0000 -6.7146 6.7065
237.8691 -1.2152 -105.2272 -0.2726 0.6528 0.6520 0.2729 1284.0000 -6.6864 6.6780
236.4566 -1.2155 -106.6431 -0.2692 0.6542 0.6534 0.2694 1286.0000 -6.6528 6.6454
235.0298 -1.2158 -108.0446 -0.2659 0.6556 0.6548 0.2661 1288.0000 -6.6197 6.6146
233.5887 -1.2160 -109.4314 -0.2626 0.6569 0.6561 0.2628 1290.0000 -6.5938 6.5912
232.1345 -1.2162 -110.8045 -0.2598 0.6579 0.6573 0.2600 1292.0000 -6.5792 6.5781
230.6709 -1.2161 -112.1675 -0.2580 0.6586 0.6580 0.2583 1294.0000 -6.5735 6.5730
229.2021 -1.2159 -113.5250 -0.2572 0.6589 0.6583 0.2575 1296.0000 -6.5706 6.5701
227.7308 -1.2158 -114.8796 -0.2567 0.6591 0.6585 0.2570 1298.0000 -6.5661 6.5650
226.2578 -1.2159 -116.2326 -0.2564 0.6593 0.6586 0.2566 1300.0000 -6.5582 6.5562
224.7833 -1.2162 -117.5838 -0.2560 0.6594 0.6588 0.2562 1302.0000 -6.5467 6.5436
223.3072 -1.2165 -118.9332 -0.2556 0.6596 0.6589 0.2558 1304.0000 -6.5321 6.5281
221.8292 -1.2168 -120.2807 -0.2552 0.6598 0.6591 0.2553 1306.0000 -6.5147 6.5099
220.3494 -1.2172 -121.6261 -0.2547 0.6599 0.6593 0.2548 1308.0000 -6.4947 6.4893
218.8678 -1.2176 -122.9696 -0.2543 0.6601 0.6595 0.2544 1310.0000 -6.4719 6.4662
217.3846 -1.2180 -124.3113 -0.2539 0.6602 0.6596 0.2540 1312.0000 -6.4463 6.4404
215.8999 -1.2186 -125.6513 -0.2536 0.6604 0.6597 0.2537 1314.0000 -6.4179 6.4118
214.4141 -1.2192 -126.9901 -0.2534 0.6605 0.6598 0.2534 1316.0000 -6.3870 6.3808
212.9275 -1.2199 -128.3280 -0.2533 0.6605 0.6599 0.2533 1318.0000 -6.3544 6.3484
211.4406 -1.2206 -129.6655 -0.2532 0.6605 0.6599 0.2532 1320.0000 -6.3213 6.3154
209.9536 -1.2213 -131.0030 -0.2533 0.6605 0.6599 0.2532 1322.0000 -6.2883 6.2826
208.4667 -1.2220 -132.3406 -0.2533 0.6605 0.6599 0.2532 1324.0000 -6.2556 6.2500
206.9798 -1.2228 -133.6782 -0.2532 0.6605 0.6599 0.2532 1326.0000 -6.2229 6.2175
205.4925 -1.2236 -135.0154 -0.2531 0.6606 0.6599 0.2530 1328.0000 -6.1895 6.1842
204.0044 -1.2246 -136.3516 -0.2529 0.6607 0.6600 0.2528 1330.0000 -6.1547 6.1495
202.5151 -1.2255 -137.6865 -0.2526 0.6608 0.6601 0.2525 1332.0000 -6.1181 6.1130
201.0245 -1.2265 -139.0200 -0.2522 0.6610 0.6603 0.2521 1334.0000 -6.0796 6.0747
199.5323 -1.2276 -140.3516 -0.2518 0.6611 0.6605 0.2516 1336.0000 -6.0398 6.0352
198.0381 -1.2286 -141.6810 -0.2512 0.6613 0.6607 0.2511 1338.0000 -5.9997 5.9956
196.5415 -1.2297 -143.0078 -0.2506 0.6616 0.6609 0.2505 1340.0000 -5.9609 5.9573
195.0426 -1.2308 -144.3318 -0.2500 0.6618 0.6611 0.2499 1342.0000 -5.9245 5.9215
193.5410 -1.2319 -145.6529 -0.2493 0.6621 0.6614 0.2491 1344.0000 -5.8915 5.8891
192.0363 -1.2330 -146.9705 -0.2485 0.6624 0.6617 0.2483 1346.0000 -5.8625 5.8609
190.5281 -1.2341 -148.2840 -0.2476 0.6627 0.6621 0.2474 1348.0000 -5.8383 5.8372
189.0168 -1.2352 -149.5939 -0.2469 0.6629 0.6623 0.2467 1350.0000 -5.8185 5.8177
187.5034 -1.2365 -150.9015 -0.2467 0.6631 0.6624 0.2464 1352.0000 -5.8012 5.8006
185.9895 -1.2380 -152.2085 -0.2467 0.6631 0.6624 0.2463 1354.0000 -5.7847 5.7841
184.4759 -1.2395 -153.5157 -0.2468 0.6630 0.6624 0.2464 1356.0000 -5.7680 5.7673
182.9625 -1.2410 -154.8232 -0.2468 0.6630 0.6624 0.2465 1358.0000 -5.7510 5.7502
181.4494 -1.2424 -156.1311 -0.2469 0.6630 0.6623 0.2466 1360.0000 -5.7341 5.7333
179.9361 -1.2439 -157.4387 -0.2467 0.6630 0.6624 0.2464 1362.0000 -5.7181 5.7175
178.4218 -1.2453 -158.7452 -0.2464 0.6632 0.6625 0.2461 1364.0000 -5.7044 5.7040
176.9057 -1.2468 -160.0496 -0.2458 0.6634 0.6627 0.2455 1366.0000 -5.6947 5.6945
175.3871 -1.2483 -161.3511 -0.2452 0.6636 0.6630 0.2448 1368.0000 -5.6899 5.6899
173.8663 -1.2498 -162.6499 -0.2447 0.6638 0.6632 0.2443 1370.0000 -5.6898 5.6897
172.3441 -1.2513 -163.9473 -0.2445 0.6639 0.6632 0.2442 1372.0000 -5.6929 5.6929
170.8218 -1.2529 -165.2444 -0.2446 0.6639 0.6632 0.2442 1374.0000 -5.6975 5.6976
169.3000 -1.2546 -166.5422 -0.2448 0.6638 0.6631 0.2445 1376.0000 -5.7025 5.7026
167.7796 -1.2562 -167.8415 -0.2452 0.6636 0.6630 0.2448 1378.0000 -5.7073 5.7075
166.2608 -1.2579 -169.1428 -0.2457 0.6635 0.6628 0.2453 1380.0000 -5.7111 5.7112
164.7441 -1.2596 -170.4465 -0.2462 0.6633 0.6626 0.2459 1382.0000 -5.7136 5.7137
163.2294 -1.2614 -171.7524 -0.2467 0.6631 0.6624 0.2463 1384.0000 -5.7148 5.7149
161.7162 -1.2631 -173.0603 -0.2470 0.6630 0.6623 0.2466 1386.0000 -5.7151 5.7151
160.2040 -1.2649 -174.3692 -0.2472 0.6629 0.6622 0.2468 1388.0000 -5.7153 5.7153
158.6922 -1.2667 -175.6786 -0.2473 0.6629 0.6622 0.2469 1390.0000 -5.7158 5.7159
157.1806 -1.2684 -176.9881 -0.2472 0.6629 0.6622 0.2468 1392.0000 -5.7167 5.7167
155.6685 -1.2702 -178.2972 -0.2471 0.6630 0.6623 0.2466 1394.0000 -5.7172 5.7172
154.1552 -1.2721 -179.6048 -0.2466 0.6631 0.6624 0.2462 1396.0000 -5.7161 5.7159
152.6398 -1.2740 -180.9100 -0.2460 0.6634 0.6627 0.2456 1398.0000 -5.7119 5.7115
151.1221 -1.2759 -182.2126 -0.2455 0.6635 0.6628 0.2451 1400.0000 -5.7040 5.7035
149.6030 -1.2779 -183.5134 -0.2453 0.6636 0.6629 0.2448 1402.0000 -5.6939 5.6933
148.0834 -1.2799 -184.8137 -0.2453 0.6636 0.6629 0.2448 1404.0000 -5.6829 5.6823
146.5636 -1.2819 -186.1138 -0.2452 0.6637 0.6630 0.2447 1406.0000 -5.6716 5.6710
145.0428 -1.2840 -187.4127 -0.2448 0.6638 0.6631 0.2443 1408.0000 -5.6590 5.6583
143.5198 -1.2861 -188.7091 -0.2441 0.6641 0.6634 0.2436 1410.0000 -5.6430 5.6422
141.9940 -1.2883 -190.0020 -0.2434 0.6644 0.6637 0.2428 1412.0000 -5.6223 5.6217
140.4655 -1.2907 -191.2919 -0.2428 0.6646 0.6639 0.2422 1414.0000 -5.5976 5.5971
138.9354 -1.2933 -192.5798 -0.2426 0.6647 0.6639 0.2419 1416.0000 -5.5712 5.5706
137.4048 -1.2959 -193.8672 -0.2426 0.6647 0.6640 0.2419 1418.0000 -5.5446 5.5440
135.8742 -1.2985 -195.1546 -0.2426 0.6647 0.6640 0.2419 1420.0000 -5.5186 5.5182
134.3434 -1.3009 -196.4417 -0.2425 0.6647 0.6640 0.2418 1422.0000 -5.4934 5.4929
132.8125 -1.3032 -197.7286 -0.2424 0.6647 0.6640 0.2418 1424.0000 -5.4688 5.4683
131.2812 -1.3054 -199.0152 -0.2423 0.6647 0.6641 0.2417 1426.0000 -5.4447 5.4441
129.7496 -1.3076 -200.3013 -0.2422 0.6648 0.6641 0.2416 1428.0000 -5.4209 5.4203
128.2177 -1.3099 -201.5871 -0.2421 0.6648 0.6641 0.2415 1430.0000 -5.3972 5.3967
126.6854 -1.3122 -202.8724 -0.2421 0.6648 0.6641 0.2415 1432.0000 -5.3738 5.3732
125.1531 -1.3146 -204.1578 -0.2422 0.6648 0.6641 0.2415 1434.0000 -5.3506 5.3501
123.6212 -1.3171 -205.4436 -0.2423 0.6648 0.6641 0.2417 1436.0000 -5.3284 5.3277
122.0903 -1.3196 -206.7305 -0.2426 0.6647 0.6640 0.2419 1438.0000 -5.3073 5.3066
120.5602 -1.3222 -208.0184 -0.2428 0.6646 0.6639 0.2421 1440.0000 -5.2873 5.2867
119.0307 -1.3248 -209.3072 -0.2430 0.6645 0.6638 0.2423 1442.0000 -5.2684 5.2678
117.5020 -1.3274 -210.5968 -0.2432 0.6645 0.6637 0.2425 1444.0000 -5.2508 5.2501
115.9739 -1.3299 -211.8871 -0.2433 0.6644 0.6637 0.2426 1446.0000 -5.2341 5.2335
114.4461 -1.3324 -213.1777 -0.2433 0.6644 0.6637 0.2426 1448.0000 -5.2180 5.2173
112.9182 -1.3349 -214.4682 -0.2433 0.6644 0.6637 0.2426 1450.0000 -5.2018 5.2012
111.3902 -1.3374 -215.7587 -0.2432 0.6644 0.6637 0.2426 1452.0000 -5.1856 5.1850
109.8623 -1.3399 -217.0493 -0.2433 0.6644 0.6637 0.2426 1454.0000 -5.1694 5.1688
108.3345 -1.3425 -218.3400 -0.2433 0.6644 0.6637 0.2426 1456.0000 -5.1533 5.1528
106.8069 -1.3451 -219.6308 -0.2434 0.6644 0.6637 0.2427 1458.0000 -5.1376 5.1370
105.2795 -1.3477 -220.9220 -0.2434 0.6644 0.6636 0.2427 1460.0000 -5.1223 5.1216
103.7525 -1.3503 -222.2135 -0.2436 0.6643 0.6636 0.2429 1462.0000 -5.1073 5.1068
102.2262 -1.3529 -223.5060 -0.2439 0.6642 0.6635 0.2432 1464.0000 -5.0937 5.0931
100.7020 -1.3554 -224.8009 -0.2446 0.6640 0.6632 0.2439 1466.0000 -5.0831 5.0826
99.1810 -1.3580 -226.0995 -0.2455 0.6636 0.6629 0.2448 1468.0000 -5.0772 5.0770
97.6633 -1.3606 -227.4021 -0.2462 0.6634 0.6626 0.2455 1470.0000 -5.0764 5.0766
96.1476 -1.3632 -228.7070 -0.2465 0.6633 0.6625 0.2458 1472.0000 -5.0790 5.0794
94.6326 -1.3659 -230.0127 -0.2466 0.6633 0.6625 0.2458 1474.0000 -5.0826 5.0830
93.1174 -1.3686 -231.3181 -0.2465 0.6633 0.6625 0.2458 1476.0000 -5.0860 5.0863
91.6019 -1.3713 -232.6232 -0.2464 0.6633 0.6625 0.2457 1478.0000 -5.0891 5.0892
90.0863 -1.3740 -233.9281 -0.2464 0.6633 0.6625 0.2457 1480.0000 -5.0918 5.0919
88.5706 -1.3767 -235.2330 -0.2464 0.6633 0.6625 0.2457 1482.0000 -5.0944 5.0946
87.0549 -1.3794 -236.5378 -0.2464 0.6633 0.6625 0.2457 1484.0000 -5.0971 5.0972
85.5392 -1.3822 -237.8427 -0.2464 0.6633 0.6625 0.2457 1486.0000 -5.0997 5.0999
84.0236 -1.3849 -239.1476 -0.2464 0.6633 0.6625 0.2457 1488.0000 -5.1024 5.1027
82.5079 -1.3877 -240.4525 -0.2464 0.6633 0.6625 0.2457 1490.0000 -5.1051 5.1054
80.9922 -1.3906 -241.7574 -0.2464 0.6633 0.6625 0.2457 1492.0000 -5.1078 5.1080
79.4765 -1.3934 -243.0623 -0.2464 0.6633 0.6625 0.2457 1494.0000 -5.1105 5.1107
77.9609 -1.3962 -244.3672 -0.2464 0.6633 0.6625 0.2457 1496.0000 -5.1131 5.1134
76.4452 -1.3990 -245.6721 -0.2464 0.6633 0.6625 0.2457 1498.0000 -5.1159 5.1161
74.9295 -1.4018 -246.9770 -0.2464 0.6633 0.6625 0.2457 1500.0000 -5.1186 5.1187
73.4139 -1.4047 -248.2819 -0.2464 0.6633 0.6625 0.2457 1502.0000 -5.1213 5.1214
71.8982 -1.4075 -249.5867 -0.2464 0.6633 0.6625 0.2457 1504.0000 -5.1239 5.1241
70.3824 -1.4104 -250.8915 -0.2464 0.6633 0.6625 0.2456 1506.0000 -5.1264 5.1266
68.8664 -1.4133 -252.1960 -0.2463 0.6634 0.6625 0.2456 1508.0000 -5.1286 5.1288
67.3503 -1.4162 -253.5003 -0.2463 0.6634 0.6626 0.2455 1510.0000 -5.1306 5.1307
65.8341 -1.4191 -254.8046 -0.2463 0.6634 0.6626 0.2455 1512.0000 -5.1325 5.1326
64.3179 -1.4220 -256.1089 -0.2463 0.6634 0.6626 0.2455 1514.0000 -5.1343 5.1345
62.8017 -1.4249 -257.4132 -0.2463 0.6634 0.6625 0.2455 1516.0000 -5.1362 5.1363
61.2855 -1.4279 -258.7175 -0.2463 0.6634 0.6625 0.2455 1518.0000 -5.1381 5.1383
59.7694 -1.4308 -260.0219 -0.2463 0.6634 0.6625 0.2455 1520.0000 -5.1401 5.1402
58.2532 -1.4338 -261.3261 -0.2463 0.6634 0.6625 0.2455 1522.0000 -5.1421 5.1421
56.7371 -1.4367 -262.6305 -0.2464 0.6634 0.6625 0.2455 1524.0000 -5.1440 5.1442
55.2210 -1.4397 -263.9349 -0.2463 0.6634 0.6625 0.2455 1526.0000 -5.1460 5.1462
53.7048 -1.4427 -265.2392 -0.2463 0.6634 0.6625 0.2455 1528.0000 -5.1481 5.1481
52.1887 -1.4457 -266.5436 -0.2464 0.6634 0.6625 0.2455 1530.0000 -5.1501 5.1502
50.6727 -1.4486 -267.8481 -0.2464 0.6634 0.6625 0.2455 1532.0000 -5.1521 5.1522
49.1566 -1.4516 -269.1525 -0.2464 0.6634 0.6625 0.2455 1534.0000 -5.1542 5.1543
47.6406 -1.4546 -270.4569 -0.2464 0.6634 0.6625 0.2455 1536.0000 -5.1563 5.1564
46.1245 -1.4577 -271.7614 -0.2464 0.6634 0.6625 0.2455 1538.0000 -5.1584 5.1585
44.6085 -1.4607 -273.0658 -0.2464 0.6634 0.6625 0.2455 1540.0000 -5.1605 5.1607
43.0924 -1.4637 -274.3702 -0.2464 0.6634 0.6625 0.2455 1542.0000 -5.1626 5.1627
41.5763 -1.4667 -275.6747 -0.2464 0.6634 0.6625 0.2455 1544.0000 -5.1646 5.1647
40.0602 -1.4698 -276.9791 -0.2464 0.6634 0.6625 0.2455 1546.0000 -5.1666 5.1668
38.5441 -1.4728 -278.2834 -0.2464 0.6634 0.6625 0.2455 1548.0000 -5.1688 5.1688
37.0281 -1.4759 -279.5879 -0.2464 0.6634 0.6625 0.2455 1550.0000 -5.1708 5.1709
35.5120 -1.4790 -280.8923 -0.2464 0.6634 0.6625 0.2455 1552.0000 -5.1728 5.1730
33.9959 -1.4821 -282.1967 -0.2464 0.6634 0.6625 0.2455 1554.0000 -5.1750 5.1750
32.4798 -1.4852 -283.5011 -0.2464 0.6634 0.6625 0.2455 1556.0000 -5.1770 5.1771
30.9638 -1.4883 -284.8056 -0.2464 0.6634 0.6625 0.2455 1558.0000 -5.1791 5.1791
29.4477 -1.4914 -286.1100 -0.2464 0.6634 0.6625 0.2455 1560.0000 -5.1812 5.1813
27.9317 -1.4945 -287.4144 -0.2464 0.6634 0.6625 0.2455 1562.0000 -5.1832 5.1833
26.4156 -1.4976 -288.7189 -0.2464 0.6634 0.6625 0.2455 1564.0000 -5.1853 5.1854
24.8995 -1.5007 -290.0233 -0.2464 0.6634 0.6625 0.2455 1566.0000 -5.1873 5.1874
23.3834 -1.5038 -291.3276 -0.2464 0.6634 0.6625 0.2455 1568.0000 -5.1893 5.1894
21.8673 -1.5069 -292.6320 -0.2464 0.6634 0.6625 0.2455 1570.0000 -5.1913 5.1914
20.3511 -1.5100 -293.9363 -0.2464 0.6634 0.6625 0.2455 1572.0000 -5.1934 5.1934
18.8350 -1.5131 -295.2407 -0.2464 0.6634 0.6625 0.2455 1574.0000 -5.1953 5.1954
17.3189 -1.5162 -296.5451 -0.2464 0.6634 0.6625 0.2455 1576.0000 -5.1974 5.1974
15.8028 -1.5193 -297.8495 -0.2464 0.6634 0.6625 0.2455 1578.0000 -5.1993 5.1994
14.2866 -1.5224 -299.1538 -0.2463 0.6634 0.6625 0.2455 1580.0000 -5.2013 5.2014
12.7703 -1.5255 -300.4579 -0.2463 0.6634 0.6626 0.2454 1582.0000 -5.2030 5.2030
11.2536 -1.5286 -301.7616 -0.2462 0.6635 0.6626 0.2453 1584.0000 -5.2041 5.2041
9.7362 -1.5317 -303.0645 -0.2460 0.6635 0.6627 0.2451 1586.0000 -5.2043 5.2043
8.2183 -1.5348 -304.3668 -0.2458 0.6636 0.6627 0.2450 1588.0000 -5.2034 5.2035
6.6998 -1.5380 -305.6683 -0.2457 0.6636 0.6628 0.2448 1590.0000 -5.2018 5.2017
5.1810 -1.5411 -306.9696 -0.2457 0.6636 0.6628 0.2448 1592.0000 -5.1997 5.1996
3.6621 -1.5442 -308.2708 -0.2457 0.6636 0.6628 0.2448 1594.0000 -5.1975 5.1975
2.1433 -1.5474 -309.5720 -0.2457 0.6636 0.6628 0.2448 1596.0000 -5.1953 5.1954
0.6245 -1.5506 -310.8733 -0.2457 0.6636 0.6628 0.2448 1598.0000 -5.1932 5.1933
-0.8943 -1.5537 -312.1745 -0.2457 0.6636 0.6628 0.2448 1600.0000 -5.1912 5.1911
-2.4130 -1.5569 -313.4758 -0.2457 0.6636 0.6628 0.2448 1602.0000 -5.1891 5.1891
-3.9318 -1.5600 -314.7771 -0.2457 0.6636 0.6628 0.2448 1604.0000 -5.1870 5.1870
-5.4506 -1.5632 -316.0784 -0.2457 0.6636 0.6628 0.2448 1606.0000 -5.1850 5.1849
-6.9693 -1.5664 -317.3797 -0.2457 0.6636 0.6628 0.2448 1608.0000 -5.1829 5.1828
-8.4881 -1.5695 -318.6809 -0.2457 0.6636 0.6628 0.2448 1610.0000 -5.1808 5.1808
-10.0069 -1.5727 -319.9822 -0.2457 0.6636 0.6628 0.2448 1612.0000 -5.1787 5.1787
-11.5257 -1.5759 -321.2834 -0.2457 0.6636 0.6628 0.2448 1614.0000 -5.1766 5.1765
-13.0445 -1.5790 -322.5847 -0.2457 0.6636 0.6628 0.2448 1616.0000 -5.1745 5.1744
-14.5633 -1.5822 -323.8859 -0.2457 0.6636 0.6628 0.2448 1618.0000 -5.1724 5.1723
-16.0821 -1.5853 -325.1871 -0.2457 0.6636 0.6628 0.2448 1620.0000 -5.1702 5.1702
-17.6010 -1.5884 -326.4883 -0.2457 0.6636 0.6628 0.2448 1622.0000 -5.1680 5.1679
-19.1199 -1.5915 -327.7894 -0.2457 0.6636 0.6628 0.2448 1624.0000 -5.1657 5.1656
-20.6389 -1.5946 -329.0905 -0.2456 0.6637 0.6628 0.2448 1626.0000 -5.1633 5.1632
-22.1579 -1.5977 -330.3914 -0.2456 0.6637 0.6628 0.2448 1628.0000 -5.1608 5.1608
-23.6770 -1.6008 -331.6923 -0.2456 0.6637 0.6628 0.2447 1630.0000 -5.1582 5.1581
-25.1962 -1.6039 -332.9931 -0.2456 0.6637 0.6628 0.2447 1632.0000 -5.1556 5.1555
-26.7154 -1.6070 -334.2939 -0.2456 0.6637 0.6628 0.2447 1634.0000 -5.1529 5.1527
-28.2346 -1.6102 -335.5946 -0.2456 0.6637 0.6628 0.2447 1636.0000 -5.1500 5.1499
-29.7539 -1.6133 -336.8953 -0.2456 0.6637 0.6628 0.2447 1638.0000 -5.1472 5.1470
-31.2732 -1.6164 -338.1960 -0.2456 0.6637 0.6628 0.2447 1640.0000 -5.1442 5.1442
-32.7925 -1.6195 -339.4967 -0.2455 0.6637 0.6628 0.2447 1642.0000 -5.1414 5.1412
-34.3118 -1.6226 -340.7973 -0.2456 0.6637 0.6628 0.2447 1644.0000 -5.1385 5.1383
-35.8310 -1.6256 -342.0980 -0.2456 0.6637 0.6628 0.2447 1646.0000 -5.1357 5.1355
-37.3503 -1.6287 -343.3987 -0.2455 0.6637 0.6628 0.2447 1648.0000 -5.1327 5.1326
-38.8696 -1.6317 -344.6993 -0.2455 0.6637 0.6628 0.2447 1650.0000 -5.1298 5.1297
-40.3890 -1.6348 -346.0000 -0.2455 0.6637 0.6628 0.2447 1652.0000 -5.1269 5.1268
-41.9082 -1.6378 -347.3007 -0.2456 0.6637 0.6628 0.2447 1654.0000 -5.1242 5.1240
-43.4274 -1.6408 -348.6016 -0.2456 0.6636 0.6628 0.2448 1656.0000 -5.1215 5.1214
-44.9462 -1.6438 -349.9027 -0.2457 0.6636 0.6628 0.2449 1658.0000 -5.1192 5.1191
-46.4648 -1.6468 -351.2043 -0.2458 0.6636 0.6628 0.2450 1660.0000 -5.1175 5.1174
-47.9829 -1.6498 -352.5062 -0.2459 0.6636 0.6627 0.2450 1662.0000 -5.1163 5.1162
-49.5009 -1.6528 -353.8084 -0.2459 0.6635 0.6627 0.2451 1664.0000 -5.1154 5.1154
-51.0189 -1.6558 -355.1107 -0.2459 0.6635 0.6627 0.2451 1666.0000 -5.1147 5.1145
-52.5367 -1.6589 -356.4130 -0.2459 0.6635 0.6627 0.2451 1668.0000 -5.1138 5.1138
-54.0547 -1.6619 -357.7152 -0.2459 0.6636 0.6627 0.2450 1670.0000 -5.1130 5.1129
-55.5728 -1.6649 -359.0173 -0.2459 0.6635 0.6627 0.2451 1672.0000 -5.1123 5.1122
-57.0907 -1.6678 -360.3195 -0.2459 0.6635 0.6627 0.2451 1674.0000 -5.1114 5.1114
-58.6087 -1.6708 -361.6217 -0.2459 0.6636 0.6627 0.2450 1676.0000 -5.1106 5.1106
-60.1267 -1.6738 -362.9239 -0.2459 0.6636 0.6627 0.2450 1678.0000 -5.1098 5.1097
-61.6447 -1.6768 -364.2261 -0.2458 0.6635 0.6627 0.2451 1680.0000 -5.1090 5.1089
-63.1628 -1.6797 -365.5282 -0.2458 0.6635 0.6627 0.2451 1682.0000 -5.1082 5.1082
-64.6809 -1.6824 -366.8303 -0.2458 0.6635 0.6627 0.2451 1684.0000 -5.1075 5.1074
-66.1989 -1.6852 -368.1324 -0.2458 0.6635 0.6627 0.2451 1686.0000 -5.1067 5.1067
-67.7170 -1.6880 -369.4345 -0.2458 0.6635 0.6627 0.2451 1688.0000 -5.1060 5.1058
-69.2348 -1.6908 -370.7368 -0.2459 0.6635 0.6627 0.2451 1690.0000 -5.1052 5.1052
-70.7525 -1.6936 -372.0394 -0.2460 0.6635 0.6627 0.2452 1692.0000 -5.1049 5.1049
-72.2699 -1.6965 -373.3423 -0.2460 0.6635 0.6627 0.2453 1694.0000 -5.1050 5.1050
-73.7869 -1.6993 -374.6456 -0.2461 0.6634 0.6626 0.2454 1696.0000 -5.1055 5.1055
-75.3037 -1.7021 -375.9492 -0.2462 0.6634 0.6626 0.2454 1698.0000 -5.1065 5.1066
-76.8202 -1.7049 -377.2531 -0.2462 0.6634 0.6626 0.2455 1700.0000 -5.1078 5.1080
-78.3367 -1.7077 -378.5571 -0.2462 0.6634 0.6626 0.2455 1702.0000 -5.1094 5.1095
-79.8530 -1.7105 -379.8612 -0.2463 0.6634 0.6626 0.2455 1704.0000 -5.1111 5.1112
-81.3694 -1.7133 -381.1653 -0.2463 0.6634 0.6626 0.2455 1706.0000 -5.1128 5.1129
-82.8857 -1.7161 -382.4695 -0.2463 0.6634 0.6626 0.2455 1708.0000 -5.1145 5.1146
-84.4020 -1.7189 -383.7736 -0.2463 0.6634 0.6626 0.2455 1710.0000 -5.1161 5.1163
-85.9184 -1.7217 -385.0776 -0.2462 0.6634 0.6626 0.2455 1712.0000 -5.1178 5.1179
-87.4347 -1.7245 -386.3817 -0.2462 0.6634 0.6626 0.2455 1714.0000 -5.1194 5.1197
-88.9511 -1.7270 -387.6858 -0.2462 0.6634 0.6626 0.2455 1716.0000 -5.1211 5.1214
-90.4676 -1.7292 -388.9897 -0.2461 0.6634 0.6626 0.2456 1718.0000 -5.1229 5.1232
-91.9842 -1.7313 -390.2936 -0.2461 0.6634 0.6626 0.2456 1720.0000 -5.1249 5.1249
-93.5006 -1.7339 -391.5977 -0.2463 0.6634 0.6626 0.2455 1722.0000 -5.1266 5.1267
-95.0168 -1.7373 -392.9019 -0.2465 0.6634 0.6625 0.2454 1724.0000 -5.1280 5.1281
-96.5327 -1.7415 -394.2065 -0.2467 0.6634 0.6624 0.2453 1726.0000 -5.1290 5.1291
-98.0486 -1.7460 -395.5111 -0.2466 0.6634 0.6624 0.2453 1728.0000 -5.1299 5.1301
-99.5647 -1.7501 -396.8155 -0.2465 0.6634 0.6625 0.2454 1730.0000 -5.1311 5.1312
-101.0809 -1.7535 -398.1198 -0.2463 0.6634 0.6625 0.2455 1732.0000 -5.1325 5.1326
-102.5972 -1.7566 -399.4240 -0.2463 0.6634 0.6626 0.2455 1734.0000 -5.1339 5.1341
-104.1136 -1.7597 -400.7280 -0.2463 0.6634 0.6626 0.2454 1736.0000 -5.1356 5.1358
-105.6301 -1.7629 -402.0319 -0.2463 0.6634 0.6626 0.2454 1738.0000 -5.1374 5.1377
-107.1469 -1.7661 -403.3355 -0.2462 0.6635 0.6626 0.2452 1740.0000 -5.1396 5.1399
-108.6643 -1.7694 -404.6384 -0.2459 0.6636 0.6627 0.2450 1742.0000 -5.1427 5.1432
-110.1829 -1.7726 -405.9398 -0.2455 0.6637 0.6628 0.2446 1744.0000 -5.1478 5.1483
-111.7034 -1.7759 -407.2391 -0.2450 0.6639 0.6630 0.2441 1746.0000 -5.1557 5.1563
-113.2261 -1.7792 -408.5358 -0.2445 0.6641 0.6633 0.2435 1748.0000 -5.1669 5.1677
-114.7508 -1.7827 -409.8301 -0.2440 0.6643 0.6634 0.2430 1750.0000 -5.1812 5.1822
-116.2769 -1.7862 -411.1227 -0.2438 0.6644 0.6635 0.2427 1752.0000 -5.1977 5.1988
-117.8038 -1.7897 -412.4145 -0.2437 0.6644 0.6636 0.2426 1754.0000 -5.2158 5.2168
-119.3309 -1.7933 -413.7059 -0.2436 0.6644 0.6636 0.2426 1756.0000 -5.2349 5.2358
-120.8582 -1.7971 -414.9972 -0.2436 0.6644 0.6636 0.2426 1758.0000 -5.2553 5.2564
-122.3852 -1.8009 -416.2888 -0.2438 0.6644 0.6635 0.2427 1760.0000 -5.2781 5.2794
-123.9107 -1.8047 -417.5822 -0.2445 0.6642 0.6633 0.2434 1762.0000 -5.3050 5.3070
-125.4325 -1.8086 -418.8799 -0.2457 0.6637 0.6628 0.2446 1764.0000 -5.3388 5.3421
-126.9490 -1.8125 -420.1838 -0.2471 0.6632 0.6623 0.2460 1766.0000 -5.3814 5.3866
-128.4607 -1.8164 -421.4933 -0.2480 0.6629 0.6619 0.2469 1768.0000 -5.4321 5.4387
-129.9700 -1.8203 -422.8056 -0.2484 0.6628 0.6618 0.2472 1770.0000 -5.4871 5.4944
-131.4785 -1.8244 -424.1187 -0.2485 0.6627 0.6617 0.2473 1772.0000 -5.5431 5.5504
-132.9865 -1.8287 -425.4326 -0.2487 0.6627 0.6616 0.2475 1774.0000 -5.5977 5.6050
-134.4934 -1.8329 -426.7476 -0.2491 0.6625 0.6615 0.2478 1776.0000 -5.6502 5.6574
-135.9989 -1.8373 -428.0641 -0.2494 0.6624 0.6614 0.2481 1778.0000 -5.6998 5.7068
-137.5036 -1.8417 -429.3816 -0.2495 0.6624 0.6613 0.2482 1780.0000 -5.7461 5.7525
-139.0084 -1.8463 -430.6990 -0.2493 0.6625 0.6614 0.2480 1782.0000 -5.7878 5.7934
-140.5150 -1.8511 -432.0143 -0.2487 0.6628 0.6617 0.2472 1784.0000 -5.8241 5.8285
-142.0249 -1.8560 -433.3260 -0.2479 0.6631 0.6620 0.2464 1786.0000 -5.8543 5.8575
-143.5373 -1.8611 -434.6346 -0.2475 0.6632 0.6621 0.2459 1788.0000 -5.8797 5.8824
-145.0507 -1.8664 -435.9421 -0.2474 0.6633 0.6621 0.2458 1790.0000 -5.9034 5.9059
-146.5639 -1.8717 -437.2498 -0.2475 0.6632 0.6621 0.2459 1792.0000 -5.9272 5.9299
-148.0769 -1.8772 -438.5579 -0.2476 0.6632 0.6621 0.2460 1794.0000 -5.9518 5.9546
-149.5893 -1.8827 -439.8665 -0.2478 0.6632 0.6620 0.2461 1796.0000 -5.9770 5.9800
-151.1016 -1.8884 -441.1754 -0.2478 0.6632 0.6620 0.2460 1798.0000 -6.0027 6.0057
-152.6141 -1.8943 -442.4839 -0.2477 0.6633 0.6620 0.2459 1800.0000 -6.0282 6.0309
-154.1273 -1.9004 -443.7916 -0.2475 0.6634 0.6621 0.2455 1802.0000 -6.0524 6.0550
-155.6420 -1.9069 -445.0976 -0.2471 0.6635 0.6623 0.2451 1804.0000 -6.0746 6.0767
-157.1582 -1.9134 -446.4019 -0.2468 0.6636 0.6624 0.2448 1806.0000 -6.0945 6.0962
-158.6753 -1.9199 -447.7051 -0.2466 0.6637 0.6625 0.2446 1808.0000 -6.1128 6.1143
-160.1929 -1.9264 -449.0077 -0.2465 0.6638 0.6625 0.2445 1810.0000 -6.1303 6.1319
-161.7111 -1.9332 -450.3097 -0.2464 0.6638 0.6625 0.2442 1812.0000 -6.1475 6.1491
-163.2301 -1.9402 -451.6106 -0.2461 0.6640 0.6626 0.2440 1814.0000 -6.1646 6.1659
-164.7504 -1.9473 -452.9101 -0.2458 0.6641 0.6628 0.2436 1816.0000 -6.1808 6.1819
-166.2725 -1.9542 -454.2075 -0.2452 0.6643 0.6630 0.2431 1818.0000 -6.1952 6.1960
-167.7973 -1.9609 -455.5017 -0.2443 0.6646 0.6633 0.2422 1820.0000 -6.2067 6.2073
-169.3261 -1.9674 -456.7912 -0.2431 0.6649 0.6638 0.2412 1822.0000 -6.2144 6.2145
-170.8588 -1.9738 -458.0759 -0.2422 0.6653 0.6641 0.2403 1824.0000 -6.2184 6.2184
-172.3942 -1.9801 -459.3576 -0.2418 0.6654 0.6643 0.2398 1826.0000 -6.2209 6.2210
-173.9306 -1.9864 -460.6380 -0.2416 0.6655 0.6643 0.2397 1828.0000 -6.2241 6.2242
-175.4672 -1.9929 -461.9181 -0.2417 0.6655 0.6643 0.2396 1830.0000 -6.2283 6.2283
-177.0035 -1.9999 -463.1987 -0.2419 0.6654 0.6642 0.2397 1832.0000 -6.2332 6.2333
-178.5392 -2.0070 -464.4799 -0.2421 0.6654 0.6641 0.2398 1834.0000 -6.2389 6.2392
-180.0744 -2.0143 -465.7617 -0.2422 0.6654 0.6641 0.2399 1836.0000 -6.2454 6.2455
-181.6091 -2.0217 -467.0442 -0.2424 0.6653 0.6640 0.2401 1838.0000 -6.2524 6.2528
-183.1434 -2.0290 -468.3271 -0.2425 0.6653 0.6640 0.2402 1840.0000 -6.2601 6.2605
-184.6773 -2.0364 -469.6104 -0.2426 0.6653 0.6640 0.2403 1842.0000 -6.2684 6.2689
-186.2109 -2.0437 -470.8943 -0.2427 0.6652 0.6639 0.2404 1844.0000 -6.2774 6.2778
-187.7439 -2.0511 -472.1786 -0.2428 0.6652 0.6639 0.2405 1846.0000 -6.2869 6.2876
-189.2766 -2.0585 -473.4635 -0.2429 0.6651 0.6638 0.2406 1848.0000 -6.2972 6.2979
-190.8088 -2.0659 -474.7489 -0.2430 0.6651 0.6638 0.2407 1850.0000 -6.3081 6.3090
-192.3406 -2.0734 -476.0348 -0.2431 0.6651 0.6638 0.2408 1852.0000 -6.3197 6.3206
-193.8719 -2.0807 -477.3213 -0.2433 0.6650 0.6637 0.2410 1854.0000 -6.3320 6.3330
-195.4025 -2.0881 -478.6086 -0.2435 0.6649 0.6636 0.2412 1856.0000 -6.3453 6.3466
-196.9324 -2.0955 -479.8968 -0.2437 0.6649 0.6636 0.2414 1858.0000 -6.3598 6.3612
-198.4615 -2.1028 -481.1860 -0.2439 0.6648 0.6635 0.2416 1860.0000 -6.3756 6.3772
-199.9897 -2.1101 -482.4761 -0.2441 0.6647 0.6634 0.2418 1862.0000 -6.3926 6.3945
-201.5172 -2.1172 -483.7671 -0.2442 0.6647 0.6634 0.2420 1864.0000 -6.4108 6.4128
-203.0443 -2.1243 -485.0586 -0.2443 0.6646 0.6633 0.2421 1866.0000 -6.4297 6.4318
-204.5713 -2.1313 -486.3502 -0.2442 0.6646 0.6634 0.2421 1868.0000 -6.4487 6.4509
-206.0986 -2.1381 -487.6414 -0.2440 0.6647 0.6634 0.2419 1870.0000 -6.4673 6.4695
-207.6266 -2.1449 -488.9318 -0.2438 0.6647 0.6635 0.2418 1872.0000 -6.4850 6.4869
-209.1553 -2.1516 -490.2215 -0.2437 0.6648 0.6635 0.2417 1874.0000 -6.5016 6.5034
-210.6843 -2.1582 -491.5107 -0.2436 0.6648 0.6636 0.2416 1876.0000 -6.5177 6.5194
-212.2138 -2.1646 -492.7993 -0.2434 0.6649 0.6637 0.2414 1878.0000 -6.5330 6.5346
-213.7446 -2.1709 -494.0864 -0.2429 0.6650 0.6638 0.2410 1880.0000 -6.5465 6.5478
-215.2774 -2.1771 -495.3712 -0.2423 0.6652 0.6641 0.2405 1882.0000 -6.5570 6.5579
-216.8118 -2.1831 -496.6538 -0.2420 0.6653 0.6642 0.2402 1884.0000 -6.5647 6.5653
-218.3470 -2.1890 -497.9358 -0.2419 0.6653 0.6642 0.2401 1886.0000 -6.5709 6.5715
-219.8821 -2.1947 -499.2177 -0.2420 0.6653 0.6642 0.2402 1888.0000 -6.5769 6.5775
-221.4169 -2.2006 -500.5000 -0.2421 0.6653 0.6641 0.2402 1890.0000 -6.5832 6.5839
-222.9516 -2.2071 -501.7825 -0.2422 0.6653 0.6641 0.2401 1892.0000 -6.5903 6.5911
-224.4867 -2.2146 -503.0644 -0.2422 0.6655 0.6641 0.2397 1894.0000 -6.5987 6.5997
-226.0229 -2.2234 -504.3451 -0.2421 0.6657 0.6642 0.2391 1896.0000 -6.6090 6.6100
-227.5606 -2.2335 -505.6238 -0.2418 0.6659 0.6642 0.2384 1898.0000 -6.6203 6.6214
-229.1005 -2.2448 -506.9001 -0.2414 0.6662 0.6644 0.2376 1900.0000 -6.6316 6.6326
-230.6428 -2.2569 -508.1733 -0.2408 0.6665 0.6646 0.2368 1902.0000 -6.6414 6.6421
-232.1881 -2.2693 -509.4429 -0.2398 0.6668 0.6650 0.2358 1904.0000 -6.6480 6.6482
-233.7387 -2.2816 -510.7061 -0.2380 0.6674 0.6657 0.2340 1906.0000 -6.6480 6.6479
-235.2987 -2.2936 -511.9575 -0.2347 0.6685 0.6669 0.2308 1908.0000 -6.6362 6.6372
-236.8730 -2.3055 -513.1910 -0.2305 0.6699 0.6684 0.2266 1910.0000 -6.6089 6.6130
-238.4630 -2.3174 -514.4041 -0.2262 0.6714 0.6699 0.2223 1912.0000 -6.5713 6.5780
-240.0684 -2.3295 -515.5968 -0.2218 0.6728 0.6714 0.2178 1914.0000 -6.5342 6.5404
-241.6913 -2.3418 -516.7655 -0.2162 0.6746 0.6732 0.2120 1916.0000 -6.5053 6.5090
-243.3367 -2.3546 -517.9022 -0.2088 0.6769 0.6756 0.2043 1918.0000 -6.4868 6.4887
-245.0095 -2.3686 -518.9984 -0.2004 0.6795 0.6782 0.1954 1920.0000 -6.4767 6.4775
-246.7092 -2.3841 -520.0522 -0.1925 0.6818 0.6806 0.1868 1922.0000 -6.4718 6.4719
-248.4324 -2.4017 -521.0671 -0.1857 0.6838 0.6825 0.1792 1924.0000 -6.4748 6.4737
-250.1754 -2.4216 -522.0477 -0.1798 0.6855 0.6841 0.1725 1926.0000 -6.4917 6.4898
-251.9343 -2.4436 -522.9995 -0.1751 0.6868 0.6854 0.1671 1928.0000 -6.5229 6.5223
-253.7057 -2.4670 -523.9276 -0.1711 0.6878 0.6864 0.1627 1930.0000 -6.5623 6.5652
-255.4882 -2.4914 -524.8343 -0.1670 0.6888 0.6875 0.1583 1932.0000 -6.6040 6.6100
-257.2823 -2.5165 -525.7178 -0.1624 0.6898 0.6886 0.1534 1934.0000 -6.6436 6.6516
-259.0896 -2.5421 -526.5737 -0.1567 0.6911 0.6900 0.1476 1936.0000 -6.6793 6.6878
-260.9123 -2.5684 -527.3965 -0.1498 0.6925 0.6916 0.1404 1938.0000 -6.7108 6.7187
-262.7534 -2.5953 -528.1772 -0.1410 0.6942 0.6935 0.1314 1940.0000 -6.7382 6.7440
-264.6159 -2.6227 -528.9052 -0.1305 0.6961 0.6956 0.1206 1942.0000 -6.7585 6.7608
-266.5005 -2.6507 -529.5738 -0.1195 0.6979 0.6977 0.1094 1944.0000 -6.7670 6.7667
-268.4048 -2.6792 -530.1843 -0.1093 0.6993 0.6994 0.0991 1946.0000 -6.7658 6.7645
-270.3255 -2.7083 -530.7410 -0.1000 0.7006 0.7009 0.0894 1948.0000 -6.7603 6.7587
-272.2604 -2.7383 -531.2459 -0.0908 0.7017 0.7022 0.0798 1950.0000 -6.7527 6.7510
-274.2083 -2.7696 -531.6983 -0.0814 0.7027 0.7034 0.0699 1952.0000 -6.7430 6.7411
-276.1678 -2.8027 -532.0968 -0.0720 0.7035 0.7045 0.0597 1954.0000 -6.7306 6.7286
-278.1378 -2.8385 -532.4398 -0.0625 0.7043 0.7054 0.0491 1956.0000 -6.7157 6.7141
-280.1167 -2.8778 -532.7263 -0.0531 0.7049 0.7063 0.0384 1958.0000 -6.6999 6.6987
-282.1028 -2.9203 -532.9575 -0.0440 0.7053 0.7070 0.0284 1960.0000 -6.6857 6.6849
-284.0942 -2.9643 -533.1367 -0.0352 0.7055 0.7075 0.0196 1962.0000 -6.6755 6.6748
-286.0893 -3.0075 -533.2691 -0.0271 0.7057 0.7079 0.0121 1964.0000 -6.6708 6.6707
-288.0867 -3.0480 -533.3609 -0.0199 0.7057 0.7082 0.0061 1966.0000 -6.6739 6.6749
-290.0855 -3.0856 -533.4174 -0.0134 0.7057 0.7084 0.0005 1968.0000 -6.6869 6.6903
-292.0851 -3.1207 -533.4389 0.0066 -0.7056 -0.7085 0.0055 1970.0000 -6.7103 6.7164
-294.0847 -3.1542 -533.4217 -0.0010 -0.7055 -0.7086 0.0125 1972.0000 -6.7407 6.7487
-296.0835 -3.1861 -533.3610 -0.0094 -0.7053 -0.7086 0.0204 1974.0000 -6.7742 6.7828
-298.0802 -3.2167 -533.2517 -0.0188 -0.7049 -0.7084 0.0292 1976.0000 -6.8072 6.8147
-300.0732 -3.2456 -533.0876 -0.0295 -0.7044 -0.7081 0.0392 1978.0000 -6.8361 6.8413
-302.0601 -3.2727 -532.8614 -0.0414 -0.7036 -0.7076 0.0503 1980.0000 -6.8581 6.8609
-304.0383 -3.2973 -532.5688 -0.0540 -0.7026 -0.7068 0.0619 1982.0000 -6.8722 6.8733
-306.0054 -3.3191 -532.2089 -0.0664 -0.7015 -0.7058 0.0732 1984.0000 -6.8786 6.8787
-307.9598 -3.3378 -531.7850 -0.0780 -0.7003 -0.7047 0.0836 1986.0000 -6.8785 6.8783
-309.9011 -3.3533 -531.3042 -0.0881 -0.6991 -0.7035 0.0924 1988.0000 -6.8744 6.8742
-311.8299 -3.3650 -530.7756 -0.0968 -0.6981 -0.7024 0.0997 1990.0000 -6.8700 6.8699
-313.7466 -3.3729 -530.2047 -0.1051 -0.6970 -0.7013 0.1066 1992.0000 -6.8683 6.8682
-315.6500 -3.3771 -529.5909 -0.1138 -0.6958 -0.6999 0.1140 1994.0000 -6.8708 6.8712
-317.5381 -3.3781 -528.9315 -0.1230 -0.6944 -0.6984 0.1223 1996.0000 -6.8767 6.8773
-319.4088 -3.3774 -528.2239 -0.1322 -0.6927 -0.6968 0.1311 1998.0000 -6.8828 6.8832
-321.2604 -3.3765 -527.4682 -0.1412 -0.6909 -0.6951 0.1401 2000.0000 -6.8860 6.8861
-323.0922 -3.3763 -526.6655 -0.1497 -0.6890 -0.6933 0.1489 2002.0000 -6.8849 6.8844
-324.9034 -3.3774 -525.8173 -0.1580 -0.6870 -0.6915 0.1577 2004.0000 -6.8797 6.8785
-326.6927 -3.3801 -524.9240 -0.1667 -0.6849 -0.6895 0.1668 2006.0000 -6.8705 6.8690
-328.4570 -3.3839 -523.9821 -0.1767 -0.6823 -0.6870 0.1770 2008.0000 -6.8574 6.8559
-330.1895 -3.3878 -522.9832 -0.1892 -0.6789 -0.6837 0.1892 2010.0000 -6.8409 6.8396
-331.8805 -3.3912 -521.9156 -0.2044 -0.6746 -0.6794 0.2041 2012.0000 -6.8245 6.8239
-333.5180 -3.3938 -520.7677 -0.2221 -0.6691 -0.6739 0.2213 2014.0000 -6.8165 6.8165
-335.0918 -3.3955 -519.5339 -0.2405 -0.6628 -0.6675 0.2392 2016.0000 -6.8205 6.8207
-336.5971 -3.3962 -518.2174 -0.2579 -0.6564 -0.6610 0.2563 2018.0000 -6.8282 6.8284
-338.0341 -3.3961 -516.8267 -0.2743 -0.6499 -0.6544 0.2722 2020.0000 -6.8259 6.8249
-339.4009 -3.3950 -515.3669 -0.2907 -0.6430 -0.6473 0.2882 2022.0000 -6.8088 6.8055
-340.6913 -3.3934 -513.8391 -0.3077 -0.6352 -0.6394 0.3050 2024.0000 -6.7791 6.7737
-341.8961 -3.3916 -512.2430 -0.3257 -0.6263 -0.6304 0.3229 2026.0000 -6.7390 6.7324
-343.0057 -3.3897 -510.5794 -0.3444 -0.6164 -0.6204 0.3413 2028.0000 -6.6900 6.6846
-344.0145 -3.3872 -508.8528 -0.3625 -0.6063 -0.6100 0.3590 2030.0000 -6.6379 6.6347
-344.9253 -3.3838 -507.0725 -0.3787 -0.5966 -0.6001 0.3749 2032.0000 -6.5912 6.5898
-345.7449 -3.3796 -505.2484 -0.3932 -0.5875 -0.5907 0.3891 2034.0000 -6.5552 6.5545
-346.4792 -3.3752 -503.3882 -0.4062 -0.5787 -0.5818 0.4021 2036.0000 -6.5281 6.5273
-347.1324 -3.3709 -501.4981 -0.4183 -0.5700 -0.5731 0.4143 2038.0000 -6.5042 6.5027
-347.7063 -3.3671 -499.5824 -0.4300 -0.5613 -0.5643 0.4261 2040.0000 -6.4785 6.4759
-348.2010 -3.3636 -497.6447 -0.4413 -0.5526 -0.5555 0.4374 2042.0000 -6.4492 6.4446
-348.6204 -3.3597 -495.6892 -0.4514 -0.5447 -0.5473 0.4473 2044.0000 -6.4150 6.4074
-348.9756 -3.3543 -493.7211 -0.4594 -0.5385 -0.5405 0.4547 2046.0000 -6.3747 6.3633
-349.2819 -3.3465 -491.7448 -0.4656 -0.5339 -0.5352 0.4602 2048.0000 -6.3284 6.3159
-349.5475 -3.3363 -489.7625 -0.4714 -0.5293 -0.5301 0.4655 2050.0000 -6.2830 6.2756
-349.7708 -3.3245 -487.7751 -0.4771 -0.5245 -0.5248 0.4710 2052.0000 -6.2506 6.2492
-349.9543 -3.3121 -485.7836 -0.4818 -0.5203 -0.5205 0.4756 2054.0000 -6.2376 6.2379
-350.1090 -3.2997 -483.7896 -0.4846 -0.5177 -0.5179 0.4784 2056.0000 -6.2421 6.2408
-350.2488 -3.2877 -481.7946 -0.4857 -0.5166 -0.5169 0.4797 2058.0000 -6.2582 6.2553
-350.3832 -3.2760 -479.7991 -0.4860 -0.5163 -0.5166 0.4800 2060.0000 -6.2798 6.2762
-350.5168 -3.2645 -477.8036 -0.4859 -0.5163 -0.5167 0.4800 2062.0000 -6.3034 6.2997
-350.6509 -3.2531 -475.8082 -0.4859 -0.5163 -0.5167 0.4800 2064.0000 -6.3274 6.3239
-350.7852 -3.2417 -473.8127 -0.4859 -0.5163 -0.5167 0.4800 2066.0000 -6.3519 6.3484
-350.9193 -3.2302 -471.8173 -0.4859 -0.5163 -0.5166 0.4800 2068.0000 -6.3770 6.3735
-351.0528 -3.2185 -469.8217 -0.4860 -0.5162 -0.5166 0.4801 2070.0000 -6.4031 6.3994
-351.1857 -3.2069 -467.8262 -0.4861 -0.5161 -0.5165 0.4801 2072.0000 -6.4296 6.4261
-351.3179 -3.1952 -465.8306 -0.4862 -0.5160 -0.5163 0.4803 2074.0000 -6.4560 6.4526
-351.4487 -3.1834 -463.8349 -0.4865 -0.5158 -0.5161 0.4805 2076.0000 -6.4812 6.4779
-351.5771 -3.1717 -461.8391 -0.4869 -0.5155 -0.5158 0.4809 2078.0000 -6.5036 6.5005
-351.7023 -3.1599 -459.8430 -0.4873 -0.5151 -0.5154 0.4813 2080.0000 -6.5225 6.5197
-351.8246 -3.1482 -457.8468 -0.4876 -0.5148 -0.5151 0.4816 2082.0000 -6.5381 6.5358
-351.9453 -3.1364 -455.8505 -0.4877 -0.5147 -0.5150 0.4817 2084.0000 -6.5519 6.5497
-352.0662 -3.1246 -453.8542 -0.4876 -0.5148 -0.5151 0.4816 2086.0000 -6.5635 6.5618
-352.1886 -3.1128 -451.8580 -0.4873 -0.5151 -0.5153 0.4813 2088.0000 -6.5724 6.5713
-352.3134 -3.1009 -449.8619 -0.4869 -0.5154 -0.5157 0.4809 2090.0000 -6.5774 6.5771
-352.4421 -3.0891 -447.8661 -0.4863 -0.5160 -0.5163 0.4803 2092.0000 -6.5774 6.5777
-352.5765 -3.0774 -445.8706 -0.4855 -0.5167 -0.5171 0.4795 2094.0000 -6.5708 6.5718
-352.7167 -3.0657 -443.8756 -0.4848 -0.5173 -0.5177 0.4789 2096.0000 -6.5587 6.5597
-352.8604 -3.0540 -441.8808 -0.4846 -0.5176 -0.5179 0.4786 2098.0000 -6.5431 6.5441
-353.0052 -3.0425 -439.8861 -0.4845 -0.5176 -0.5180 0.4786 2100.0000 -6.5264 6.5273
-353.1501 -3.0309 -437.8914 -0.4845 -0.5176 -0.5180 0.4786 2102.0000 -6.5095 6.5103
-353.2955 -3.0193 -435.8967 -0.4844 -0.5178 -0.5181 0.4784 2104.0000 -6.4928 6.4934
-353.4440 -3.0073 -433.9023 -0.4837 -0.5185 -0.5187 0.4776 2106.0000 -6.4764 6.4770
-353.6016 -2.9945 -431.9085 -0.4821 -0.5203 -0.5202 0.4757 2108.0000 -6.4605 6.4611
-353.7785 -2.9803 -429.9164 -0.4790 -0.5234 -0.5231 0.4721 2110.0000 -6.4459 6.4470
-353.9868 -2.9645 -427.9274 -0.4743 -0.5280 -0.5274 0.4670 2112.0000 -6.4379 6.4386
-354.2381 -2.9473 -425.9434 -0.4680 -0.5338 -0.5330 0.4603 2114.0000 -6.4436 6.4416
-354.5415 -2.9289 -423.9667 -0.4607 -0.5403 -0.5394 0.4526 2116.0000 -6.4652 6.4595
-354.9031 -2.9093 -421.9998 -0.4525 -0.5473 -0.5464 0.4440 2118.0000 -6.4997 6.4903
-355.3282 -2.8883 -420.0457 -0.4434 -0.5550 -0.5538 0.4344 2120.0000 -6.5406 6.5295
-355.8239 -2.8655 -418.1084 -0.4327 -0.5635 -0.5622 0.4232 2122.0000 -6.5791 6.5708
-356.4001 -2.8412 -416.1935 -0.4204 -0.5728 -0.5716 0.4104 2124.0000 -6.6050 6.6024
-357.0621 -2.8161 -414.3066 -0.4075 -0.5819 -0.5808 0.3975 2126.0000 -6.6144 6.6144
-357.8051 -2.7916 -412.4500 -0.3952 -0.5898 -0.5893 0.3855 2128.0000 -6.6131 6.6130
-358.6213 -2.7687 -410.6244 -0.3836 -0.5969 -0.5969 0.3744 2130.0000 -6.6098 6.6098
-359.5051 -2.7478 -408.8306 -0.3723 -0.6035 -0.6041 0.3637 2132.0000 -6.6090 6.6092
-360.4536 -2.7289 -407.0700 -0.3611 -0.6097 -0.6109 0.3531 2134.0000 -6.6098 6.6099
-361.4635 -2.7116 -405.3439 -0.3503 -0.6157 -0.6171 0.3427 2136.0000 -6.6078 6.6076
-362.5318 -2.6954 -403.6533 -0.3397 -0.6212 -0.6230 0.3324 2138.0000 -6.5988 6.5985
-363.6556 -2.6800 -401.9991 -0.3293 -0.6266 -0.6286 0.3223 2140.0000 -6.5820 6.5834
-364.8330 -2.6652 -400.3826 -0.3188 -0.6318 -0.6340 0.3120 2142.0000 -6.5631 6.5666
-366.0649 -2.6506 -398.8072 -0.3074 -0.6372 -0.6396 0.3006 2144.0000 -6.5492 6.5525
-367.3556 -2.6362 -397.2796 -0.2946 -0.6431 -0.6456 0.2879 2146.0000 -6.5424 6.5440
-368.7075 -2.6220 -395.8061 -0.2811 -0.6489 -0.6515 0.2746 2148.0000 -6.5397 6.5400
-370.1183 -2.6084 -394.3886 -0.2682 -0.6541 -0.6570 0.2620 2150.0000 -6.5395 6.5394
-371.5811 -2.5957 -393.0250 -0.2561 -0.6587 -0.6617 0.2503 2152.0000 -6.5431 6.5430
-373.0910 -2.5844 -391.7137 -0.2444 -0.6628 -0.6661 0.2392 2154.0000 -6.5493 6.5490
