VERSION 0.7
FIELDS x y z i j k w r ib_distance ob_distance
SIZE 4 4 4 4 4 4 4 4 4 4
TYPE F F F F F F F F F F
COUNT 1 1 1 1 1 1 1 1 1 1
WIDTH 586
HEIGHT 1
VIEWPOINT -0.625 0.327 0.325 0.630 -558.457 -10.415 467.204
POINTS 586
DATA ascii
171.0909 -1.4765 60.7641 -0.5726 -0.4151 -0.4174 0.5706 1017.5000 -7.9779 7.9866
171.8614 -1.4747 63.1414 -0.5741 -0.4149 -0.4154 0.5707 1020.0000 -8.0094 8.0307
172.6480 -1.4666 65.5130 -0.5765 -0.4126 -0.4120 0.5724 1022.5000 -8.0433 8.0750
173.4660 -1.4554 67.8739 -0.5800 -0.4080 -0.4070 0.5757 1025.0000 -8.0731 8.1073
174.3310 -1.4445 70.2193 -0.5844 -0.4012 -0.4005 0.5806 1027.5000 -8.0904 8.1156
175.2584 -1.4375 72.5441 -0.5898 -0.3920 -0.3925 0.5869 1030.0000 -8.0846 8.0889
176.2643 -1.4368 74.8412 -0.5965 -0.3801 -0.3820 0.5948 1032.5000 -8.0460 8.0202
177.3683 -1.4413 77.0915 -0.6053 -0.3650 -0.3677 0.6043 1035.0000 -7.9767 7.9209
178.5908 -1.4487 79.2721 -0.6160 -0.3463 -0.3493 0.6153 1037.5000 -7.8816 7.8030
179.9525 -1.4566 81.3602 -0.6282 -0.3238 -0.3264 0.6277 1040.0000 -7.7629 7.6720
181.4739 -1.4626 83.3328 -0.6415 -0.2973 -0.2989 0.6409 1042.5000 -7.6194 7.5273
183.1694 -1.4649 85.1673 -0.6545 -0.2683 -0.2688 0.6538 1045.0000 -7.4484 7.3632
185.0293 -1.4644 86.8407 -0.6662 -0.2379 -0.2376 0.6657 1047.5000 -7.2618 7.1902
187.0383 -1.4625 88.3302 -0.6767 -0.2057 -0.2051 0.6766 1050.0000 -7.0802 7.0283
189.1809 -1.4605 89.6128 -0.6859 -0.1713 -0.1707 0.6864 1052.5000 -6.9251 6.8968
191.4415 -1.4597 90.6665 -0.6936 -0.1349 -0.1347 0.6947 1055.0000 -6.8165 6.8090
193.7995 -1.4601 91.4784 -0.6994 -0.0986 -0.0985 0.7010 1057.5000 -6.7555 6.7573
196.2310 -1.4610 92.0423 -0.7033 -0.0622 -0.0622 0.7054 1060.0000 -6.7262 6.7272
198.7122 -1.4612 92.3525 -0.7053 -0.0257 -0.0255 0.7079 1062.5000 -6.7112 6.7034
201.2189 -1.4599 92.4028 -0.7055 0.0112 0.0118 0.7085 1065.0000 -6.6929 6.6719
203.7248 -1.4565 92.1880 -0.7036 0.0486 0.0495 0.7072 1067.5000 -6.6574 6.6256
206.1916 -1.4518 91.7053 -0.6997 0.0872 0.0881 0.7036 1070.0000 -6.6072 6.5716
208.5780 -1.4471 90.9523 -0.6933 0.1278 0.1282 0.6976 1072.5000 -6.5503 6.5179
210.8426 -1.4435 89.9270 -0.6839 0.1710 0.1706 0.6884 1075.0000 -6.4928 6.4693
212.9439 -1.4425 88.6272 -0.6710 0.2169 0.2153 0.6755 1077.5000 -6.4369 6.4250
214.8580 -1.4440 87.0657 -0.6566 0.2581 0.2557 0.6610 1080.0000 -6.3848 6.3784
216.5985 -1.4460 85.2872 -0.6427 0.2912 0.2887 0.6471 1082.5000 -6.3479 6.3409
218.1838 -1.4460 83.3406 -0.6302 0.3168 0.3150 0.6350 1085.0000 -6.3321 6.3238
219.6326 -1.4416 81.2750 -0.6196 0.3359 0.3354 0.6251 1087.5000 -6.3362 6.3291
220.9633 -1.4303 79.1382 -0.6110 0.3497 0.3509 0.6175 1090.0000 -6.3549 6.3503
222.1961 -1.4127 76.9581 -0.6039 0.3607 0.3630 0.6111 1092.5000 -6.3841 6.3803
223.3521 -1.3917 74.7440 -0.5985 0.3693 0.3719 0.6059 1095.0000 -6.4225 6.4194
224.4526 -1.3706 72.5046 -0.5949 0.3755 0.3777 0.6021 1097.5000 -6.4675 6.4665
225.5190 -1.3524 70.2483 -0.5932 0.3792 0.3803 0.5998 1100.0000 -6.5149 6.5178
226.5711 -1.3401 67.9832 -0.5929 0.3812 0.3807 0.5985 1102.5000 -6.5606 6.5673
227.6134 -1.3333 65.7116 -0.5922 0.3834 0.3819 0.5971 1105.0000 -6.6046 6.6129
228.6411 -1.3301 63.4322 -0.5909 0.3860 0.3838 0.5954 1107.5000 -6.6473 6.6558
229.6495 -1.3284 61.1436 -0.5891 0.3889 0.3866 0.5935 1110.0000 -6.6893 6.6967
230.6336 -1.3260 58.8446 -0.5868 0.3921 0.3902 0.5914 1112.5000 -6.7307 6.7367
231.5893 -1.3213 56.5342 -0.5841 0.3955 0.3941 0.5891 1115.0000 -6.7714 6.7758
232.5173 -1.3143 54.2128 -0.5817 0.3986 0.3977 0.5870 1117.5000 -6.8096 6.8129
233.4195 -1.3059 51.8815 -0.5795 0.4016 0.4009 0.5850 1120.0000 -6.8438 6.8463
234.2984 -1.2967 49.5412 -0.5776 0.4043 0.4037 0.5831 1122.5000 -6.8724 6.8742
235.1559 -1.2876 47.1929 -0.5759 0.4069 0.4061 0.5813 1125.0000 -6.8936 6.8949
235.9939 -1.2791 44.8376 -0.5743 0.4093 0.4084 0.5796 1127.5000 -6.9064 6.9072
236.8125 -1.2713 42.4754 -0.5726 0.4118 0.4107 0.5778 1130.0000 -6.9119 6.9122
237.6116 -1.2640 40.1066 -0.5710 0.4142 0.4130 0.5761 1132.5000 -6.9114 6.9113
238.3911 -1.2571 37.7312 -0.5693 0.4166 0.4153 0.5743 1135.0000 -6.9064 6.9060
239.1510 -1.2505 35.3495 -0.5676 0.4190 0.4177 0.5726 1137.5000 -6.8983 6.8977
239.8910 -1.2442 32.9616 -0.5659 0.4214 0.4200 0.5708 1140.0000 -6.8880 6.8873
240.6114 -1.2382 30.5677 -0.5642 0.4238 0.4222 0.5690 1142.5000 -6.8763 6.8755
241.3123 -1.2327 28.1680 -0.5626 0.4261 0.4245 0.5672 1145.0000 -6.8635 6.8627
241.9938 -1.2278 25.7627 -0.5609 0.4285 0.4266 0.5655 1147.5000 -6.8501 6.8494
242.6560 -1.2237 23.3519 -0.5593 0.4309 0.4288 0.5637 1150.0000 -6.8367 6.8359
243.2983 -1.2204 20.9357 -0.5575 0.4333 0.4311 0.5618 1152.5000 -6.8237 6.8231
243.9194 -1.2178 18.5140 -0.5556 0.4359 0.4335 0.5597 1155.0000 -6.8120 6.8116
244.5179 -1.2159 16.0867 -0.5536 0.4387 0.4361 0.5576 1157.5000 -6.8024 6.8022
245.0923 -1.2146 13.6538 -0.5514 0.4416 0.4389 0.5553 1160.0000 -6.7957 6.7956
245.6416 -1.2139 11.2151 -0.5492 0.4445 0.4417 0.5529 1162.5000 -6.7925 6.7926
246.1673 -1.2137 8.7712 -0.5473 0.4470 0.4441 0.5509 1165.0000 -6.7938 6.7938
246.6729 -1.2138 6.3229 -0.5456 0.4491 0.4461 0.5492 1167.5000 -6.8003 6.8003
247.1620 -1.2140 3.8710 -0.5443 0.4507 0.4477 0.5478 1170.0000 -6.8128 6.8129
247.6381 -1.2142 1.4166 -0.5433 0.4519 0.4490 0.5468 1172.5000 -6.8319 6.8324
248.1044 -1.2143 -1.0397 -0.5424 0.4530 0.4500 0.5460 1175.0000 -6.8579 6.8592
248.5605 -1.2142 -3.4977 -0.5414 0.4542 0.4513 0.5450 1177.5000 -6.8882 6.8900
249.0050 -1.2141 -5.9579 -0.5403 0.4555 0.4526 0.5438 1180.0000 -6.9185 6.9206
249.4361 -1.2139 -8.4204 -0.5390 0.4571 0.4542 0.5425 1182.5000 -6.9446 6.9464
249.8524 -1.2138 -10.8854 -0.5375 0.4588 0.4559 0.5410 1185.0000 -6.9623 6.9633
250.2522 -1.2137 -13.3532 -0.5360 0.4607 0.4577 0.5394 1187.5000 -6.9685 6.9685
250.6346 -1.2137 -15.8238 -0.5343 0.4627 0.4597 0.5377 1190.0000 -6.9653 6.9647
250.9982 -1.2138 -18.2972 -0.5325 0.4647 0.4618 0.5359 1192.5000 -6.9564 6.9555
251.3420 -1.2138 -20.7734 -0.5306 0.4669 0.4640 0.5340 1195.0000 -6.9454 6.9445
251.6650 -1.2139 -23.2525 -0.5286 0.4692 0.4663 0.5320 1197.5000 -6.9359 6.9353
251.9662 -1.2139 -25.7342 -0.5266 0.4715 0.4686 0.5299 1200.0000 -6.9297 6.9294
252.2456 -1.2139 -28.2186 -0.5245 0.4739 0.4709 0.5278 1202.5000 -6.9246 6.9244
252.5030 -1.2139 -30.7053 -0.5224 0.4762 0.4732 0.5257 1205.0000 -6.9180 6.9176
252.7384 -1.2139 -33.1942 -0.5203 0.4785 0.4756 0.5236 1207.5000 -6.9069 6.9063
252.9516 -1.2140 -35.6850 -0.5182 0.4808 0.4779 0.5214 1210.0000 -6.8886 6.8879
253.1423 -1.2141 -38.1777 -0.5160 0.4832 0.4802 0.5192 1212.5000 -6.8612 6.8606
253.3100 -1.2142 -40.6721 -0.5138 0.4856 0.4827 0.5169 1215.0000 -6.8241 6.8237
253.4541 -1.2144 -43.1679 -0.5115 0.4881 0.4851 0.5146 1217.5000 -6.7765 6.7768
253.5738 -1.2146 -45.6650 -0.5091 0.4906 0.4876 0.5121 1220.0000 -6.7178 6.7193
253.6687 -1.2148 -48.1634 -0.5067 0.4932 0.4902 0.5097 1222.5000 -6.6477 6.6508
253.7392 -1.2151 -50.6626 -0.5043 0.4956 0.4926 0.5073 1225.0000 -6.5716 6.5759
253.7863 -1.2153 -53.1623 -0.5021 0.4979 0.4949 0.5050 1227.5000 -6.4986 6.5033
253.8112 -1.2156 -55.6621 -0.5000 0.5001 0.4971 0.5029 1230.0000 -6.4380 6.4417
253.8150 -1.2158 -58.1618 -0.4979 0.5021 0.4992 0.5008 1232.5000 -6.3987 6.4001
253.7983 -1.2161 -60.6609 -0.4958 0.5042 0.5013 0.4986 1235.0000 -6.3887 6.3864
253.7580 -1.2162 -63.1595 -0.4932 0.5068 0.5039 0.4960 1237.5000 -6.4072 6.4008
253.6892 -1.2163 -65.6578 -0.4901 0.5098 0.5069 0.4929 1240.0000 -6.4497 6.4402
253.5871 -1.2162 -68.1560 -0.4864 0.5133 0.5105 0.4892 1242.5000 -6.5117 6.5014
253.4469 -1.2159 -70.6542 -0.4823 0.5172 0.5144 0.4851 1245.0000 -6.5883 6.5813
253.2610 -1.2154 -73.1516 -0.4767 0.5224 0.5196 0.4795 1247.5000 -6.6751 6.6745
253.0102 -1.2147 -75.6421 -0.4687 0.5296 0.5269 0.4714 1250.0000 -6.7665 6.7703
252.6725 -1.2140 -78.1188 -0.4582 0.5388 0.5362 0.4607 1252.5000 -6.8538 6.8574
252.2259 -1.2135 -80.5744 -0.4450 0.5499 0.5473 0.4473 1255.0000 -6.9250 6.9243
251.6483 -1.2132 -83.0018 -0.4291 0.5626 0.5600 0.4311 1257.5000 -6.9641 6.9596
250.9264 -1.2133 -85.3933 -0.4123 0.5751 0.5726 0.4140 1260.0000 -6.9644 6.9601
250.0632 -1.2136 -87.7399 -0.3953 0.5870 0.5846 0.3967 1262.5000 -6.9370 6.9351
249.0633 -1.2140 -90.0325 -0.3781 0.5983 0.5961 0.3793 1265.0000 -6.8949 6.8953
247.9314 -1.2144 -92.2621 -0.3605 0.6090 0.6070 0.3616 1267.5000 -6.8502 6.8516
246.6725 -1.2146 -94.4198 -0.3429 0.6190 0.6173 0.3438 1270.0000 -6.8141 6.8138
245.2967 -1.2148 -96.5041 -0.3267 0.6277 0.6262 0.3274 1272.5000 -6.7891 6.7853
243.8183 -1.2149 -98.5191 -0.3120 0.6351 0.6337 0.3127 1275.0000 -6.7705 6.7631
242.2520 -1.2149 -100.4694 -0.2991 0.6412 0.6400 0.2996 1277.5000 -6.7532 6.7435
240.6122 -1.2150 -102.3592 -0.2878 0.6463 0.6453 0.2882 1280.0000 -6.7322 6.7215
238.9131 -1.2152 -104.1936 -0.2782 0.6505 0.6495 0.2786 1282.5000 -6.7031 6.6930
237.1664 -1.2154 -105.9813 -0.2705 0.6537 0.6528 0.2708 1285.0000 -6.6681 6.6603
235.3827 -1.2157 -107.7325 -0.2647 0.6560 0.6553 0.2650 1287.5000 -6.6326 6.6276
233.5729 -1.2160 -109.4574 -0.2608 0.6575 0.6568 0.2610 1290.0000 -6.6012 6.5983
231.7475 -1.2162 -111.1663 -0.2589 0.6583 0.6576 0.2591 1292.5000 -6.5772 6.5756
229.9154 -1.2162 -112.8678 -0.2579 0.6587 0.6580 0.2581 1295.0000 -6.5622 6.5612
228.0787 -1.2163 -114.5639 -0.2570 0.6590 0.6584 0.2572 1297.5000 -6.5533 6.5524
226.2379 -1.2163 -116.2553 -0.2563 0.6593 0.6587 0.2565 1300.0000 -6.5467 6.5454
224.3935 -1.2164 -117.9428 -0.2556 0.6596 0.6589 0.2558 1302.5000 -6.5383 6.5361
222.5461 -1.2166 -119.6269 -0.2551 0.6598 0.6591 0.2553 1305.0000 -6.5242 6.5206
220.6961 -1.2170 -121.3084 -0.2547 0.6600 0.6593 0.2548 1307.5000 -6.5019 6.4971
218.8439 -1.2175 -122.9875 -0.2543 0.6601 0.6595 0.2544 1310.0000 -6.4728 6.4671
216.9899 -1.2182 -124.6646 -0.2540 0.6602 0.6596 0.2540 1312.5000 -6.4386 6.4325
215.1343 -1.2189 -126.3400 -0.2537 0.6603 0.6597 0.2537 1315.0000 -6.4014 6.3952
213.2776 -1.2197 -128.0141 -0.2535 0.6604 0.6598 0.2535 1317.5000 -6.3629 6.3570
211.4199 -1.2205 -129.6872 -0.2534 0.6605 0.6598 0.2534 1320.0000 -6.3241 6.3184
209.5614 -1.2214 -131.3593 -0.2532 0.6605 0.6599 0.2532 1322.5000 -6.2843 6.2788
207.7022 -1.2224 -133.0306 -0.2531 0.6606 0.6599 0.2531 1325.0000 -6.2428 6.2373
205.8424 -1.2234 -134.7013 -0.2530 0.6606 0.6600 0.2529 1327.5000 -6.1990 6.1934
203.9821 -1.2245 -136.3715 -0.2529 0.6607 0.6600 0.2528 1330.0000 -6.1520 6.1463
202.1208 -1.2257 -138.0404 -0.2526 0.6608 0.6601 0.2525 1332.5000 -6.1027 6.0973
200.2572 -1.2270 -139.7069 -0.2521 0.6610 0.6603 0.2519 1335.0000 -6.0529 6.0480
198.3905 -1.2283 -141.3698 -0.2513 0.6613 0.6606 0.2512 1337.5000 -6.0045 6.0004
196.5194 -1.2297 -143.0278 -0.2504 0.6617 0.6610 0.2502 1340.0000 -5.9594 5.9563
194.6432 -1.2310 -144.6800 -0.2493 0.6620 0.6614 0.2492 1342.5000 -5.9192 5.9171
192.7624 -1.2324 -146.3269 -0.2485 0.6624 0.6617 0.2483 1345.0000 -5.8839 5.8823
190.8779 -1.2338 -147.9697 -0.2479 0.6626 0.6619 0.2477 1347.5000 -5.8524 5.8512
188.9909 -1.2353 -149.6096 -0.2475 0.6627 0.6621 0.2473 1350.0000 -5.8237 5.8226
187.1025 -1.2369 -151.2479 -0.2473 0.6628 0.6622 0.2471 1352.5000 -5.7968 5.7958
185.2133 -1.2386 -152.8853 -0.2472 0.6629 0.6622 0.2469 1355.0000 -5.7711 5.7702
183.3231 -1.2404 -154.5216 -0.2470 0.6630 0.6623 0.2466 1357.5000 -5.7474 5.7466
181.4314 -1.2423 -156.1559 -0.2466 0.6631 0.6625 0.2463 1360.0000 -5.7268 5.7262
179.5374 -1.2442 -157.7878 -0.2461 0.6633 0.6626 0.2457 1362.5000 -5.7106 5.7102
177.6407 -1.2461 -159.4164 -0.2455 0.6635 0.6629 0.2451 1365.0000 -5.6998 5.6997
175.7412 -1.2480 -161.0417 -0.2450 0.6637 0.6631 0.2447 1367.5000 -5.6948 5.6948
173.8399 -1.2499 -162.6651 -0.2448 0.6638 0.6631 0.2444 1370.0000 -5.6944 5.6944
171.9381 -1.2518 -164.2878 -0.2448 0.6638 0.6631 0.2444 1372.5000 -5.6970 5.6971
170.0370 -1.2538 -165.9113 -0.2450 0.6637 0.6630 0.2447 1375.0000 -5.7011 5.7013
168.1377 -1.2558 -167.5369 -0.2455 0.6635 0.6629 0.2451 1377.5000 -5.7053 5.7055
166.2407 -1.2579 -169.1652 -0.2460 0.6634 0.6627 0.2456 1380.0000 -5.7088 5.7090
164.3457 -1.2601 -170.7958 -0.2463 0.6632 0.6625 0.2459 1382.5000 -5.7116 5.7117
162.4522 -1.2622 -172.4283 -0.2466 0.6631 0.6624 0.2462 1385.0000 -5.7137 5.7138
160.5600 -1.2645 -174.0621 -0.2468 0.6630 0.6624 0.2464 1387.5000 -5.7151 5.7151
158.6686 -1.2667 -175.6970 -0.2470 0.6630 0.6623 0.2465 1390.0000 -5.7159 5.7158
156.7775 -1.2690 -177.3321 -0.2469 0.6630 0.6623 0.2465 1392.5000 -5.7156 5.7155
154.8859 -1.2712 -178.9667 -0.2468 0.6631 0.6624 0.2464 1395.0000 -5.7138 5.7136
152.9933 -1.2736 -180.6001 -0.2465 0.6632 0.6625 0.2461 1397.5000 -5.7099 5.7095
151.0989 -1.2759 -182.2315 -0.2461 0.6633 0.6626 0.2456 1400.0000 -5.7031 5.7027
149.2022 -1.2783 -183.8601 -0.2456 0.6635 0.6628 0.2451 1402.5000 -5.6931 5.6926
147.3029 -1.2808 -185.4857 -0.2451 0.6637 0.6630 0.2446 1405.0000 -5.6795 5.6789
145.4010 -1.2834 -187.1083 -0.2446 0.6639 0.6632 0.2440 1407.5000 -5.6622 5.6615
143.4965 -1.2861 -188.7278 -0.2440 0.6641 0.6634 0.2435 1410.0000 -5.6411 5.6404
141.5892 -1.2889 -190.3441 -0.2435 0.6643 0.6636 0.2429 1412.5000 -5.6161 5.6155
139.6794 -1.2919 -191.9574 -0.2430 0.6645 0.6638 0.2424 1415.0000 -5.5874 5.5869
137.7675 -1.2950 -193.5680 -0.2426 0.6647 0.6639 0.2420 1417.5000 -5.5558 5.5554
135.8538 -1.2982 -195.1767 -0.2424 0.6648 0.6640 0.2417 1420.0000 -5.5226 5.5222
133.9390 -1.3013 -196.7841 -0.2422 0.6648 0.6641 0.2415 1422.5000 -5.4889 5.4885
132.0237 -1.3044 -198.3908 -0.2421 0.6648 0.6641 0.2414 1425.0000 -5.4558 5.4554
130.1081 -1.3073 -199.9972 -0.2421 0.6648 0.6642 0.2414 1427.5000 -5.4240 5.4235
128.1927 -1.3102 -201.6038 -0.2421 0.6648 0.6641 0.2415 1430.0000 -5.3938 5.3932
126.2778 -1.3130 -203.2110 -0.2423 0.6648 0.6641 0.2416 1432.5000 -5.3651 5.3645
124.3636 -1.3159 -204.8191 -0.2424 0.6647 0.6640 0.2418 1435.0000 -5.3381 5.3374
122.4504 -1.3189 -206.4284 -0.2427 0.6646 0.6639 0.2420 1437.5000 -5.3128 5.3120
120.5383 -1.3220 -208.0389 -0.2429 0.6646 0.6638 0.2422 1440.0000 -5.2889 5.2881
118.6271 -1.3252 -209.6504 -0.2430 0.6645 0.6638 0.2423 1442.5000 -5.2662 5.2654
116.7162 -1.3285 -211.2625 -0.2431 0.6645 0.6638 0.2424 1445.0000 -5.2442 5.2434
114.8055 -1.3318 -212.8747 -0.2431 0.6645 0.6638 0.2424 1447.5000 -5.2224 5.2217
112.8947 -1.3350 -214.4868 -0.2431 0.6645 0.6638 0.2424 1450.0000 -5.2005 5.1999
110.9839 -1.3382 -216.0989 -0.2431 0.6645 0.6638 0.2424 1452.5000 -5.1788 5.1782
109.0736 -1.3414 -217.7115 -0.2433 0.6644 0.6637 0.2426 1455.0000 -5.1579 5.1573
107.1642 -1.3445 -219.3253 -0.2435 0.6643 0.6636 0.2428 1457.5000 -5.1385 5.1379
105.2563 -1.3477 -220.9408 -0.2439 0.6642 0.6635 0.2432 1460.0000 -5.1214 5.1208
103.3503 -1.3509 -222.5585 -0.2443 0.6641 0.6633 0.2436 1462.5000 -5.1070 5.1065
101.4462 -1.3541 -224.1786 -0.2447 0.6639 0.6632 0.2440 1465.0000 -5.0957 5.0953
99.5442 -1.3574 -225.8010 -0.2451 0.6638 0.6630 0.2444 1467.5000 -5.0875 5.0872
97.6441 -1.3606 -227.4258 -0.2455 0.6636 0.6629 0.2448 1470.0000 -5.0823 5.0821
95.7461 -1.3639 -229.0529 -0.2459 0.6635 0.6627 0.2452 1472.5000 -5.0802 5.0802
93.8500 -1.3672 -230.6822 -0.2463 0.6634 0.6626 0.2455 1475.0000 -5.0810 5.0812
91.9553 -1.3706 -232.3132 -0.2465 0.6633 0.6625 0.2458 1477.5000 -5.0841 5.0844
90.0615 -1.3740 -233.9453 -0.2466 0.6632 0.6624 0.2459 1480.0000 -5.0886 5.0889
88.1681 -1.3774 -235.5777 -0.2467 0.6632 0.6624 0.2459 1482.5000 -5.0937 5.0941
86.2745 -1.3808 -237.2100 -0.2466 0.6633 0.6625 0.2458 1485.0000 -5.0986 5.0989
84.3804 -1.3843 -238.8416 -0.2465 0.6633 0.6625 0.2457 1487.5000 -5.1027 5.1029
82.4858 -1.3878 -240.4728 -0.2464 0.6633 0.6625 0.2457 1490.0000 -5.1062 5.1064
80.5911 -1.3913 -242.1037 -0.2464 0.6633 0.6625 0.2456 1492.5000 -5.1092 5.1094
78.6962 -1.3948 -243.7345 -0.2464 0.6633 0.6625 0.2456 1495.0000 -5.1121 5.1123
76.8014 -1.3984 -245.3653 -0.2464 0.6633 0.6625 0.2456 1497.5000 -5.1151 5.1153
74.9067 -1.4019 -246.9963 -0.2464 0.6633 0.6625 0.2457 1500.0000 -5.1183 5.1185
73.0121 -1.4055 -248.6274 -0.2464 0.6633 0.6625 0.2457 1502.5000 -5.1216 5.1218
71.1174 -1.4090 -250.2584 -0.2464 0.6633 0.6625 0.2456 1505.0000 -5.1248 5.1251
69.2227 -1.4126 -251.8893 -0.2464 0.6633 0.6625 0.2456 1507.5000 -5.1280 5.1282
67.3277 -1.4162 -253.5200 -0.2464 0.6634 0.6625 0.2456 1510.0000 -5.1308 5.1310
65.4326 -1.4199 -255.1505 -0.2463 0.6634 0.6626 0.2455 1512.5000 -5.1333 5.1335
63.5373 -1.4235 -256.7808 -0.2463 0.6634 0.6626 0.2455 1515.0000 -5.1357 5.1358
61.6420 -1.4272 -258.4111 -0.2463 0.6634 0.6626 0.2455 1517.5000 -5.1379 5.1380
59.7467 -1.4309 -260.0414 -0.2463 0.6634 0.6626 0.2455 1520.0000 -5.1402 5.1403
57.8515 -1.4346 -261.6717 -0.2463 0.6634 0.6625 0.2455 1522.5000 -5.1425 5.1426
55.9563 -1.4383 -263.3022 -0.2463 0.6634 0.6625 0.2455 1525.0000 -5.1450 5.1451
54.0611 -1.4420 -264.9326 -0.2464 0.6634 0.6625 0.2455 1527.5000 -5.1475 5.1476
52.1661 -1.4457 -266.5631 -0.2464 0.6634 0.6625 0.2455 1530.0000 -5.1501 5.1502
50.2710 -1.4494 -268.1937 -0.2464 0.6634 0.6625 0.2455 1532.5000 -5.1527 5.1528
48.3759 -1.4532 -269.8242 -0.2464 0.6634 0.6625 0.2455 1535.0000 -5.1553 5.1554
46.4808 -1.4569 -271.4548 -0.2464 0.6634 0.6625 0.2455 1537.5000 -5.1579 5.1580
44.5857 -1.4607 -273.0853 -0.2464 0.6634 0.6625 0.2455 1540.0000 -5.1604 5.1606
42.6907 -1.4645 -274.7159 -0.2464 0.6634 0.6625 0.2455 1542.5000 -5.1630 5.1632
40.7956 -1.4683 -276.3464 -0.2464 0.6634 0.6625 0.2455 1545.0000 -5.1656 5.1658
38.9005 -1.4721 -277.9770 -0.2464 0.6634 0.6625 0.2455 1547.5000 -5.1683 5.1684
37.0054 -1.4760 -279.6075 -0.2464 0.6634 0.6625 0.2455 1550.0000 -5.1709 5.1710
35.1103 -1.4798 -281.2380 -0.2464 0.6634 0.6625 0.2455 1552.5000 -5.1735 5.1736
33.2152 -1.4837 -282.8685 -0.2464 0.6634 0.6625 0.2455 1555.0000 -5.1760 5.1761
31.3201 -1.4876 -284.4989 -0.2464 0.6634 0.6625 0.2455 1557.5000 -5.1786 5.1786
29.4249 -1.4914 -286.1294 -0.2464 0.6634 0.6625 0.2455 1560.0000 -5.1810 5.1811
27.5297 -1.4953 -287.7598 -0.2464 0.6634 0.6625 0.2455 1562.5000 -5.1835 5.1836
25.6346 -1.4992 -289.3904 -0.2464 0.6634 0.6625 0.2455 1565.0000 -5.1861 5.1862
23.7396 -1.5030 -291.0210 -0.2464 0.6634 0.6625 0.2455 1567.5000 -5.1888 5.1888
21.8447 -1.5069 -292.6517 -0.2464 0.6634 0.6625 0.2456 1570.0000 -5.1916 5.1917
19.9499 -1.5108 -294.2825 -0.2464 0.6634 0.6625 0.2456 1572.5000 -5.1945 5.1946
18.0549 -1.5147 -295.9132 -0.2464 0.6634 0.6625 0.2455 1575.0000 -5.1973 5.1974
16.1597 -1.5185 -297.5435 -0.2463 0.6634 0.6626 0.2455 1577.5000 -5.1997 5.1998
14.2640 -1.5224 -299.1734 -0.2462 0.6634 0.6626 0.2454 1580.0000 -5.2015 5.2016
12.3679 -1.5263 -300.8027 -0.2461 0.6635 0.6626 0.2452 1582.5000 -5.2025 5.2025
10.4712 -1.5302 -302.4314 -0.2460 0.6635 0.6627 0.2451 1585.0000 -5.2027 5.2026
8.5740 -1.5341 -304.0595 -0.2459 0.6635 0.6627 0.2451 1587.5000 -5.2021 5.2021
6.6765 -1.5380 -305.6871 -0.2458 0.6636 0.6627 0.2450 1590.0000 -5.2009 5.2008
4.7785 -1.5419 -307.3144 -0.2458 0.6636 0.6628 0.2449 1592.5000 -5.1991 5.1991
2.8803 -1.5459 -308.9413 -0.2457 0.6636 0.6628 0.2448 1595.0000 -5.1969 5.1969
0.9819 -1.5498 -310.5679 -0.2457 0.6636 0.6628 0.2448 1597.5000 -5.1943 5.1943
-0.9167 -1.5538 -312.1943 -0.2457 0.6636 0.6628 0.2448 1600.0000 -5.1916 5.1916
-2.8153 -1.5577 -313.8207 -0.2457 0.6636 0.6628 0.2448 1602.5000 -5.1887 5.1887
-4.7139 -1.5617 -315.4472 -0.2457 0.6636 0.6628 0.2448 1605.0000 -5.1859 5.1859
-6.6125 -1.5656 -317.0737 -0.2457 0.6636 0.6628 0.2448 1607.5000 -5.1832 5.1832
-8.5109 -1.5696 -318.7003 -0.2457 0.6636 0.6628 0.2448 1610.0000 -5.1806 5.1806
-10.4094 -1.5736 -320.3269 -0.2457 0.6636 0.6628 0.2448 1612.5000 -5.1781 5.1780
-12.3078 -1.5775 -321.9536 -0.2457 0.6636 0.6628 0.2448 1615.0000 -5.1755 5.1755
-14.2063 -1.5814 -323.5801 -0.2457 0.6636 0.6628 0.2448 1617.5000 -5.1729 5.1728
-16.1049 -1.5853 -325.2066 -0.2457 0.6636 0.6628 0.2448 1620.0000 -5.1702 5.1701
-18.0035 -1.5892 -326.8330 -0.2457 0.6636 0.6628 0.2448 1622.5000 -5.1674 5.1673
-19.9022 -1.5931 -328.4594 -0.2456 0.6636 0.6628 0.2448 1625.0000 -5.1644 5.1644
-21.8009 -1.5970 -330.0856 -0.2456 0.6637 0.6628 0.2448 1627.5000 -5.1614 5.1613
-23.6998 -1.6009 -331.7118 -0.2456 0.6637 0.6628 0.2447 1630.0000 -5.1582 5.1581
-25.5987 -1.6048 -333.3379 -0.2456 0.6637 0.6628 0.2447 1632.5000 -5.1549 5.1548
-27.4977 -1.6087 -334.9638 -0.2456 0.6637 0.6628 0.2447 1635.0000 -5.1514 5.1514
-29.3967 -1.6126 -336.5897 -0.2456 0.6637 0.6628 0.2447 1637.5000 -5.1479 5.1478
-31.2959 -1.6165 -338.2155 -0.2455 0.6637 0.6628 0.2447 1640.0000 -5.1442 5.1441
-33.1951 -1.6203 -339.8412 -0.2455 0.6637 0.6629 0.2447 1642.5000 -5.1405 5.1404
-35.0943 -1.6242 -341.4669 -0.2455 0.6637 0.6629 0.2447 1645.0000 -5.1367 5.1366
-36.9935 -1.6280 -343.0927 -0.2455 0.6637 0.6628 0.2447 1647.5000 -5.1330 5.1329
-38.8926 -1.6318 -344.7186 -0.2456 0.6637 0.6628 0.2447 1650.0000 -5.1295 5.1293
-40.7915 -1.6356 -346.3446 -0.2456 0.6636 0.6628 0.2448 1652.5000 -5.1262 5.1261
-42.6902 -1.6393 -347.9710 -0.2457 0.6636 0.6628 0.2448 1655.0000 -5.1232 5.1231
-44.5887 -1.6431 -349.5976 -0.2457 0.6636 0.6628 0.2449 1657.5000 -5.1206 5.1205
-46.4869 -1.6468 -351.2245 -0.2457 0.6636 0.6628 0.2449 1660.0000 -5.1184 5.1183
-48.3849 -1.6506 -352.8516 -0.2458 0.6636 0.6628 0.2450 1662.5000 -5.1165 5.1164
-50.2827 -1.6544 -354.4790 -0.2458 0.6636 0.6627 0.2450 1665.0000 -5.1149 5.1149
-52.1802 -1.6582 -356.1067 -0.2459 0.6636 0.6627 0.2450 1667.5000 -5.1137 5.1137
-54.0776 -1.6619 -357.7345 -0.2459 0.6635 0.6627 0.2451 1670.0000 -5.1127 5.1127
-55.9750 -1.6657 -359.3623 -0.2459 0.6635 0.6627 0.2451 1672.5000 -5.1119 5.1118
-57.8724 -1.6694 -360.9901 -0.2459 0.6635 0.6627 0.2451 1675.0000 -5.1110 5.1110
-59.7700 -1.6731 -362.6178 -0.2458 0.6636 0.6627 0.2450 1677.5000 -5.1100 5.1099
-61.6676 -1.6767 -364.2454 -0.2458 0.6636 0.6627 0.2450 1680.0000 -5.1089 5.1088
-63.5653 -1.6803 -365.8729 -0.2458 0.6636 0.6627 0.2450 1682.5000 -5.1078 5.1076
-65.4629 -1.6838 -367.5005 -0.2458 0.6635 0.6627 0.2451 1685.0000 -5.1068 5.1066
-67.3603 -1.6873 -369.1284 -0.2459 0.6635 0.6627 0.2451 1687.5000 -5.1060 5.1058
-69.2574 -1.6908 -370.7565 -0.2459 0.6635 0.6627 0.2452 1690.0000 -5.1056 5.1054
-71.1542 -1.6943 -372.3850 -0.2460 0.6635 0.6627 0.2452 1692.5000 -5.1056 5.1055
-73.0507 -1.6978 -374.0139 -0.2461 0.6635 0.6626 0.2453 1695.0000 -5.1060 5.1060
-74.9470 -1.7014 -375.6431 -0.2461 0.6634 0.6626 0.2454 1697.5000 -5.1068 5.1068
-76.8429 -1.7050 -377.2727 -0.2462 0.6634 0.6626 0.2454 1700.0000 -5.1080 5.1081
-78.7386 -1.7086 -378.9025 -0.2462 0.6634 0.6626 0.2455 1702.5000 -5.1095 5.1096
-80.6341 -1.7122 -380.5325 -0.2463 0.6634 0.6626 0.2455 1705.0000 -5.1114 5.1115
-82.5295 -1.7157 -382.1627 -0.2463 0.6634 0.6626 0.2455 1707.5000 -5.1135 5.1136
-84.4248 -1.7192 -383.7930 -0.2463 0.6634 0.6626 0.2455 1710.0000 -5.1158 5.1159
-86.3202 -1.7225 -385.4232 -0.2462 0.6634 0.6626 0.2455 1712.5000 -5.1182 5.1183
-88.2157 -1.7256 -387.0533 -0.2462 0.6634 0.6626 0.2455 1715.0000 -5.1207 5.1207
-90.1112 -1.7286 -388.6833 -0.2462 0.6634 0.6626 0.2455 1717.5000 -5.1230 5.1231
-92.0067 -1.7318 -390.3133 -0.2462 0.6634 0.6626 0.2455 1720.0000 -5.1252 5.1253
-93.9022 -1.7352 -391.9434 -0.2463 0.6634 0.6626 0.2455 1722.5000 -5.1270 5.1272
-95.7975 -1.7391 -393.5736 -0.2464 0.6634 0.6625 0.2454 1725.0000 -5.1285 5.1287
-97.6928 -1.7435 -395.2040 -0.2464 0.6634 0.6625 0.2454 1727.5000 -5.1297 5.1298
-99.5879 -1.7482 -396.8344 -0.2465 0.6634 0.6625 0.2454 1730.0000 -5.1308 5.1310
-101.4831 -1.7530 -398.4649 -0.2465 0.6634 0.6625 0.2454 1732.5000 -5.1323 5.1324
-103.3782 -1.7578 -400.0953 -0.2465 0.6634 0.6625 0.2454 1735.0000 -5.1344 5.1346
-105.2735 -1.7623 -401.7256 -0.2464 0.6634 0.6625 0.2454 1737.5000 -5.1375 5.1377
-107.1693 -1.7665 -403.3553 -0.2462 0.6635 0.6626 0.2452 1740.0000 -5.1419 5.1423
-109.0664 -1.7705 -404.9835 -0.2458 0.6636 0.6628 0.2449 1742.5000 -5.1479 5.1484
-110.9657 -1.7745 -406.6091 -0.2453 0.6638 0.6630 0.2444 1745.0000 -5.1558 5.1564
-112.8680 -1.7785 -408.2313 -0.2446 0.6640 0.6632 0.2437 1747.5000 -5.1658 5.1664
-114.7740 -1.7827 -409.8490 -0.2438 0.6643 0.6635 0.2429 1750.0000 -5.1782 5.1787
-116.6829 -1.7870 -411.4633 -0.2435 0.6645 0.6636 0.2424 1752.5000 -5.1938 5.1945
-118.5929 -1.7916 -413.0764 -0.2434 0.6645 0.6636 0.2424 1755.0000 -5.2143 5.2152
-120.5022 -1.7962 -414.6903 -0.2438 0.6644 0.6635 0.2427 1757.5000 -5.2413 5.2426
-122.4087 -1.8009 -416.3074 -0.2446 0.6641 0.6632 0.2435 1760.0000 -5.2763 5.2784
-124.3110 -1.8057 -417.9295 -0.2455 0.6638 0.6629 0.2444 1762.5000 -5.3204 5.3237
-126.2086 -1.8105 -419.5570 -0.2464 0.6635 0.6625 0.2453 1765.0000 -5.3729 5.3772
-128.1022 -1.8154 -421.1894 -0.2472 0.6632 0.6622 0.2461 1767.5000 -5.4314 5.4368
-129.9919 -1.8204 -422.8262 -0.2480 0.6629 0.6619 0.2468 1770.0000 -5.4937 5.5000
-131.8782 -1.8256 -424.4669 -0.2486 0.6627 0.6617 0.2475 1772.5000 -5.5578 5.5647
-133.7616 -1.8308 -426.1108 -0.2491 0.6625 0.6615 0.2479 1775.0000 -5.6215 5.6287
-135.6434 -1.8362 -427.7567 -0.2494 0.6624 0.6614 0.2481 1777.5000 -5.6834 5.6903
-137.5248 -1.8418 -429.4030 -0.2493 0.6625 0.6614 0.2480 1780.0000 -5.7416 5.7481
-139.4073 -1.8476 -431.0481 -0.2490 0.6626 0.6615 0.2476 1782.5000 -5.7948 5.8003
-141.2920 -1.8536 -432.6906 -0.2484 0.6628 0.6617 0.2470 1785.0000 -5.8412 5.8455
-143.1797 -1.8598 -434.3296 -0.2479 0.6631 0.6619 0.2464 1787.5000 -5.8799 5.8833
-145.0699 -1.8663 -435.9658 -0.2475 0.6632 0.6621 0.2460 1790.0000 -5.9126 5.9154
-146.9617 -1.8730 -437.6001 -0.2473 0.6633 0.6622 0.2457 1792.5000 -5.9413 5.9438
-148.8544 -1.8799 -439.2334 -0.2472 0.6634 0.6622 0.2456 1795.0000 -5.9681 5.9705
-150.7472 -1.8871 -440.8666 -0.2473 0.6634 0.6622 0.2456 1797.5000 -5.9950 5.9975
-152.6398 -1.8945 -442.4999 -0.2474 0.6634 0.6622 0.2455 1800.0000 -6.0230 6.0255
-154.5326 -1.9022 -444.1332 -0.2473 0.6634 0.6622 0.2454 1802.5000 -6.0514 6.0538
-156.4257 -1.9101 -445.7659 -0.2473 0.6635 0.6622 0.2453 1805.0000 -6.0796 6.0818
-158.3196 -1.9183 -447.3979 -0.2471 0.6635 0.6623 0.2451 1807.5000 -6.1068 6.1088
-160.2144 -1.9267 -449.0287 -0.2469 0.6636 0.6623 0.2448 1810.0000 -6.1323 6.1341
-162.1110 -1.9353 -450.6576 -0.2465 0.6638 0.6625 0.2444 1812.5000 -6.1556 6.1571
-164.0101 -1.9439 -452.2833 -0.2459 0.6640 0.6627 0.2437 1815.0000 -6.1761 6.1773
-165.9128 -1.9526 -453.9050 -0.2450 0.6643 0.6630 0.2429 1817.5000 -6.1934 6.1943
-167.8200 -1.9610 -455.5213 -0.2440 0.6647 0.6634 0.2419 1820.0000 -6.2069 6.2075
-169.7323 -1.9692 -457.1316 -0.2429 0.6650 0.6638 0.2409 1822.5000 -6.2163 6.2166
-171.6489 -1.9772 -458.7366 -0.2422 0.6653 0.6641 0.2402 1825.0000 -6.2223 6.2225
-173.5685 -1.9852 -460.3383 -0.2417 0.6655 0.6643 0.2397 1827.5000 -6.2264 6.2266
-175.4895 -1.9934 -461.9382 -0.2416 0.6655 0.6643 0.2396 1830.0000 -6.2301 6.2302
-177.4105 -2.0017 -463.5381 -0.2418 0.6655 0.6643 0.2397 1832.5000 -6.2346 6.2348
-179.3304 -2.0105 -465.1394 -0.2421 0.6654 0.6641 0.2399 1835.0000 -6.2411 6.2413
-181.2491 -2.0195 -466.7420 -0.2423 0.6653 0.6641 0.2401 1837.5000 -6.2495 6.2498
-183.1668 -2.0288 -468.3458 -0.2425 0.6653 0.6640 0.2402 1840.0000 -6.2594 6.2597
-185.0839 -2.0382 -469.9504 -0.2427 0.6652 0.6639 0.2403 1842.5000 -6.2705 6.2709
-187.0004 -2.0476 -471.5556 -0.2428 0.6652 0.6639 0.2404 1845.0000 -6.2823 6.2827
-188.9166 -2.0569 -473.1613 -0.2428 0.6652 0.6639 0.2405 1847.5000 -6.2947 6.2952
-190.8322 -2.0662 -474.7677 -0.2430 0.6651 0.6638 0.2407 1850.0000 -6.3079 6.3087
-192.7469 -2.0754 -476.3752 -0.2432 0.6650 0.6637 0.2409 1852.5000 -6.3224 6.3233
-194.6605 -2.0846 -477.9839 -0.2434 0.6650 0.6637 0.2411 1855.0000 -6.3384 6.3396
-196.5728 -2.0937 -479.5942 -0.2437 0.6648 0.6635 0.2414 1857.5000 -6.3564 6.3579
-198.4837 -2.1028 -481.2061 -0.2439 0.6648 0.6635 0.2417 1860.0000 -6.3764 6.3781
-200.3938 -2.1117 -482.8191 -0.2441 0.6647 0.6634 0.2419 1862.5000 -6.3980 6.3999
-202.3031 -2.1207 -484.4328 -0.2442 0.6647 0.6634 0.2420 1865.0000 -6.4207 6.4228
-204.2123 -2.1296 -486.0468 -0.2442 0.6647 0.6634 0.2420 1867.5000 -6.4442 6.4464
-206.1215 -2.1384 -487.6607 -0.2441 0.6647 0.6634 0.2419 1870.0000 -6.4680 6.4702
-208.0312 -2.1471 -489.2740 -0.2439 0.6647 0.6635 0.2418 1872.5000 -6.4913 6.4934
-209.9419 -2.1556 -490.8863 -0.2437 0.6648 0.6636 0.2416 1875.0000 -6.5129 6.5149
-211.8538 -2.1636 -492.4969 -0.2433 0.6649 0.6637 0.2414 1877.5000 -6.5319 6.5336
-213.7675 -2.1712 -494.1057 -0.2428 0.6650 0.6639 0.2411 1880.0000 -6.5472 6.5483
-215.6833 -2.1781 -495.7120 -0.2423 0.6651 0.6641 0.2407 1882.5000 -6.5578 6.5584
-217.6008 -2.1848 -497.3163 -0.2420 0.6652 0.6642 0.2404 1885.0000 -6.5652 6.5654
-219.5195 -2.1918 -498.9190 -0.2419 0.6653 0.6642 0.2401 1887.5000 -6.5717 6.5719
-221.4389 -2.1997 -500.5208 -0.2420 0.6654 0.6642 0.2398 1890.0000 -6.5800 6.5804
-223.3584 -2.2090 -502.1222 -0.2422 0.6655 0.6641 0.2396 1892.5000 -6.5924 6.5936
-225.2777 -2.2202 -503.7234 -0.2423 0.6656 0.6641 0.2393 1895.0000 -6.6102 6.6124
-227.1984 -2.2329 -505.3229 -0.2421 0.6658 0.6642 0.2387 1897.5000 -6.6297 6.6324
-229.1222 -2.2467 -506.9191 -0.2414 0.6661 0.6644 0.2378 1900.0000 -6.6458 6.6481
-231.0508 -2.2610 -508.5103 -0.2404 0.6665 0.6648 0.2366 1902.5000 -6.6530 6.6541
-232.9860 -2.2754 -510.0946 -0.2389 0.6670 0.6653 0.2352 1905.0000 -6.6460 6.6451
-234.9312 -2.2897 -511.6676 -0.2361 0.6680 0.6663 0.2324 1907.5000 -6.6226 6.6202
-236.8932 -2.3042 -513.2188 -0.2316 0.6695 0.6680 0.2278 1910.0000 -6.5886 6.5863
-238.8791 -2.3192 -514.7369 -0.2254 0.6717 0.6701 0.2213 1912.5000 -6.5504 6.5502
-240.8963 -2.3351 -516.2108 -0.2174 0.6743 0.6729 0.2130 1915.0000 -6.5148 6.5173
-242.9518 -2.3521 -517.6294 -0.2078 0.6773 0.6759 0.2030 1917.5000 -6.4885 6.4925
-245.0473 -2.3707 -518.9893 -0.1989 0.6800 0.6787 0.1935 1920.0000 -6.4761 6.4794
-247.1779 -2.3911 -520.2958 -0.1910 0.6823 0.6810 0.1851 1922.5000 -6.4774 6.4791
-249.3385 -2.4138 -521.5548 -0.1842 0.6842 0.6829 0.1776 1925.0000 -6.4916 6.4921
-251.5239 -2.4389 -522.7723 -0.1785 0.6858 0.6845 0.1711 1927.5000 -6.5179 6.5187
-253.7294 -2.4667 -523.9535 -0.1734 0.6872 0.6859 0.1652 1930.0000 -6.5552 6.5588
-255.9547 -2.4971 -525.0951 -0.1669 0.6888 0.6875 0.1581 1932.5000 -6.6013 6.6081
-258.2029 -2.5292 -526.1880 -0.1591 0.6906 0.6894 0.1498 1935.0000 -6.6513 6.6600
-260.4771 -2.5623 -527.2228 -0.1497 0.6926 0.6916 0.1402 1937.5000 -6.6995 6.7080
-262.7805 -2.5958 -528.1902 -0.1389 0.6946 0.6939 0.1294 1940.0000 -6.7396 6.7455
-265.1155 -2.6290 -529.0817 -0.1270 0.6966 0.6963 0.1175 1942.5000 -6.7650 6.7674
-267.4807 -2.6628 -529.8923 -0.1150 0.6985 0.6984 0.1052 1945.0000 -6.7749 6.7748
-269.8729 -2.6981 -530.6191 -0.1029 0.7002 0.7004 0.0924 1947.5000 -6.7722 6.7705
-272.2891 -2.7363 -531.2589 -0.0905 0.7017 0.7022 0.0791 1950.0000 -6.7597 6.7574
-274.7264 -2.7785 -531.8085 -0.0780 0.7031 0.7038 0.0652 1952.5000 -6.7401 6.7380
-277.1817 -2.8251 -532.2668 -0.0658 0.7041 0.7051 0.0519 1955.0000 -6.7165 6.7148
-279.6518 -2.8751 -532.6403 -0.0546 0.7048 0.7062 0.0400 1957.5000 -6.6933 6.6920
-282.1337 -2.9266 -532.9365 -0.0442 0.7053 0.7070 0.0294 1960.0000 -6.6754 6.6744
-284.6242 -2.9782 -533.1630 -0.0347 0.7055 0.7075 0.0202 1962.5000 -6.6671 6.6668
-287.1204 -3.0281 -533.3275 -0.0260 0.7057 0.7080 0.0122 1965.0000 -6.6725 6.6743
-289.6194 -3.0754 -533.4323 -0.0168 0.7057 0.7083 0.0038 1967.5000 -6.6932 6.6977
-292.1191 -3.1200 -533.4712 0.0066 -0.7056 -0.7085 0.0057 1970.0000 -6.7250 6.7315
-294.6177 -3.1622 -533.4367 -0.0047 -0.7054 -0.7086 0.0162 1972.5000 -6.7623 6.7691
-297.1131 -3.2019 -533.3216 -0.0170 -0.7050 -0.7085 0.0278 1975.0000 -6.7990 6.8044
-299.6033 -3.2392 -533.1188 -0.0301 -0.7043 -0.7081 0.0402 1977.5000 -6.8285 6.8314
-302.0855 -3.2738 -532.8255 -0.0434 -0.7034 -0.7075 0.0524 1980.0000 -6.8478 6.8491
-304.5562 -3.3046 -532.4431 -0.0567 -0.7024 -0.7066 0.0644 1982.5000 -6.8595 6.8600
-307.0118 -3.3304 -531.9729 -0.0700 -0.7011 -0.7055 0.0761 1985.0000 -6.8667 6.8668
-309.4488 -3.3504 -531.4164 -0.0833 -0.6998 -0.7041 0.0875 1987.5000 -6.8721 6.8723
-311.8639 -3.3636 -530.7753 -0.0964 -0.6982 -0.7025 0.0986 1990.0000 -6.8783 6.8788
-314.2558 -3.3709 -530.0535 -0.1085 -0.6966 -0.7008 0.1093 1992.5000 -6.8848 6.8855
-316.6244 -3.3743 -529.2561 -0.1197 -0.6948 -0.6990 0.1195 1995.0000 -6.8896 6.8903
-318.9696 -3.3755 -528.3882 -0.1299 -0.6930 -0.6972 0.1293 1997.5000 -6.8907 6.8910
-321.2912 -3.3764 -527.4548 -0.1392 -0.6912 -0.6954 0.1387 2000.0000 -6.8861 6.8849
-323.5873 -3.3784 -526.4583 -0.1490 -0.6890 -0.6934 0.1489 2002.5000 -6.8749 6.8718
-325.8491 -3.3815 -525.3891 -0.1612 -0.6862 -0.6908 0.1611 2005.0000 -6.8601 6.8561
-328.0653 -3.3851 -524.2343 -0.1757 -0.6826 -0.6873 0.1756 2007.5000 -6.8447 6.8415
-330.2252 -3.3887 -522.9810 -0.1924 -0.6781 -0.6828 0.1921 2010.0000 -6.8316 6.8302
-332.3176 -3.3918 -521.6166 -0.2113 -0.6725 -0.6773 0.2106 2012.5000 -6.8230 6.8234
-334.3307 -3.3940 -520.1324 -0.2314 -0.6660 -0.6707 0.2302 2015.0000 -6.8189 6.8201
-336.2509 -3.3953 -518.5291 -0.2522 -0.6586 -0.6632 0.2506 2017.5000 -6.8160 6.8167
-338.0644 -3.3954 -516.8083 -0.2738 -0.6501 -0.6547 0.2718 2020.0000 -6.8097 6.8090
-339.7571 -3.3945 -514.9720 -0.2963 -0.6404 -0.6448 0.2938 2022.5000 -6.7946 6.7926
-341.3155 -3.3924 -513.0218 -0.3194 -0.6295 -0.6337 0.3164 2025.0000 -6.7650 6.7628
-342.7323 -3.3893 -510.9651 -0.3413 -0.6182 -0.6222 0.3380 2027.5000 -6.7201 6.7186
-344.0074 -3.3854 -508.8151 -0.3618 -0.6067 -0.6104 0.3582 2030.0000 -6.6655 6.6646
-345.1411 -3.3811 -506.5854 -0.3810 -0.5951 -0.5986 0.3773 2032.5000 -6.6067 6.6057
-346.1338 -3.3769 -504.2896 -0.3991 -0.5833 -0.5867 0.3954 2035.0000 -6.5481 6.5465
-346.9864 -3.3728 -501.9410 -0.4159 -0.5716 -0.5748 0.4122 2037.5000 -6.4937 6.4912
-347.7076 -3.3687 -499.5498 -0.4308 -0.5607 -0.5637 0.4270 2040.0000 -6.4453 6.4414
-348.3107 -3.3637 -497.1244 -0.4439 -0.5508 -0.5534 0.4397 2042.5000 -6.4030 6.3976
-348.8087 -3.3572 -494.6732 -0.4551 -0.5420 -0.5442 0.4505 2045.0000 -6.3664 6.3600
-349.2149 -3.3484 -492.2045 -0.4647 -0.5344 -0.5360 0.4595 2047.5000 -6.3343 6.3277
-349.5428 -3.3369 -489.7259 -0.4725 -0.5281 -0.5290 0.4668 2050.0000 -6.3058 6.3000
-349.8079 -3.3229 -487.2407 -0.4785 -0.5231 -0.5236 0.4725 2052.5000 -6.2833 6.2789
-350.0261 -3.3076 -484.7506 -0.4827 -0.5195 -0.5197 0.4764 2055.0000 -6.2699 6.2668
-350.2135 -3.2915 -482.2574 -0.4851 -0.5174 -0.5175 0.4788 2057.5000 -6.2678 6.2656
-350.3860 -3.2756 -479.7629 -0.4857 -0.5167 -0.5168 0.4796 2060.0000 -6.2781 6.2763
-350.5559 -3.2605 -477.2685 -0.4858 -0.5165 -0.5168 0.4798 2062.5000 -6.2999 6.2978
-350.7247 -3.2461 -474.7741 -0.4858 -0.5163 -0.5167 0.4799 2065.0000 -6.3298 6.3273
-350.8919 -3.2320 -472.2799 -0.4860 -0.5161 -0.5166 0.4802 2067.5000 -6.3649 6.3616
-351.0572 -3.2180 -469.7856 -0.4862 -0.5159 -0.5164 0.4804 2070.0000 -6.4017 6.3978
-351.2201 -3.2039 -467.2911 -0.4865 -0.5157 -0.5161 0.4806 2072.5000 -6.4371 6.4331
-351.3806 -3.1895 -464.7964 -0.4868 -0.5155 -0.5159 0.4808 2075.0000 -6.4692 6.4654
-351.5392 -3.1749 -462.3016 -0.4869 -0.5154 -0.5157 0.4809 2077.5000 -6.4975 6.4941
-351.6967 -3.1601 -459.8066 -0.4870 -0.5154 -0.5156 0.4810 2080.0000 -6.5219 6.5191
-351.8539 -3.1451 -457.3114 -0.4870 -0.5154 -0.5156 0.4810 2082.5000 -6.5422 6.5400
-352.0113 -3.1301 -454.8162 -0.4870 -0.5154 -0.5156 0.4809 2085.0000 -6.5582 6.5566
-352.1695 -3.1152 -452.3209 -0.4869 -0.5155 -0.5157 0.4808 2087.5000 -6.5694 6.5681
-352.3288 -3.1003 -449.8258 -0.4867 -0.5156 -0.5159 0.4807 2090.0000 -6.5746 6.5739
-352.4896 -3.0856 -447.3311 -0.4865 -0.5157 -0.5161 0.4806 2092.5000 -6.5731 6.5731
-352.6522 -3.0712 -444.8368 -0.4863 -0.5159 -0.5163 0.4804 2095.0000 -6.5640 6.5649
-352.8171 -3.0571 -442.3433 -0.4859 -0.5162 -0.5166 0.4801 2097.5000 -6.5466 6.5486
-352.9869 -3.0431 -439.8503 -0.4853 -0.5168 -0.5173 0.4794 2100.0000 -6.5237 6.5265
-353.1653 -3.0288 -437.3574 -0.4842 -0.5179 -0.5182 0.4783 2102.5000 -6.4997 6.5023
-353.3559 -3.0138 -434.8644 -0.4829 -0.5193 -0.5195 0.4767 2105.0000 -6.4784 6.4801
-353.5626 -2.9976 -432.3710 -0.4812 -0.5211 -0.5211 0.4747 2107.5000 -6.4637 6.4639
-353.7914 -2.9798 -429.8775 -0.4783 -0.5241 -0.5238 0.4714 2110.0000 -6.4593 6.4571
-354.0608 -2.9602 -427.3888 -0.4730 -0.5291 -0.5286 0.4657 2112.5000 -6.4662 6.4616
-354.3934 -2.9385 -424.9107 -0.4652 -0.5363 -0.5355 0.4574 2115.0000 -6.4833 6.4771
-354.8116 -2.9144 -422.4495 -0.4548 -0.5454 -0.5444 0.4464 2117.5000 -6.5081 6.5018
-355.3380 -2.8878 -420.0111 -0.4417 -0.5564 -0.5552 0.4326 2120.0000 -6.5362 6.5316
-355.9883 -2.8587 -417.6012 -0.4276 -0.5674 -0.5662 0.4179 2122.5000 -6.5623 6.5597
-356.7603 -2.8283 -415.2250 -0.4135 -0.5777 -0.5766 0.4036 2125.0000 -6.5841 6.5828
-357.6483 -2.7978 -412.8874 -0.3994 -0.5871 -0.5865 0.3896 2127.5000 -6.6002 6.5995
-358.6468 -2.7687 -410.5931 -0.3853 -0.5959 -0.5958 0.3760 2130.0000 -6.6087 6.6085
-359.7502 -2.7422 -408.3473 -0.3713 -0.6041 -0.6047 0.3627 2132.5000 -6.6080 6.6082
-360.9545 -2.7188 -406.1548 -0.3570 -0.6120 -0.6133 0.3491 2135.0000 -6.5986 6.5992
-362.2573 -2.6980 -404.0207 -0.3426 -0.6197 -0.6215 0.3352 2137.5000 -6.5842 6.5854
-363.6566 -2.6789 -401.9500 -0.3279 -0.6272 -0.6293 0.3209 2140.0000 -6.5690 6.5705
-365.1503 -2.6610 -399.9478 -0.3129 -0.6346 -0.6369 0.3062 2142.5000 -6.5574 6.5587
-366.7361 -2.6435 -398.0190 -0.2978 -0.6416 -0.6441 0.2912 2145.0000 -6.5528 6.5535
-368.4097 -2.6264 -396.1657 -0.2830 -0.6480 -0.6507 0.2766 2147.5000 -6.5543 6.5547
-370.1650 -2.6098 -394.3874 -0.2687 -0.6539 -0.6567 0.2626 2150.0000 -6.5579 6.5580
-371.9958 -2.5940 -392.6837 -0.2549 -0.6591 -0.6622 0.2491 2152.5000 -6.5590 6.5592
-373.8959 -2.5793 -391.0540 -0.2416 -0.6639 -0.6671 0.2362 2155.0000 -6.5530 6.5541
-375.8599 -2.5660 -389.4995 -0.2279 -0.6685 -0.6719 0.2230 2157.5000 -6.5369 6.5393
-377.8871 -2.5541 -388.0303 -0.2126 -0.6733 -0.6769 0.2083 2160.0000 -6.5147 6.5175
-379.9783 -2.5441 -386.6602 -0.1955 -0.6782 -0.6819 0.1918 2162.5000 -6.4916 6.4936
-382.1347 -2.5361 -385.4027 -0.1765 -0.6832 -0.6871 0.1735 2165.0000 -6.4719 6.4724
-384.3572 -2.5303 -384.2715 -0.1556 -0.6880 -0.6920 0.1534 2167.5000 -6.4592 6.4587
-386.6442 -2.5268 -383.2757 -0.1348 -0.6923 -0.6963 0.1333 2170.0000 -6.4547 6.4546
-388.9872 -2.5255 -382.4111 -0.1152 -0.6957 -0.6997 0.1145 2172.5000 -6.4540 6.4544
-391.3763 -2.5263 -381.6716 -0.0969 -0.6985 -0.7024 0.0968 2175.0000 -6.4507 6.4506
-393.8018 -2.5289 -381.0510 -0.0797 -0.7006 -0.7045 0.0803 2177.5000 -6.4376 6.4356
-396.2538 -2.5331 -380.5432 -0.0637 -0.7023 -0.7060 0.0648 2180.0000 -6.4068 6.4023
-398.7243 -2.5387 -380.1447 -0.0479 -0.7037 -0.7072 0.0494 2182.5000 -6.3556 6.3495
-401.2083 -2.5453 -379.8571 -0.0319 -0.7047 -0.7080 0.0337 2185.0000 -6.2930 6.2866
-403.7010 -2.5525 -379.6821 -0.0157 -0.7053 -0.7085 0.0177 2187.5000 -6.2294 6.2240
-406.1978 -2.5600 -379.6217 0.0007 -0.7057 -0.7086 0.0014 2190.0000 -6.1755 6.1719
-408.6939 -2.5673 -379.6776 -0.0171 0.7056 0.7083 0.0150 2192.5000 -6.1414 6.1400
-411.1856 -2.5747 -379.8465 -0.0327 0.7052 0.7076 0.0305 2195.0000 -6.1305 6.1308
-413.6696 -2.5824 -380.1207 -0.0472 0.7045 0.7067 0.0447 2197.5000 -6.1389 6.1397
-416.1430 -2.5912 -380.4923 -0.0606 0.7037 0.7056 0.0578 2200.0000 -6.1622 6.1621
-418.6028 -2.6014 -380.9533 -0.0731 0.7026 0.7043 0.0698 2202.5000 -6.1958 6.1936
-421.0456 -2.6135 -381.4970 -0.0852 0.7015 0.7029 0.0813 2205.0000 -6.2351 6.2302
-423.4662 -2.6275 -382.1264 -0.0985 0.7000 0.7011 0.0941 2207.5000 -6.2770 6.2702
-425.8586 -2.6431 -382.8493 -0.1130 0.6980 0.6988 0.1082 2210.0000 -6.3189 6.3114
-428.2168 -2.6600 -383.6733 -0.1287 0.6956 0.6959 0.1236 2212.5000 -6.3579 6.3510
-430.5346 -2.6779 -384.6064 -0.1456 0.6925 0.6925 0.1403 2215.0000 -6.3910 6.3858
-432.8052 -2.6966 -385.6548 -0.1633 0.6889 0.6884 0.1579 2217.5000 -6.4155 6.4126
-435.0191 -2.7161 -386.8199 -0.1815 0.6846 0.6837 0.1760 2220.0000 -6.4314 6.4302
-437.1658 -2.7363 -388.1020 -0.2003 0.6797 0.6783 0.1947 2222.5000 -6.4387 6.4388
-439.2352 -2.7572 -389.5013 -0.2197 0.6740 0.6721 0.2140 2225.0000 -6.4375 6.4379
-441.2170 -2.7788 -391.0180 -0.2397 0.6675 0.6650 0.2340 2227.5000 -6.4271 6.4270
-443.1060 -2.8011 -392.6478 -0.2585 0.6608 0.6578 0.2527 2230.0000 -6.4088 6.4075
-444.9065 -2.8241 -394.3785 -0.2752 0.6542 0.6509 0.2695 2232.5000 -6.3870 6.3852
-446.6235 -2.8476 -396.1971 -0.2901 0.6480 0.6442 0.2844 2235.0000 -6.3668 6.3654
-448.2622 -2.8718 -398.0905 -0.3032 0.6422 0.6381 0.2975 2237.5000 -6.3530 6.3525
-449.8273 -2.8965 -400.0458 -0.3149 0.6367 0.6323 0.3093 2240.0000 -6.3499 6.3499
-451.3161 -2.9215 -402.0576 -0.3273 0.6306 0.6258 0.3218 2242.5000 -6.3581 6.3579
-452.7191 -2.9468 -404.1269 -0.3407 0.6236 0.6185 0.3353 2245.0000 -6.3754 6.3747
-454.0263 -2.9720 -406.2550 -0.3550 0.6157 0.6103 0.3499 2247.5000 -6.3993 6.3984
-455.2279 -2.9969 -408.4432 -0.3702 0.6067 0.6011 0.3655 2250.0000 -6.4270 6.4266
-456.3146 -3.0213 -410.6920 -0.3859 0.5969 0.5910 0.3815 2252.5000 -6.4561 6.4566
-457.2819 -3.0451 -412.9968 -0.4011 0.5867 0.5806 0.3972 2255.0000 -6.4836 6.4849
-458.1273 -3.0685 -415.3499 -0.4161 0.5761 0.5699 0.4125 2257.5000 -6.5061 6.5077
-458.8488 -3.0912 -417.7440 -0.4307 0.5652 0.5588 0.4276 2260.0000 -6.5196 6.5207
-459.4439 -3.1134 -420.1716 -0.4450 0.5539 0.5473 0.4423 2262.5000 -6.5203 6.5197
-459.9118 -3.1352 -422.6255 -0.4588 0.5424 0.5357 0.4564 2265.0000 -6.5056 6.5025
-460.2570 -3.1569 -425.0998 -0.4716 0.5313 0.5244 0.4695 2267.5000 -6.4801 6.4751
-460.4857 -3.1789 -427.5888 -0.4834 0.5205 0.5133 0.4815 2270.0000 -6.4502 6.4451
-460.6037 -3.2017 -430.0871 -0.4944 0.5102 0.5027 0.4925 2272.5000 -6.4229 6.4194
-460.6173 -3.2256 -432.5890 -0.5046 0.5002 0.4923 0.5027 2275.0000 -6.4050 6.4043
-460.5300 -3.2509 -435.0891 -0.5146 0.4901 0.4819 0.5127 2277.5000 -6.4001 6.4017
-460.3405 -3.2768 -437.5826 -0.5244 0.4794 0.4711 0.5227 2280.0000 -6.4042 6.4070
-460.0469 -3.3026 -440.0648 -0.5342 0.4682 0.4598 0.5328 2282.5000 -6.4123 6.4152
-459.6472 -3.3276 -442.5306 -0.5439 0.4564 0.4482 0.5430 2285.0000 -6.4192 6.4210
-459.1397 -3.3510 -444.9755 -0.5535 0.4442 0.4363 0.5532 2287.5000 -6.4201 6.4193
-458.5282 -3.3726 -447.3968 -0.5620 0.4327 0.4251 0.5622 2290.0000 -6.4149 6.4113
-457.8247 -3.3930 -449.7948 -0.5694 0.4226 0.4152 0.5699 2292.5000 -6.4087 6.4035
-457.0415 -3.4126 -452.1701 -0.5757 0.4137 0.4064 0.5764 2295.0000 -6.4071 6.4020
-456.1911 -3.4320 -454.5232 -0.5809 0.4062 0.3989 0.5817 2297.5000 -6.4153 6.4118
-455.2859 -3.4518 -456.8549 -0.5851 0.4001 0.3927 0.5860 2300.0000 -6.4382 6.4371
-454.3373 -3.4721 -459.1679 -0.5883 0.3953 0.3878 0.5892 2302.5000 -6.4755 6.4767
-453.3561 -3.4929 -461.4669 -0.5907 0.3919 0.3842 0.5915 2305.0000 -6.5229 6.5253
-452.3531 -3.5140 -463.7564 -0.5921 0.3898 0.3821 0.5929 2307.5000 -6.5753 6.5773
-451.3390 -3.5354 -466.0413 -0.5925 0.3891 0.3813 0.5934 2310.0000 -6.6268 6.6271
-450.3235 -3.5570 -468.3257 -0.5925 0.3893 0.3814 0.5933 2312.5000 -6.6710 6.6698
-449.3084 -3.5787 -470.6102 -0.5925 0.3892 0.3813 0.5933 2315.0000 -6.7061 6.7044
-448.2916 -3.6004 -472.8940 -0.5927 0.3888 0.3810 0.5935 2317.5000 -6.7327 6.7314
-447.2712 -3.6222 -475.1762 -0.5931 0.3882 0.3804 0.5939 2320.0000 -6.7518 6.7512
-446.2451 -3.6439 -477.4558 -0.5937 0.3874 0.3795 0.5945 2322.5000 -6.7640 6.7641
-445.2120 -3.6655 -479.7322 -0.5942 0.3865 0.3786 0.5951 2325.0000 -6.7703 6.7707
-444.1730 -3.6871 -482.0060 -0.5946 0.3858 0.3780 0.5955 2327.5000 -6.7719 6.7723
-443.1299 -3.7085 -484.2779 -0.5949 0.3854 0.3776 0.5958 2330.0000 -6.7702 6.7703
-442.0845 -3.7299 -486.5487 -0.5950 0.3852 0.3774 0.5959 2332.5000 -6.7665 6.7665
-441.0386 -3.7513 -488.8193 -0.5950 0.3852 0.3775 0.5959 2335.0000 -6.7622 6.7621
-439.9935 -3.7727 -491.0903 -0.5949 0.3853 0.3776 0.5958 2337.5000 -6.7583 6.7582
-438.9489 -3.7941 -493.3615 -0.5949 0.3854 0.3776 0.5958 2340.0000 -6.7548 6.7546
-437.9048 -3.8155 -495.6330 -0.5949 0.3854 0.3777 0.5958 2342.5000 -6.7514 6.7512
-436.8609 -3.8368 -497.9044 -0.5949 0.3854 0.3777 0.5958 2345.0000 -6.7480 6.7479
-435.8168 -3.8582 -500.1759 -0.5949 0.3854 0.3776 0.5958 2347.5000 -6.7444 6.7443
-434.7724 -3.8796 -502.4472 -0.5949 0.3854 0.3776 0.5958 2350.0000 -6.7405 6.7404
-433.7281 -3.9010 -504.7185 -0.5949 0.3854 0.3776 0.5958 2352.5000 -6.7366 6.7364
-432.6837 -3.9224 -506.9898 -0.5949 0.3854 0.3776 0.5958 2355.0000 -6.7326 6.7325
-431.6396 -3.9437 -509.2613 -0.5948 0.3855 0.3777 0.5958 2357.5000 -6.7288 6.7287
-430.5960 -3.9652 -511.5329 -0.5948 0.3855 0.3777 0.5957 2360.0000 -6.7253 6.7252
-429.5527 -3.9866 -513.8047 -0.5948 0.3856 0.3778 0.5957 2362.5000 -6.7221 6.7220
-428.5097 -4.0080 -516.0767 -0.5948 0.3856 0.3778 0.5957 2365.0000 -6.7190 6.7190
-427.4669 -4.0294 -518.3487 -0.5948 0.3856 0.3778 0.5957 2367.5000 -6.7159 6.7160
-426.4242 -4.0508 -520.6207 -0.5948 0.3856 0.3778 0.5957 2370.0000 -6.7128 6.7128
-425.3815 -4.0722 -522.8928 -0.5947 0.3856 0.3778 0.5957 2372.5000 -6.7095 6.7095
-424.3389 -4.0936 -525.1649 -0.5947 0.3857 0.3779 0.5956 2375.0000 -6.7063 6.7063
-423.2970 -4.1149 -527.4373 -0.5947 0.3858 0.3780 0.5956 2377.5000 -6.7036 6.7036
-422.2561 -4.1363 -529.7102 -0.5946 0.3859 0.3781 0.5955 2380.0000 -6.7019 6.7020
-421.2165 -4.1578 -531.9838 -0.5944 0.3861 0.3783 0.5953 2382.5000 -6.7017 6.7017
-420.1781 -4.1792 -534.2579 -0.5944 0.3862 0.3784 0.5953 2385.0000 -6.7029 6.7029
-419.1388 -4.2006 -536.5316 -0.5946 0.3859 0.3781 0.5955 2387.5000 -6.7028 6.7028
-418.0958 -4.2219 -538.8035 -0.5950 0.3852 0.3775 0.5959 2390.0000 -6.6982 6.6982
-417.0463 -4.2430 -541.0723 -0.5956 0.3841 0.3764 0.5966 2392.5000 -6.6861 6.6858
-415.9875 -4.2638 -543.3369 -0.5965 0.3827 0.3751 0.5976 2395.0000 -6.6633 6.6620
-414.9177 -4.2844 -545.5963 -0.5974 0.3812 0.3737 0.5985 2397.5000 -6.6279 6.6250
-413.8379 -4.3047 -547.8510 -0.5981 0.3800 0.3725 0.5993 2400.0000 -6.5813 6.5767
-412.7493 -4.3252 -550.1014 -0.5988 0.3789 0.3714 0.5999 2402.5000 -6.5252 6.5192
-411.6533 -4.3458 -552.3483 -0.5994 0.3781 0.3704 0.6005 2405.0000 -6.4616 6.4547
-410.5511 -4.3669 -554.5922 -0.5999 0.3774 0.3696 0.6009 2407.5000 -6.3923 6.3852
-409.4437 -4.3884 -556.8334 -0.6003 0.3768 0.3689 0.6013 2410.0000 -6.3191 6.3127
-408.3318 -4.4100 -559.0725 -0.6006 0.3762 0.3684 0.6017 2412.5000 -6.2439 6.2387
-407.2163 -4.4314 -561.3098 -0.6009 0.3757 0.3680 0.6020 2415.0000 -6.1683 6.1647
-406.0978 -4.4524 -563.5455 -0.6011 0.3753 0.3677 0.6022 2417.5000 -6.0943 6.0924
-404.9770 -4.4725 -565.7800 -0.6012 0.3749 0.3675 0.6025 2420.0000 -6.0236 6.0234
-403.8532 -4.4916 -568.0130 -0.6014 0.3742 0.3672 0.6029 2422.5000 -5.9589 5.9598
-402.7252 -4.5093 -570.2440 -0.6017 0.3734 0.3667 0.6034 2425.0000 -5.9033 5.9048
-401.5913 -4.5251 -572.4720 -0.6021 0.3722 0.3660 0.6041 2427.5000 -5.8602 5.8616
-400.4502 -4.5389 -574.6964 -0.6025 0.3709 0.3652 0.6050 2430.0000 -5.8325 5.8334
-399.3000 -4.5502 -576.9163 -0.6032 0.3692 0.3641 0.6060 2432.5000 -5.8227 5.8228
-398.1375 -4.5592 -579.1298 -0.6042 0.3669 0.3624 0.6074 2435.0000 -5.8287 5.8281
-396.9583 -4.5661 -581.3343 -0.6056 0.3641 0.3601 0.6091 2437.5000 -5.8460 5.8453
-395.7581 -4.5711 -583.5272 -0.6074 0.3606 0.3571 0.6111 2440.0000 -5.8702 5.8699
-394.5328 -4.5744 -585.7059 -0.6095 0.3566 0.3535 0.6135 2442.5000 -5.8970 5.8975
-393.2789 -4.5763 -587.8684 -0.6118 0.3523 0.3496 0.6160 2445.0000 -5.9226 5.9237
-391.9968 -4.5769 -590.0145 -0.6139 0.3482 0.3458 0.6183 2447.5000 -5.9450 5.9464
-390.6878 -4.5763 -592.1445 -0.6159 0.3443 0.3422 0.6205 2450.0000 -5.9627 5.9639
-389.3533 -4.5745 -594.2587 -0.6178 0.3405 0.3387 0.6226 2452.5000 -5.9740 5.9747
-387.9947 -4.5718 -596.3574 -0.6197 0.3369 0.3353 0.6245 2455.0000 -5.9773 5.9771
-386.6131 -4.5682 -598.4410 -0.6214 0.3334 0.3321 0.6264 2457.5000 -5.9723 5.9714
-385.2094 -4.5640 -600.5096 -0.6231 0.3301 0.3288 0.6282 2460.0000 -5.9624 5.9612
-383.7844 -4.5595 -602.5637 -0.6248 0.3269 0.3257 0.6299 2462.5000 -5.9519 5.9508
-382.3387 -4.5549 -604.6033 -0.6264 0.3237 0.3226 0.6315 2465.0000 -5.9448 5.9445
-380.8733 -4.5504 -606.6288 -0.6280 0.3207 0.3195 0.6330 2467.5000 -5.9454 5.9464
-379.3886 -4.5461 -608.6403 -0.6295 0.3177 0.3166 0.6345 2470.0000 -5.9562 5.9585
-377.8852 -4.5416 -610.6377 -0.6309 0.3147 0.3137 0.6360 2472.5000 -5.9770 5.9806
-376.3634 -4.5366 -612.6212 -0.6323 0.3117 0.3109 0.6375 2475.0000 -6.0075 6.0122
-374.8237 -4.5306 -614.5906 -0.6336 0.3087 0.3082 0.6390 2477.5000 -6.0473 6.0528
-373.2664 -4.5233 -616.5462 -0.6349 0.3057 0.3056 0.6404 2480.0000 -6.0960 6.1019
