VERSION 0.7
FIELDS x y z i j k w r ib_distance ob_distance
SIZE 4 4 4 4 4 4 4 4 4 4
TYPE F F F F F F F F F F
COUNT 1 1 1 1 1 1 1 1 1 1
WIDTH 587
HEIGHT 1
VIEWPOINT 0.625 -0.327 -0.325 0.630 -703.183 188.832 -11.763
POINTS 587
DATA ascii
-353.4402 -3.0076 -433.9471 -0.4837 -0.5185 -0.5187 0.4776 2106.0000 6.4771 6.4774
-353.5174 -3.0013 -432.9501 -0.4831 -0.5192 -0.5194 0.4768 2107.0000 6.4690 6.4694
-353.5980 -2.9948 -431.9534 -0.4821 -0.5202 -0.5202 0.4757 2108.0000 6.4608 6.4614
-353.6830 -2.9878 -430.9570 -0.4808 -0.5216 -0.5214 0.4742 2109.0000 6.4526 6.4537
-353.7743 -2.9806 -429.9612 -0.4791 -0.5233 -0.5230 0.4723 2110.0000 6.4456 6.4468
-353.8733 -2.9729 -428.9662 -0.4769 -0.5254 -0.5250 0.4699 2111.0000 6.4405 6.4416
-353.9818 -2.9649 -427.9721 -0.4743 -0.5279 -0.5274 0.4671 2112.0000 6.4382 6.4387
-354.1010 -2.9565 -426.9793 -0.4714 -0.5307 -0.5300 0.4639 2113.0000 6.4392 6.4388
-354.2322 -2.9478 -425.9879 -0.4682 -0.5336 -0.5329 0.4605 2114.0000 6.4437 6.4420
-354.3762 -2.9387 -424.9984 -0.4647 -0.5368 -0.5360 0.4568 2115.0000 6.4521 6.4486
-354.5340 -2.9294 -424.0110 -0.4609 -0.5401 -0.5392 0.4529 2116.0000 6.4645 6.4588
-354.7063 -2.9197 -423.0261 -0.4569 -0.5436 -0.5427 0.4487 2117.0000 6.4804 6.4726
-354.8940 -2.9098 -422.0439 -0.4527 -0.5472 -0.5462 0.4442 2118.0000 6.4989 6.4894
-355.0977 -2.8995 -421.0649 -0.4482 -0.5509 -0.5499 0.4395 2119.0000 6.5190 6.5083
-355.3179 -2.8888 -420.0895 -0.4436 -0.5548 -0.5537 0.4346 2120.0000 6.5396 6.5287
-355.5557 -2.8776 -419.1182 -0.4385 -0.5589 -0.5577 0.4293 2121.0000 6.5597 6.5496
-355.8121 -2.8660 -418.1516 -0.4330 -0.5633 -0.5620 0.4235 2122.0000 6.5781 6.5699
-356.0885 -2.8540 -417.1908 -0.4271 -0.5678 -0.5666 0.4173 2123.0000 6.5935 6.5880
-356.3863 -2.8418 -416.2364 -0.4206 -0.5726 -0.5714 0.4107 2124.0000 6.6046 6.6019
-356.7059 -2.8293 -415.2890 -0.4142 -0.5773 -0.5761 0.4041 2125.0000 6.6111 6.6101
-357.0466 -2.8167 -414.3489 -0.4078 -0.5817 -0.5806 0.3978 2126.0000 6.6139 6.6137
-357.4075 -2.8043 -413.4164 -0.4016 -0.5858 -0.5849 0.3917 2127.0000 6.6143 6.6143
-357.7875 -2.7921 -412.4914 -0.3956 -0.5896 -0.5891 0.3858 2128.0000 6.6133 6.6132
-358.1858 -2.7804 -411.5742 -0.3897 -0.5933 -0.5930 0.3802 2129.0000 6.6118 6.6118
-358.6018 -2.7692 -410.6650 -0.3838 -0.5968 -0.5968 0.3746 2130.0000 6.6103 6.6103
-359.0349 -2.7585 -409.7637 -0.3781 -0.6001 -0.6005 0.3692 2131.0000 6.6093 6.6093
-359.4845 -2.7483 -408.8706 -0.3725 -0.6034 -0.6040 0.3639 2132.0000 6.6090 6.6091
-359.9502 -2.7386 -407.9857 -0.3669 -0.6065 -0.6074 0.3586 2133.0000 6.6094 6.6096
-360.4316 -2.7293 -407.1093 -0.3614 -0.6096 -0.6107 0.3533 2134.0000 6.6099 6.6100
-360.9283 -2.7204 -406.2414 -0.3559 -0.6126 -0.6139 0.3481 2135.0000 6.6096 6.6096
-361.4402 -2.7119 -405.3824 -0.3505 -0.6155 -0.6170 0.3429 2136.0000 6.6078 6.6075
-361.9666 -2.7037 -404.5323 -0.3452 -0.6184 -0.6200 0.3377 2137.0000 6.6040 6.6037
-362.5073 -2.6957 -403.6911 -0.3399 -0.6211 -0.6229 0.3326 2138.0000 6.5984 6.5983
-363.0617 -2.6880 -402.8589 -0.3348 -0.6238 -0.6257 0.3276 2139.0000 6.5912 6.5916
-363.6295 -2.6804 -402.0357 -0.3297 -0.6264 -0.6284 0.3227 2140.0000 6.5826 6.5839
-364.2106 -2.6729 -401.2219 -0.3245 -0.6290 -0.6311 0.3175 2141.0000 6.5732 6.5756
-364.8052 -2.6655 -400.4180 -0.3190 -0.6317 -0.6339 0.3121 2142.0000 6.5640 6.5673
-365.4138 -2.6582 -399.6246 -0.3134 -0.6344 -0.6367 0.3065 2143.0000 6.5559 6.5595
-366.0367 -2.6510 -398.8423 -0.3075 -0.6372 -0.6395 0.3007 2144.0000 6.5495 6.5528
-366.6742 -2.6437 -398.0718 -0.3013 -0.6400 -0.6425 0.2946 2145.0000 6.5451 6.5477
-367.3264 -2.6365 -397.3139 -0.2950 -0.6429 -0.6454 0.2883 2146.0000 6.5423 6.5440
-367.9938 -2.6294 -396.5692 -0.2884 -0.6458 -0.6484 0.2818 2147.0000 6.5406 6.5415
-368.6763 -2.6223 -395.8385 -0.2815 -0.6487 -0.6514 0.2750 2148.0000 6.5397 6.5401
-369.3739 -2.6154 -395.1221 -0.2748 -0.6515 -0.6542 0.2685 2149.0000 6.5393 6.5394
-370.0856 -2.6087 -394.4197 -0.2684 -0.6540 -0.6569 0.2622 2150.0000 6.5396 6.5396
-370.8105 -2.6022 -393.7308 -0.2622 -0.6564 -0.6593 0.2562 2151.0000 6.5408 6.5407
-371.5478 -2.5960 -393.0552 -0.2563 -0.6586 -0.6617 0.2505 2152.0000 6.5430 6.5429
-372.2967 -2.5902 -392.3925 -0.2504 -0.6607 -0.6639 0.2450 2153.0000 6.5461 6.5458
-373.0567 -2.5847 -391.7428 -0.2447 -0.6627 -0.6660 0.2395 2154.0000 6.5493 6.5490
-373.8276 -2.5795 -391.1058 -0.2391 -0.6646 -0.6680 0.2341 2155.0000 6.5521 6.5518
-374.6087 -2.5747 -390.4815 -0.2335 -0.6665 -0.6700 0.2288 2156.0000 6.5538 6.5537
-375.3997 -2.5702 -389.8698 -0.2282 -0.6683 -0.6718 0.2237 2157.0000 6.5538 6.5541
-376.2001 -2.5658 -389.2703 -0.2231 -0.6699 -0.6735 0.2187 2158.0000 6.5516 6.5526
-377.0093 -2.5615 -388.6828 -0.2181 -0.6715 -0.6751 0.2138 2159.0000 6.5467 6.5487
-377.8271 -2.5572 -388.1071 -0.2131 -0.6731 -0.6767 0.2088 2160.0000 6.5389 6.5420
-378.6535 -2.5530 -387.5441 -0.2076 -0.6748 -0.6784 0.2033 2161.0000 6.5290 6.5328
-379.4895 -2.5488 -386.9955 -0.2014 -0.6766 -0.6803 0.1973 2162.0000 6.5179 6.5218
-380.3358 -2.5447 -386.4628 -0.1946 -0.6785 -0.6822 0.1906 2163.0000 6.5063 6.5098
-381.1930 -2.5409 -385.9478 -0.1871 -0.6805 -0.6843 0.1834 2164.0000 6.4947 6.4973
-382.0614 -2.5373 -385.4519 -0.1791 -0.6826 -0.6864 0.1757 2165.0000 6.4834 6.4849
-382.9413 -2.5342 -384.9768 -0.1706 -0.6847 -0.6885 0.1675 2166.0000 6.4727 6.4731
-383.8328 -2.5315 -384.5240 -0.1615 -0.6868 -0.6907 0.1588 2167.0000 6.4630 6.4624
-384.7358 -2.5294 -384.0948 -0.1521 -0.6888 -0.6928 0.1499 2168.0000 6.4545 6.4532
-385.6499 -2.5278 -383.6894 -0.1430 -0.6907 -0.6947 0.1412 2169.0000 6.4473 6.4460
-386.5739 -2.5267 -383.3070 -0.1343 -0.6924 -0.6964 0.1329 2170.0000 6.4418 6.4410
-387.5069 -2.5261 -382.9470 -0.1259 -0.6939 -0.6979 0.1249 2171.0000 6.4384 6.4384
-388.4479 -2.5259 -382.6087 -0.1179 -0.6952 -0.6993 0.1172 2172.0000 6.4374 6.4383
-389.3959 -2.5260 -382.2908 -0.1105 -0.6964 -0.7005 0.1100 2173.0000 6.4385 6.4399
-390.3503 -2.5264 -381.9921 -0.1036 -0.6975 -0.7015 0.1034 2174.0000 6.4405 6.4417
-391.3100 -2.5271 -381.7111 -0.0973 -0.6984 -0.7024 0.0973 2175.0000 6.4422 6.4426
-392.2744 -2.5279 -381.4465 -0.0914 -0.6992 -0.7031 0.0916 2176.0000 6.4418 6.4413
-393.2431 -2.5289 -381.1980 -0.0855 -0.7000 -0.7038 0.0857 2177.0000 6.4383 6.4370
-394.2158 -2.5300 -380.9661 -0.0793 -0.7007 -0.7045 0.0797 2178.0000 6.4317 6.4299
-395.1924 -2.5312 -380.7513 -0.0730 -0.7014 -0.7052 0.0735 2179.0000 6.4221 6.4199
-396.1728 -2.5326 -380.5542 -0.0665 -0.7021 -0.7058 0.0671 2180.0000 6.4095 6.4069
-397.1566 -2.5341 -380.3752 -0.0599 -0.7027 -0.7063 0.0607 2181.0000 6.3943 6.3912
-398.1436 -2.5357 -380.2144 -0.0533 -0.7033 -0.7068 0.0542 2182.0000 6.3766 6.3732
-399.1334 -2.5376 -380.0720 -0.0466 -0.7038 -0.7073 0.0477 2183.0000 6.3569 6.3530
-400.1257 -2.5397 -379.9484 -0.0397 -0.7042 -0.7077 0.0411 2184.0000 6.3353 6.3310
-401.1202 -2.5421 -379.8437 -0.0328 -0.7046 -0.7080 0.0345 2185.0000 6.3123 6.3075
-402.1165 -2.5448 -379.7584 -0.0258 -0.7050 -0.7082 0.0277 2186.0000 6.2881 6.2827
-403.1143 -2.5478 -379.6927 -0.0186 -0.7052 -0.7084 0.0208 2187.0000 6.2630 6.2571
-404.1132 -2.5511 -379.6470 -0.0114 -0.7054 -0.7085 0.0139 2188.0000 6.2373 6.2309
-405.1129 -2.5547 -379.6211 -0.0044 -0.7056 -0.7086 0.0070 2189.0000 6.2117 6.2051
-406.1128 -2.5585 -379.6145 0.0024 -0.7057 -0.7085 0.0003 2190.0000 6.1867 6.1804
-407.1127 -2.5624 -379.6270 -0.0091 0.7057 0.7084 0.0063 2191.0000 6.1633 6.1576
-408.1122 -2.5663 -379.6581 -0.0156 0.7056 0.7083 0.0128 2192.0000 6.1423 6.1375
-409.1110 -2.5702 -379.7070 -0.0217 0.7055 0.7081 0.0189 2193.0000 6.1245 6.1209
-410.1088 -2.5740 -379.7728 -0.0275 0.7054 0.7079 0.0248 2194.0000 6.1108 6.1086
-411.1055 -2.5776 -379.8544 -0.0329 0.7052 0.7076 0.0303 2195.0000 6.1020 6.1011
-412.1008 -2.5811 -379.9510 -0.0380 0.7050 0.7073 0.0355 2196.0000 6.0990 6.0991
-413.0946 -2.5844 -380.0622 -0.0432 0.7047 0.7070 0.0408 2197.0000 6.1018 6.1023
-414.0866 -2.5876 -380.1882 -0.0484 0.7044 0.7066 0.0461 2198.0000 6.1097 6.1102
-415.0766 -2.5907 -380.3289 -0.0537 0.7041 0.7062 0.0514 2199.0000 6.1223 6.1223
-416.0644 -2.5938 -380.4846 -0.0590 0.7037 0.7057 0.0567 2200.0000 6.1389 6.1381
-417.0498 -2.5968 -380.6549 -0.0642 0.7033 0.7052 0.0618 2201.0000 6.1585 6.1567
-418.0326 -2.6000 -380.8397 -0.0694 0.7029 0.7047 0.0669 2202.0000 6.1799 6.1769
-419.0126 -2.6034 -381.0386 -0.0746 0.7025 0.7042 0.0718 2203.0000 6.2018 6.1978
-419.9896 -2.6072 -381.2515 -0.0797 0.7020 0.7036 0.0767 2204.0000 6.2231 6.2181
-420.9636 -2.6114 -381.4781 -0.0848 0.7015 0.7029 0.0815 2205.0000 6.2432 6.2375
-421.9342 -2.6160 -381.7185 -0.0899 0.7009 0.7023 0.0863 2206.0000 6.2617 6.2556
-422.9014 -2.6212 -381.9726 -0.0951 0.7004 0.7016 0.0910 2207.0000 6.2782 6.2721
-423.8649 -2.6270 -382.2404 -0.1004 0.6997 0.7008 0.0959 2208.0000 6.2929 6.2869
-424.8242 -2.6333 -382.5229 -0.1061 0.6990 0.6999 0.1013 2209.0000 6.3065 6.3006
-425.7786 -2.6400 -382.8211 -0.1122 0.6982 0.6989 0.1071 2210.0000 6.3199 6.3138
-426.7276 -2.6471 -383.1361 -0.1187 0.6972 0.6978 0.1134 2211.0000 6.3339 6.3274
-427.6706 -2.6545 -383.4686 -0.1253 0.6962 0.6966 0.1199 2212.0000 6.3485 6.3418
-428.6072 -2.6621 -383.8191 -0.1320 0.6951 0.6953 0.1265 2213.0000 6.3632 6.3565
-429.5368 -2.6697 -384.1874 -0.1387 0.6939 0.6939 0.1332 2214.0000 6.3774 6.3711
-430.4591 -2.6773 -384.5739 -0.1455 0.6926 0.6925 0.1400 2215.0000 6.3904 6.3850
-431.3736 -2.6849 -384.9783 -0.1523 0.6912 0.6910 0.1469 2216.0000 6.4018 6.3974
-432.2798 -2.6925 -385.4010 -0.1593 0.6897 0.6894 0.1539 2217.0000 6.4114 6.4080
-433.1773 -2.7000 -385.8420 -0.1663 0.6882 0.6877 0.1609 2218.0000 6.4190 6.4168
-434.0655 -2.7077 -386.3013 -0.1734 0.6865 0.6858 0.1680 2219.0000 6.4246 6.4234
-434.9440 -2.7155 -386.7791 -0.1807 0.6848 0.6839 0.1752 2220.0000 6.4281 6.4278
-435.8120 -2.7234 -387.2755 -0.1881 0.6829 0.6818 0.1825 2221.0000 6.4301 6.4303
-436.6689 -2.7314 -387.7908 -0.1957 0.6809 0.6796 0.1901 2222.0000 6.4310 6.4315
-437.5140 -2.7397 -388.3253 -0.2035 0.6788 0.6773 0.1978 2223.0000 6.4315 6.4319
-438.3466 -2.7480 -388.8790 -0.2113 0.6765 0.6748 0.2056 2224.0000 6.4318 6.4320
-439.1661 -2.7565 -389.4520 -0.2192 0.6742 0.6723 0.2134 2225.0000 6.4318 6.4320
-439.9721 -2.7651 -390.0439 -0.2270 0.6717 0.6696 0.2213 2226.0000 6.4315 6.4316
-440.7640 -2.7737 -390.6544 -0.2348 0.6691 0.6668 0.2291 2227.0000 6.4308 6.4308
-441.5414 -2.7823 -391.2833 -0.2425 0.6665 0.6640 0.2369 2228.0000 6.4296 6.4295
-442.3041 -2.7910 -391.9300 -0.2502 0.6637 0.6611 0.2446 2229.0000 6.4277 6.4275
-443.0518 -2.7998 -392.5939 -0.2576 0.6610 0.6582 0.2521 2230.0000 6.4249 6.4244
-443.7844 -2.8086 -393.2744 -0.2650 0.6582 0.6552 0.2594 2231.0000 6.4208 6.4200
-444.5019 -2.8176 -393.9709 -0.2719 0.6555 0.6523 0.2664 2232.0000 6.4154 6.4142
-445.2050 -2.8267 -394.6819 -0.2784 0.6529 0.6495 0.2728 2233.0000 6.4087 6.4071
-445.8943 -2.8359 -395.4063 -0.2845 0.6504 0.6468 0.2788 2234.0000 6.4007 6.3988
-446.5707 -2.8454 -396.1429 -0.2900 0.6480 0.6443 0.2843 2235.0000 6.3914 6.3893
-447.2347 -2.8551 -396.8904 -0.2953 0.6458 0.6419 0.2894 2236.0000 6.3809 6.3789
-447.8871 -2.8650 -397.6483 -0.3002 0.6437 0.6395 0.2942 2237.0000 6.3696 6.3680
-448.5283 -2.8753 -398.4156 -0.3048 0.6417 0.6373 0.2987 2238.0000 6.3584 6.3574
-449.1589 -2.8859 -399.1916 -0.3091 0.6397 0.6352 0.3028 2239.0000 6.3479 6.3476
-449.7791 -2.8968 -399.9761 -0.3136 0.6377 0.6329 0.3072 2240.0000 6.3388 6.3391
-450.3877 -2.9080 -400.7694 -0.3184 0.6354 0.6305 0.3120 2241.0000 6.3320 6.3324
-450.9839 -2.9191 -401.5721 -0.3234 0.6329 0.6279 0.3172 2242.0000 6.3280 6.3283
-451.5666 -2.9301 -402.3847 -0.3288 0.6301 0.6250 0.3227 2243.0000 6.3274 6.3273
-452.1346 -2.9409 -403.2077 -0.3344 0.6271 0.6220 0.3286 2244.0000 6.3306 6.3301
-452.6872 -2.9514 -404.0411 -0.3402 0.6239 0.6188 0.3347 2245.0000 6.3375 6.3366
-453.2233 -2.9614 -404.8851 -0.3462 0.6205 0.6154 0.3411 2246.0000 6.3481 6.3470
-453.7422 -2.9709 -405.7398 -0.3523 0.6169 0.6119 0.3477 2247.0000 6.3624 6.3614
-454.2432 -2.9799 -406.6052 -0.3585 0.6132 0.6082 0.3542 2248.0000 6.3800 6.3794
-454.7263 -2.9885 -407.4807 -0.3646 0.6096 0.6045 0.3606 2249.0000 6.3996 6.3995
-455.1913 -2.9970 -408.3660 -0.3707 0.6059 0.6008 0.3669 2250.0000 6.4200 6.4204
-455.6383 -3.0054 -409.2605 -0.3767 0.6022 0.5969 0.3730 2251.0000 6.4399 6.4408
-456.0672 -3.0139 -410.1638 -0.3828 0.5985 0.5930 0.3790 2252.0000 6.4584 6.4597
-456.4777 -3.0226 -411.0756 -0.3888 0.5947 0.5891 0.3850 2253.0000 6.4752 6.4767
-456.8696 -3.0316 -411.9955 -0.3948 0.5908 0.5850 0.3910 2254.0000 6.4899 6.4915
-457.2428 -3.0408 -412.9232 -0.4008 0.5869 0.5809 0.3969 2255.0000 6.5021 6.5037
-457.5970 -3.0503 -413.8583 -0.4067 0.5829 0.5767 0.4028 2256.0000 6.5119 6.5133
-457.9320 -3.0600 -414.8004 -0.4126 0.5788 0.5724 0.4087 2257.0000 6.5192 6.5203
-458.2479 -3.0697 -415.7491 -0.4183 0.5747 0.5682 0.4146 2258.0000 6.5242 6.5250
-458.5445 -3.0794 -416.7041 -0.4241 0.5705 0.5639 0.4204 2259.0000 6.5270 6.5275
-458.8214 -3.0891 -417.6649 -0.4298 0.5661 0.5595 0.4263 2260.0000 6.5277 6.5278
-459.0785 -3.0986 -418.6313 -0.4355 0.5617 0.5550 0.4322 2261.0000 6.5264 6.5261
-459.3152 -3.1080 -419.6028 -0.4413 0.5571 0.5504 0.4382 2262.0000 6.5233 6.5226
-459.5314 -3.1173 -420.5790 -0.4470 0.5524 0.5456 0.4442 2263.0000 6.5186 6.5174
-459.7267 -3.1264 -421.5597 -0.4527 0.5477 0.5409 0.4500 2264.0000 6.5123 6.5107
-459.9014 -3.1354 -422.5443 -0.4583 0.5429 0.5361 0.4558 2265.0000 6.5046 6.5023
-460.0556 -3.1443 -423.5323 -0.4638 0.5382 0.5313 0.4615 2266.0000 6.4954 6.4923
-460.1893 -3.1531 -424.5232 -0.4692 0.5335 0.5265 0.4670 2267.0000 6.4846 6.4806
-460.3031 -3.1619 -425.5166 -0.4743 0.5289 0.5219 0.4722 2268.0000 6.4727 6.4680
-460.3981 -3.1707 -426.5120 -0.4790 0.5245 0.5175 0.4771 2269.0000 6.4601 6.4551
-460.4753 -3.1795 -427.5090 -0.4835 0.5204 0.5133 0.4816 2270.0000 6.4476 6.4429
-460.5356 -3.1883 -428.5072 -0.4876 0.5165 0.5093 0.4858 2271.0000 6.4360 6.4319
-460.5800 -3.1972 -429.5062 -0.4917 0.5127 0.5054 0.4899 2272.0000 6.4257 6.4224
-460.6087 -3.2062 -430.5057 -0.4956 0.5089 0.5015 0.4939 2273.0000 6.4171 6.4148
-460.6220 -3.2153 -431.5056 -0.4994 0.5052 0.4977 0.4977 2274.0000 6.4106 6.4093
-460.6203 -3.2246 -432.5055 -0.5032 0.5015 0.4938 0.5015 2275.0000 6.4065 6.4062
-460.6032 -3.2341 -433.5053 -0.5071 0.4976 0.4898 0.5053 2276.0000 6.4048 6.4051
-460.5702 -3.2438 -434.5047 -0.5111 0.4935 0.4856 0.5094 2277.0000 6.4051 6.4059
-460.5202 -3.2536 -435.5034 -0.5153 0.4892 0.4811 0.5136 2278.0000 6.4070 6.4081
-460.4527 -3.2637 -436.5010 -0.5196 0.4846 0.4763 0.5179 2279.0000 6.4099 6.4113
-460.3672 -3.2741 -437.4973 -0.5240 0.4799 0.4715 0.5223 2280.0000 6.4136 6.4152
-460.2633 -3.2845 -438.4919 -0.5283 0.4751 0.4666 0.5267 2281.0000 6.4175 6.4192
-460.1411 -3.2950 -439.4843 -0.5326 0.4702 0.4617 0.5311 2282.0000 6.4211 6.4226
-460.0003 -3.3055 -440.4742 -0.5369 0.4652 0.4567 0.5355 2283.0000 6.4238 6.4251
-459.8415 -3.3159 -441.4614 -0.5409 0.4605 0.4519 0.5396 2284.0000 6.4254 6.4262
-459.6657 -3.3261 -442.4457 -0.5445 0.4559 0.4475 0.5435 2285.0000 6.4256 6.4258
-459.4744 -3.3361 -443.4272 -0.5478 0.4517 0.4434 0.5470 2286.0000 6.4239 6.4233
-459.2686 -3.3458 -444.4059 -0.5509 0.4477 0.4396 0.5503 2287.0000 6.4198 6.4185
-459.0490 -3.3551 -445.3815 -0.5539 0.4437 0.4357 0.5536 2288.0000 6.4132 6.4116
-458.8152 -3.3641 -446.3537 -0.5571 0.4394 0.4316 0.5570 2289.0000 6.4051 6.4036
-458.5665 -3.3727 -447.3222 -0.5604 0.4350 0.4274 0.5605 2290.0000 6.3968 6.3956
-458.3026 -3.3810 -448.2867 -0.5637 0.4304 0.4230 0.5640 2291.0000 6.3897 6.3888
-458.0233 -3.3891 -449.2468 -0.5670 0.4259 0.4185 0.5675 2292.0000 6.3846 6.3842
-457.7289 -3.3969 -450.2024 -0.5702 0.4214 0.4141 0.5708 2293.0000 6.3821 6.3820
-457.4196 -3.4047 -451.1534 -0.5733 0.4170 0.4097 0.5741 2294.0000 6.3824 6.3826
-457.0959 -3.4123 -452.0995 -0.5764 0.4126 0.4054 0.5772 2295.0000 6.3860 6.3862
-456.7586 -3.4200 -453.0408 -0.5791 0.4087 0.4015 0.5800 2296.0000 6.3931 6.3928
-456.4095 -3.4276 -453.9778 -0.5814 0.4054 0.3981 0.5824 2297.0000 6.4030 6.4021
-456.0504 -3.4353 -454.9111 -0.5833 0.4026 0.3953 0.5843 2298.0000 6.4153 6.4134
-455.6832 -3.4431 -455.8413 -0.5849 0.4003 0.3930 0.5858 2299.0000 6.4291 6.4263
-455.3094 -3.4510 -456.7688 -0.5862 0.3984 0.3910 0.5872 2300.0000 6.4439 6.4404
-454.9299 -3.4589 -457.6939 -0.5874 0.3967 0.3893 0.5883 2301.0000 6.4598 6.4558
-454.5454 -3.4670 -458.6170 -0.5883 0.3953 0.3878 0.5892 2302.0000 6.4766 6.4725
-454.1569 -3.4751 -459.5384 -0.5891 0.3942 0.3866 0.5900 2303.0000 6.4943 6.4903
-453.7650 -3.4834 -460.4583 -0.5898 0.3932 0.3856 0.5907 2304.0000 6.5129 6.5093
-453.3702 -3.4917 -461.3771 -0.5903 0.3924 0.3848 0.5912 2305.0000 6.5320 6.5289
-452.9733 -3.5001 -462.2949 -0.5907 0.3918 0.3841 0.5916 2306.0000 6.5513 6.5489
-452.5748 -3.5086 -463.2120 -0.5910 0.3914 0.3837 0.5919 2307.0000 6.5707 6.5688
-452.1750 -3.5172 -464.1286 -0.5913 0.3911 0.3833 0.5921 2308.0000 6.5899 6.5883
-451.7740 -3.5259 -465.0447 -0.5915 0.3907 0.3829 0.5923 2309.0000 6.6086 6.6073
-451.3722 -3.5345 -465.9603 -0.5917 0.3905 0.3826 0.5925 2310.0000 6.6266 6.6255
-450.9695 -3.5433 -466.8756 -0.5919 0.3903 0.3824 0.5926 2311.0000 6.6437 6.6428
-450.5661 -3.5521 -467.7906 -0.5920 0.3900 0.3821 0.5928 2312.0000 6.6598 6.6591
-450.1620 -3.5609 -468.7053 -0.5922 0.3898 0.3819 0.5929 2313.0000 6.6748 6.6743
-449.7570 -3.5697 -469.6196 -0.5924 0.3895 0.3816 0.5931 2314.0000 6.6888 6.6884
-449.3513 -3.5785 -470.5335 -0.5925 0.3892 0.3813 0.5933 2315.0000 6.7018 6.7014
-448.9447 -3.5872 -471.4471 -0.5927 0.3889 0.3811 0.5935 2316.0000 6.7136 6.7134
-448.5373 -3.5959 -472.3603 -0.5929 0.3887 0.3808 0.5937 2317.0000 6.7244 6.7243
-448.1290 -3.6045 -473.2731 -0.5930 0.3884 0.3806 0.5939 2318.0000 6.7341 6.7340
-447.7199 -3.6132 -474.1855 -0.5932 0.3881 0.3803 0.5940 2319.0000 6.7426 6.7426
-447.3099 -3.6217 -475.0976 -0.5934 0.3878 0.3800 0.5942 2320.0000 6.7500 6.7501
-446.8991 -3.6303 -476.0093 -0.5935 0.3875 0.3797 0.5944 2321.0000 6.7562 6.7564
-446.4875 -3.6389 -476.9206 -0.5937 0.3872 0.3795 0.5946 2322.0000 6.7614 6.7616
-446.0749 -3.6474 -477.8315 -0.5939 0.3870 0.3792 0.5948 2323.0000 6.7656 6.7657
-445.6615 -3.6560 -478.7420 -0.5941 0.3867 0.3789 0.5950 2324.0000 6.7687 6.7688
-445.2472 -3.6646 -479.6521 -0.5943 0.3864 0.3786 0.5951 2325.0000 6.7709 6.7709
-444.8321 -3.6732 -480.5618 -0.5944 0.3861 0.3783 0.5953 2326.0000 6.7722 6.7721
-444.4162 -3.6818 -481.4712 -0.5946 0.3859 0.3781 0.5955 2327.0000 6.7726 6.7725
-443.9996 -3.6904 -482.3802 -0.5947 0.3857 0.3779 0.5956 2328.0000 6.7723 6.7721
-443.5824 -3.6990 -483.2890 -0.5948 0.3855 0.3777 0.5957 2329.0000 6.7714 6.7713
-443.1649 -3.7076 -484.1976 -0.5949 0.3854 0.3776 0.5958 2330.0000 6.7702 6.7700
-442.7471 -3.7162 -485.1061 -0.5949 0.3854 0.3776 0.5958 2331.0000 6.7687 6.7686
-442.3292 -3.7248 -486.0146 -0.5949 0.3853 0.3776 0.5958 2332.0000 6.7672 6.7670
-441.9113 -3.7334 -486.9230 -0.5949 0.3853 0.3775 0.5958 2333.0000 6.7656 6.7654
-441.4933 -3.7420 -487.8315 -0.5949 0.3853 0.3775 0.5958 2334.0000 6.7640 6.7639
-441.0754 -3.7506 -488.7399 -0.5949 0.3853 0.3776 0.5958 2335.0000 6.7624 6.7623
-440.6575 -3.7591 -489.6484 -0.5949 0.3854 0.3776 0.5958 2336.0000 6.7609 6.7609
-440.2397 -3.7677 -490.5569 -0.5949 0.3854 0.3776 0.5958 2337.0000 6.7594 6.7594
-439.8219 -3.7762 -491.4653 -0.5949 0.3854 0.3776 0.5958 2338.0000 6.7580 6.7580
-439.4041 -3.7848 -492.3738 -0.5949 0.3854 0.3776 0.5958 2339.0000 6.7566 6.7566
-438.9863 -3.7933 -493.2824 -0.5949 0.3854 0.3776 0.5958 2340.0000 6.7552 6.7552
-438.5686 -3.8019 -494.1909 -0.5949 0.3854 0.3776 0.5958 2341.0000 6.7538 6.7538
-438.1508 -3.8104 -495.0994 -0.5949 0.3854 0.3776 0.5958 2342.0000 6.7524 6.7523
-437.7331 -3.8190 -496.0079 -0.5949 0.3854 0.3776 0.5958 2343.0000 6.7511 6.7509
-437.3154 -3.8275 -496.9165 -0.5949 0.3854 0.3776 0.5958 2344.0000 6.7496 6.7495
-436.8976 -3.8361 -497.8250 -0.5949 0.3854 0.3776 0.5958 2345.0000 6.7482 6.7480
-436.4799 -3.8446 -498.7335 -0.5949 0.3854 0.3776 0.5958 2346.0000 6.7467 6.7466
-436.0621 -3.8532 -499.6421 -0.5949 0.3854 0.3776 0.5958 2347.0000 6.7453 6.7452
-435.6444 -3.8617 -500.5506 -0.5949 0.3854 0.3776 0.5958 2348.0000 6.7438 6.7437
-435.2267 -3.8703 -501.4591 -0.5949 0.3854 0.3776 0.5958 2349.0000 6.7423 6.7422
-434.8090 -3.8788 -502.3676 -0.5949 0.3854 0.3776 0.5958 2350.0000 6.7408 6.7407
-434.3913 -3.8874 -503.2762 -0.5949 0.3854 0.3776 0.5958 2351.0000 6.7393 6.7392
-433.9735 -3.8959 -504.1847 -0.5949 0.3854 0.3776 0.5958 2352.0000 6.7377 6.7377
-433.5558 -3.9045 -505.0933 -0.5949 0.3854 0.3776 0.5958 2353.0000 6.7362 6.7361
-433.1381 -3.9130 -506.0018 -0.5949 0.3854 0.3776 0.5958 2354.0000 6.7346 6.7345
-432.7204 -3.9216 -506.9104 -0.5949 0.3854 0.3776 0.5958 2355.0000 6.7330 6.7329
-432.3028 -3.9302 -507.8189 -0.5949 0.3854 0.3776 0.5958 2356.0000 6.7314 6.7313
-431.8851 -3.9387 -508.7275 -0.5949 0.3854 0.3777 0.5958 2357.0000 6.7298 6.7297
-431.4675 -3.9473 -509.6361 -0.5949 0.3854 0.3777 0.5958 2358.0000 6.7283 6.7282
-431.0499 -3.9558 -510.5447 -0.5948 0.3855 0.3777 0.5958 2359.0000 6.7267 6.7266
-430.6324 -3.9644 -511.4533 -0.5948 0.3855 0.3777 0.5957 2360.0000 6.7252 6.7251
-430.2149 -3.9730 -512.3619 -0.5948 0.3855 0.3777 0.5957 2361.0000 6.7237 6.7237
-429.7975 -3.9815 -513.2706 -0.5948 0.3855 0.3777 0.5957 2362.0000 6.7223 6.7223
-429.3802 -3.9901 -514.1793 -0.5948 0.3855 0.3778 0.5957 2363.0000 6.7210 6.7209
-428.9629 -3.9987 -515.0881 -0.5948 0.3856 0.3778 0.5957 2364.0000 6.7197 6.7196
-428.5457 -4.0072 -515.9969 -0.5948 0.3856 0.3778 0.5957 2365.0000 6.7184 6.7183
-428.1286 -4.0158 -516.9057 -0.5948 0.3856 0.3778 0.5957 2366.0000 6.7172 6.7171
-427.7115 -4.0244 -517.8145 -0.5947 0.3856 0.3778 0.5957 2367.0000 6.7160 6.7160
-427.2945 -4.0329 -518.7234 -0.5947 0.3856 0.3779 0.5956 2368.0000 6.7149 6.7149
-426.8775 -4.0415 -519.6323 -0.5947 0.3857 0.3779 0.5956 2369.0000 6.7138 6.7138
-426.4606 -4.0501 -520.5411 -0.5947 0.3857 0.3779 0.5956 2370.0000 6.7127 6.7128
-426.0437 -4.0586 -521.4501 -0.5947 0.3857 0.3779 0.5956 2371.0000 6.7117 6.7118
-425.6269 -4.0672 -522.3590 -0.5947 0.3857 0.3779 0.5956 2372.0000 6.7107 6.7108
-425.2101 -4.0757 -523.2680 -0.5947 0.3857 0.3780 0.5956 2373.0000 6.7098 6.7098
-424.7934 -4.0843 -524.1770 -0.5947 0.3857 0.3780 0.5956 2374.0000 6.7089 6.7089
-424.3768 -4.0928 -525.0860 -0.5947 0.3858 0.3780 0.5956 2375.0000 6.7080 6.7080
-423.9602 -4.1014 -525.9951 -0.5946 0.3858 0.3780 0.5956 2376.0000 6.7072 6.7071
-423.5436 -4.1099 -526.9041 -0.5946 0.3858 0.3780 0.5955 2377.0000 6.7063 6.7062
-423.1271 -4.1185 -527.8132 -0.5946 0.3858 0.3780 0.5955 2378.0000 6.7055 6.7054
-422.7106 -4.1270 -528.7223 -0.5946 0.3858 0.3780 0.5955 2379.0000 6.7047 6.7046
-422.2941 -4.1356 -529.6314 -0.5946 0.3858 0.3780 0.5955 2380.0000 6.7039 6.7038
-421.8776 -4.1442 -530.5405 -0.5946 0.3858 0.3780 0.5955 2381.0000 6.7031 6.7031
-421.4612 -4.1527 -531.4496 -0.5946 0.3858 0.3780 0.5955 2382.0000 6.7023 6.7023
-421.0448 -4.1613 -532.3588 -0.5946 0.3858 0.3781 0.5955 2383.0000 6.7015 6.7015
-420.6284 -4.1699 -533.2679 -0.5946 0.3858 0.3780 0.5955 2384.0000 6.7006 6.7006
-420.2119 -4.1784 -534.1770 -0.5946 0.3858 0.3780 0.5955 2385.0000 6.6997 6.6997
-419.7954 -4.1870 -535.0861 -0.5946 0.3858 0.3780 0.5956 2386.0000 6.6987 6.6987
-419.3788 -4.1955 -535.9951 -0.5947 0.3857 0.3780 0.5956 2387.0000 6.6976 6.6975
-418.9619 -4.2041 -536.9041 -0.5947 0.3856 0.3779 0.5956 2388.0000 6.6962 6.6962
-418.5448 -4.2125 -537.8129 -0.5948 0.3855 0.3778 0.5957 2389.0000 6.6944 6.6944
-418.1272 -4.2210 -538.7215 -0.5949 0.3853 0.3776 0.5958 2390.0000 6.6921 6.6921
-417.7090 -4.2295 -539.6298 -0.5950 0.3851 0.3774 0.5960 2391.0000 6.6891 6.6891
-417.2900 -4.2379 -540.5377 -0.5952 0.3848 0.3771 0.5962 2392.0000 6.6852 6.6851
-416.8699 -4.2464 -541.4452 -0.5955 0.3844 0.3767 0.5965 2393.0000 6.6801 6.6799
-416.4484 -4.2548 -542.3520 -0.5958 0.3839 0.3762 0.5968 2394.0000 6.6734 6.6730
-416.0252 -4.2632 -543.2580 -0.5962 0.3833 0.3756 0.5972 2395.0000 6.6649 6.6640
-415.6001 -4.2715 -544.1631 -0.5966 0.3826 0.3749 0.5976 2396.0000 6.6542 6.6529
-415.1731 -4.2799 -545.0673 -0.5970 0.3819 0.3743 0.5980 2397.0000 6.6414 6.6394
-414.7440 -4.2883 -545.9705 -0.5974 0.3812 0.3736 0.5985 2398.0000 6.6263 6.6235
-414.3128 -4.2966 -546.8727 -0.5979 0.3805 0.3729 0.5989 2399.0000 6.6089 6.6052
-413.8795 -4.3049 -547.7739 -0.5982 0.3799 0.3723 0.5993 2400.0000 6.5893 6.5845
-413.4445 -4.3132 -548.6743 -0.5986 0.3793 0.3717 0.5997 2401.0000 6.5676 6.5619
-413.0080 -4.3214 -549.5740 -0.5988 0.3789 0.3713 0.6000 2402.0000 6.5441 6.5377
-412.5702 -4.3296 -550.4730 -0.5991 0.3785 0.3710 0.6002 2403.0000 6.5192 6.5122
-412.1315 -4.3377 -551.3716 -0.5992 0.3782 0.3707 0.6004 2404.0000 6.4930 6.4858
-411.6919 -4.3458 -552.2698 -0.5994 0.3779 0.3704 0.6006 2405.0000 6.4658 6.4584
-411.2516 -4.3538 -553.1676 -0.5995 0.3776 0.3702 0.6008 2406.0000 6.4377 6.4303
-410.8107 -4.3617 -554.0651 -0.5996 0.3775 0.3701 0.6009 2407.0000 6.4087 6.4016
-410.3693 -4.3696 -554.9624 -0.5997 0.3773 0.3699 0.6010 2408.0000 6.3791 6.3723
-409.9273 -4.3774 -555.8594 -0.5998 0.3771 0.3697 0.6011 2409.0000 6.3490 6.3427
-409.4846 -4.3854 -556.7560 -0.6000 0.3769 0.3694 0.6012 2410.0000 6.3186 6.3127
-409.0413 -4.3934 -557.6523 -0.6002 0.3767 0.3691 0.6014 2411.0000 6.2879 6.2826
-408.5972 -4.4017 -558.5483 -0.6004 0.3764 0.3688 0.6015 2412.0000 6.2573 6.2524
-408.1522 -4.4101 -559.4438 -0.6006 0.3762 0.3684 0.6017 2413.0000 6.2268 6.2224
-407.7063 -4.4187 -560.3388 -0.6008 0.3759 0.3680 0.6018 2414.0000 6.1967 6.1928
-407.2593 -4.4276 -561.2333 -0.6011 0.3757 0.3676 0.6020 2415.0000 6.1671 6.1637
-406.8115 -4.4367 -562.1274 -0.6013 0.3754 0.3673 0.6021 2416.0000 6.1382 6.1353
-406.3629 -4.4459 -563.0211 -0.6014 0.3753 0.3671 0.6023 2417.0000 6.1098 6.1074
-405.9138 -4.4551 -563.9146 -0.6015 0.3751 0.3670 0.6023 2418.0000 6.0819 6.0800
-405.4645 -4.4642 -564.8079 -0.6015 0.3750 0.3670 0.6024 2419.0000 6.0542 6.0530
-405.0152 -4.4731 -565.7012 -0.6015 0.3749 0.3670 0.6024 2420.0000 6.0268 6.0262
-404.5657 -4.4817 -566.5944 -0.6014 0.3748 0.3671 0.6025 2421.0000 6.0001 6.0001
-404.1161 -4.4901 -567.4877 -0.6014 0.3747 0.3671 0.6026 2422.0000 5.9744 5.9748
-403.6664 -4.4982 -568.3808 -0.6014 0.3745 0.3671 0.6027 2423.0000 5.9498 5.9507
-403.2163 -4.5059 -569.2737 -0.6014 0.3742 0.3671 0.6029 2424.0000 5.9269 5.9281
-402.7656 -4.5132 -570.1664 -0.6015 0.3738 0.3670 0.6032 2425.0000 5.9057 5.9072
-402.3138 -4.5198 -571.0585 -0.6016 0.3732 0.3668 0.6035 2426.0000 5.8867 5.8881
-401.8607 -4.5257 -571.9499 -0.6018 0.3724 0.3665 0.6040 2427.0000 5.8699 5.8713
-401.4059 -4.5309 -572.8405 -0.6020 0.3717 0.3661 0.6045 2428.0000 5.8556 5.8569
-400.9495 -4.5354 -573.7302 -0.6022 0.3709 0.3657 0.6050 2429.0000 5.8437 5.8447
-400.4912 -4.5394 -574.6190 -0.6025 0.3701 0.3653 0.6054 2430.0000 5.8339 5.8348
-400.0311 -4.5428 -575.5069 -0.6028 0.3693 0.3648 0.6059 2431.0000 5.8264 5.8271
-399.5691 -4.5460 -576.3937 -0.6032 0.3686 0.3642 0.6064 2432.0000 5.8211 5.8215
-399.1051 -4.5488 -577.2796 -0.6035 0.3679 0.3636 0.6068 2433.0000 5.8180 5.8182
-398.6392 -4.5516 -578.1644 -0.6039 0.3672 0.3629 0.6072 2434.0000 5.8174 5.8173
-398.1713 -4.5544 -579.0482 -0.6044 0.3665 0.3622 0.6076 2435.0000 5.8193 5.8190
-397.7012 -4.5573 -579.9308 -0.6048 0.3658 0.3614 0.6081 2436.0000 5.8238 5.8233
-397.2289 -4.5602 -580.8122 -0.6053 0.3649 0.3606 0.6086 2437.0000 5.8306 5.8300
-396.7540 -4.5631 -581.6923 -0.6059 0.3640 0.3597 0.6091 2438.0000 5.8396 5.8390
-396.2765 -4.5659 -582.5709 -0.6064 0.3630 0.3588 0.6097 2439.0000 5.8507 5.8500
-395.7958 -4.5686 -583.4478 -0.6071 0.3618 0.3576 0.6105 2440.0000 5.8632 5.8626
-395.3113 -4.5710 -584.3226 -0.6079 0.3602 0.3563 0.6114 2441.0000 5.8765 5.8762
-394.8223 -4.5732 -585.1949 -0.6088 0.3584 0.3547 0.6124 2442.0000 5.8897 5.8897
-394.3282 -4.5751 -586.0642 -0.6099 0.3564 0.3529 0.6136 2443.0000 5.9019 5.9024
-393.8285 -4.5766 -586.9304 -0.6109 0.3544 0.3511 0.6148 2444.0000 5.9129 5.9137
-393.3235 -4.5777 -587.7935 -0.6119 0.3524 0.3493 0.6159 2445.0000 5.9226 5.9235
-392.8134 -4.5784 -588.6536 -0.6128 0.3505 0.3477 0.6170 2446.0000 5.9310 5.9321
-392.2984 -4.5787 -589.5109 -0.6137 0.3486 0.3461 0.6181 2447.0000 5.9383 5.9394
-391.7789 -4.5787 -590.3653 -0.6145 0.3470 0.3447 0.6190 2448.0000 5.9446 5.9457
-391.2553 -4.5783 -591.2173 -0.6153 0.3455 0.3434 0.6198 2449.0000 5.9503 5.9513
-390.7281 -4.5777 -592.0670 -0.6159 0.3442 0.3422 0.6206 2450.0000 5.9556 5.9566
-390.1978 -4.5768 -592.9149 -0.6164 0.3431 0.3412 0.6212 2451.0000 5.9610 5.9620
-389.6645 -4.5758 -593.7608 -0.6171 0.3419 0.3401 0.6219 2452.0000 5.9664 5.9674
-389.1278 -4.5746 -594.6046 -0.6177 0.3405 0.3389 0.6226 2453.0000 5.9714 5.9722
-388.5874 -4.5733 -595.4460 -0.6185 0.3390 0.3375 0.6234 2454.0000 5.9754 5.9761
-388.0429 -4.5718 -596.2847 -0.6194 0.3374 0.3359 0.6243 2455.0000 5.9781 5.9785
-387.4940 -4.5702 -597.1206 -0.6202 0.3357 0.3343 0.6252 2456.0000 5.9792 5.9793
-386.9409 -4.5686 -597.9537 -0.6210 0.3341 0.3328 0.6260 2457.0000 5.9789 5.9786
-386.3836 -4.5669 -598.7841 -0.6218 0.3326 0.3313 0.6269 2458.0000 5.9771 5.9766
-385.8224 -4.5651 -599.6117 -0.6226 0.3311 0.3298 0.6277 2459.0000 5.9742 5.9732
-385.2574 -4.5632 -600.4368 -0.6233 0.3297 0.3285 0.6284 2460.0000 5.9702 5.9690
-384.6889 -4.5614 -601.2595 -0.6240 0.3284 0.3272 0.6290 2461.0000 5.9656 5.9642
-384.1173 -4.5596 -602.0800 -0.6246 0.3273 0.3261 0.6296 2462.0000 5.9607 5.9594
-383.5430 -4.5579 -602.8986 -0.6251 0.3264 0.3251 0.6301 2463.0000 5.9561 5.9548
-382.9661 -4.5562 -603.7155 -0.6256 0.3254 0.3241 0.6306 2464.0000 5.9519 5.9509
-382.3867 -4.5546 -604.5305 -0.6261 0.3244 0.3231 0.6311 2465.0000 5.9485 5.9477
-381.8046 -4.5531 -605.3436 -0.6267 0.3234 0.3221 0.6316 2466.0000 5.9459 5.9454
-381.2199 -4.5515 -606.1548 -0.6272 0.3224 0.3210 0.6322 2467.0000 5.9444 5.9443
-380.6325 -4.5500 -606.9641 -0.6278 0.3212 0.3199 0.6328 2468.0000 5.9441 5.9445
-380.0420 -4.5484 -607.7712 -0.6284 0.3200 0.3187 0.6334 2469.0000 5.9454 5.9462
-379.4483 -4.5467 -608.5759 -0.6290 0.3186 0.3175 0.6341 2470.0000 5.9484 5.9498
-378.8512 -4.5449 -609.3781 -0.6297 0.3172 0.3161 0.6348 2471.0000 5.9533 5.9555
-378.2505 -4.5430 -610.1775 -0.6304 0.3157 0.3147 0.6355 2472.0000 5.9604 5.9633
-377.6461 -4.5410 -610.9741 -0.6311 0.3142 0.3133 0.6363 2473.0000 5.9698 5.9735
-377.0380 -4.5388 -611.7680 -0.6318 0.3127 0.3119 0.6370 2474.0000 5.9815 5.9861
-376.4261 -4.5366 -612.5590 -0.6325 0.3112 0.3104 0.6378 2475.0000 5.9955 6.0011
-375.8107 -4.5343 -613.3472 -0.6332 0.3097 0.3090 0.6385 2476.0000 6.0120 6.0184
-375.1918 -4.5319 -614.1326 -0.6338 0.3083 0.3077 0.6391 2477.0000 6.0306 6.0377
-374.5698 -4.5294 -614.9156 -0.6344 0.3071 0.3065 0.6397 2478.0000 6.0512 6.0587
-373.9449 -4.5268 -615.6964 -0.6349 0.3059 0.3054 0.6403 2479.0000 6.0733 6.0811
-373.3174 -4.5240 -616.4749 -0.6354 0.3048 0.3045 0.6408 2480.0000 6.0967 6.1044
-372.6876 -4.5211 -617.2517 -0.6358 0.3039 0.3037 0.6412 2481.0000 6.1209 6.1283
-372.0559 -4.5179 -618.0269 -0.6360 0.3031 0.3031 0.6416 2482.0000 6.1455 6.1522
-371.4227 -4.5143 -618.8009 -0.6363 0.3024 0.3027 0.6420 2483.0000 6.1700 6.1758
-370.7883 -4.5103 -619.5739 -0.6364 0.3018 0.3023 0.6422 2484.0000 6.1939 6.1986
-370.1527 -4.5058 -620.3459 -0.6366 0.3012 0.3021 0.6425 2485.0000 6.2170 6.2206
-369.5162 -4.5009 -621.1171 -0.6367 0.3007 0.3018 0.6428 2486.0000 6.2391 6.2416
-368.8788 -4.4956 -621.8877 -0.6367 0.3002 0.3017 0.6430 2487.0000 6.2599 6.2614
-368.2407 -4.4898 -622.6576 -0.6368 0.2998 0.3015 0.6432 2488.0000 6.2793 6.2798
-367.6018 -4.4836 -623.4269 -0.6369 0.2993 0.3013 0.6434 2489.0000 6.2972 6.2970
-366.9622 -4.4771 -624.1956 -0.6370 0.2989 0.3011 0.6436 2490.0000 6.3137 6.3128
-366.3218 -4.4703 -624.9636 -0.6371 0.2985 0.3008 0.6438 2491.0000 6.3287 6.3273
-365.6805 -4.4632 -625.7308 -0.6373 0.2980 0.3005 0.6440 2492.0000 6.3423 6.3404
-365.0381 -4.4560 -626.4971 -0.6375 0.2974 0.3000 0.6443 2493.0000 6.3545 6.3525
-364.3943 -4.4486 -627.2623 -0.6378 0.2967 0.2994 0.6446 2494.0000 6.3657 6.3635
-363.7487 -4.4411 -628.0259 -0.6382 0.2959 0.2986 0.6450 2495.0000 6.3759 6.3736
-363.1011 -4.4335 -628.7878 -0.6386 0.2949 0.2977 0.6454 2496.0000 6.3854 6.3831
-362.4509 -4.4259 -629.5476 -0.6392 0.2937 0.2965 0.6460 2497.0000 6.3945 6.3922
-361.7976 -4.4183 -630.3047 -0.6398 0.2923 0.2951 0.6466 2498.0000 6.4033 6.4010
-361.1409 -4.4106 -631.0588 -0.6405 0.2907 0.2936 0.6473 2499.0000 6.4121 6.4099
-360.4804 -4.4030 -631.8096 -0.6413 0.2891 0.2919 0.6480 2500.0000 6.4212 6.4189
-359.8162 -4.3954 -632.5571 -0.6420 0.2876 0.2903 0.6487 2501.0000 6.4306 6.4282
-359.1484 -4.3881 -633.3014 -0.6427 0.2861 0.2888 0.6494 2502.0000 6.4405 6.4380
-358.4771 -4.3809 -634.0425 -0.6434 0.2847 0.2872 0.6500 2503.0000 6.4513 6.4486
-357.8025 -4.3740 -634.7807 -0.6441 0.2833 0.2857 0.6506 2504.0000 6.4630 6.4600
-357.1247 -4.3675 -635.5159 -0.6448 0.2821 0.2842 0.6511 2505.0000 6.4758 6.4724
-356.4438 -4.3613 -636.2483 -0.6454 0.2809 0.2827 0.6517 2506.0000 6.4897 6.4859
-355.7600 -4.3556 -636.9779 -0.6460 0.2797 0.2813 0.6521 2507.0000 6.5049 6.5006
-355.0733 -4.3504 -637.7048 -0.6467 0.2786 0.2798 0.6526 2508.0000 6.5214 6.5166
-354.3837 -4.3457 -638.4290 -0.6473 0.2774 0.2783 0.6531 2509.0000 6.5394 6.5340
-353.6910 -4.3415 -639.1502 -0.6480 0.2762 0.2768 0.6536 2510.0000 6.5587 6.5529
-352.9953 -4.3378 -639.8685 -0.6486 0.2750 0.2752 0.6542 2511.0000 6.5796 6.5735
-352.2964 -4.3347 -640.5837 -0.6493 0.2736 0.2736 0.6547 2512.0000 6.6020 6.5958
-351.5941 -4.3320 -641.2957 -0.6500 0.2722 0.2719 0.6553 2513.0000 6.6262 6.6201
-350.8885 -4.3297 -642.0042 -0.6508 0.2707 0.2702 0.6559 2514.0000 6.6523 6.6465
-350.1792 -4.3277 -642.7092 -0.6515 0.2691 0.2684 0.6566 2515.0000 6.6805 6.6754
-349.4663 -4.3261 -643.4104 -0.6522 0.2675 0.2666 0.6572 2516.0000 6.7109 6.7067
-348.7498 -4.3247 -644.1080 -0.6530 0.2658 0.2648 0.6579 2517.0000 6.7435 6.7405
-348.0296 -4.3234 -644.8018 -0.6537 0.2642 0.2631 0.6586 2518.0000 6.7782 6.7767
-347.3058 -4.3223 -645.4917 -0.6544 0.2625 0.2613 0.6592 2519.0000 6.8152 6.8154
-346.5784 -4.3213 -646.1780 -0.6550 0.2609 0.2597 0.6599 2520.0000 6.8543 6.8563
-345.8479 -4.3203 -646.8608 -0.6556 0.2594 0.2582 0.6605 2521.0000 6.8951 6.8988
-345.1144 -4.3194 -647.5405 -0.6562 0.2581 0.2568 0.6610 2522.0000 6.9371 6.9422
-344.3782 -4.3186 -648.2173 -0.6567 0.2569 0.2556 0.6614 2523.0000 6.9799 6.9862
-343.6397 -4.3179 -648.8915 -0.6571 0.2558 0.2545 0.6619 2524.0000 7.0228 7.0300
-342.8990 -4.3172 -649.5634 -0.6575 0.2547 0.2534 0.6623 2525.0000 7.0656 7.0735
-342.1562 -4.3165 -650.2330 -0.6578 0.2538 0.2525 0.6626 2526.0000 7.1078 7.1162
-341.4117 -4.3158 -650.9006 -0.6582 0.2529 0.2517 0.6629 2527.0000 7.1493 7.1577
-340.6656 -4.3150 -651.5663 -0.6585 0.2521 0.2509 0.6633 2528.0000 7.1895 7.1980
-339.9177 -4.3143 -652.2302 -0.6588 0.2512 0.2500 0.6636 2529.0000 7.2285 7.2370
-339.1680 -4.3136 -652.8920 -0.6592 0.2504 0.2491 0.6639 2530.0000 7.2665 7.2751
-338.4166 -4.3129 -653.5518 -0.6595 0.2495 0.2482 0.6642 2531.0000 7.3036 7.3122
-337.6634 -4.3124 -654.2095 -0.6599 0.2486 0.2472 0.6646 2532.0000 7.3397 7.3484
-336.9083 -4.3121 -654.8652 -0.6603 0.2477 0.2462 0.6649 2533.0000 7.3752 7.3839
-336.1512 -4.3121 -655.5186 -0.6607 0.2469 0.2451 0.6652 2534.0000 7.4099 7.4188
-335.3923 -4.3124 -656.1697 -0.6611 0.2460 0.2440 0.6656 2535.0000 7.4440 7.4531
-334.6312 -4.3130 -656.8184 -0.6615 0.2450 0.2428 0.6659 2536.0000 7.4776 7.4870
-333.8680 -4.3139 -657.4645 -0.6620 0.2438 0.2415 0.6663 2537.0000 7.5110 7.5209
-333.1023 -4.3148 -658.1077 -0.6625 0.2425 0.2402 0.6668 2538.0000 7.5443 7.5550
-332.3340 -4.3157 -658.7478 -0.6629 0.2411 0.2389 0.6673 2539.0000 7.5778 7.5896
-331.5631 -4.3164 -659.3847 -0.6634 0.2396 0.2376 0.6678 2540.0000 7.6118 7.6248
-330.7895 -4.3169 -660.0184 -0.6639 0.2382 0.2363 0.6684 2541.0000 7.6464 7.6605
-330.0132 -4.3172 -660.6488 -0.6643 0.2367 0.2350 0.6689 2542.0000 7.6815 7.6969
-329.2344 -4.3172 -661.2761 -0.6648 0.2352 0.2337 0.6694 2543.0000 7.7172 7.7337
-328.4531 -4.3169 -661.9002 -0.6652 0.2338 0.2325 0.6699 2544.0000 7.7533 7.7709
-327.6693 -4.3163 -662.5212 -0.6657 0.2324 0.2313 0.6704 2545.0000 7.7899 7.8085
-326.8831 -4.3154 -663.1392 -0.6661 0.2310 0.2301 0.6708 2546.0000 7.8271 7.8463
-326.0945 -4.3144 -663.7542 -0.6665 0.2297 0.2289 0.6713 2547.0000 7.8646 7.8842
-325.3038 -4.3133 -664.3663 -0.6669 0.2285 0.2277 0.6717 2548.0000 7.9025 7.9221
-324.5109 -4.3121 -664.9756 -0.6673 0.2273 0.2266 0.6721 2549.0000 7.9407 7.9598
-323.7160 -4.3108 -665.5824 -0.6676 0.2263 0.2256 0.6725 2550.0000 7.9788 7.9970
-322.9192 -4.3097 -666.1866 -0.6680 0.2253 0.2245 0.6728 2551.0000 8.0167 8.0337
-322.1206 -4.3086 -666.7885 -0.6684 0.2243 0.2234 0.6731 2552.0000 8.0540 8.0697
-321.3200 -4.3077 -667.3878 -0.6687 0.2232 0.2222 0.6735 2553.0000 8.0909 8.1054
-320.5174 -4.3070 -667.9843 -0.6692 0.2221 0.2210 0.6738 2554.0000 8.1273 8.1407
-319.7127 -4.3066 -668.5779 -0.6696 0.2210 0.2197 0.6742 2555.0000 8.1635 8.1760
-318.9058 -4.3064 -669.1686 -0.6700 0.2198 0.2183 0.6746 2556.0000 8.1996 8.2113
-318.0966 -4.3065 -669.7561 -0.6705 0.2186 0.2170 0.6750 2557.0000 8.2357 8.2467
-317.2851 -4.3068 -670.3405 -0.6709 0.2172 0.2156 0.6754 2558.0000 8.2720 8.2825
-316.4713 -4.3072 -670.9215 -0.6714 0.2159 0.2142 0.6758 2559.0000 8.3086 8.3186
-315.6550 -4.3076 -671.4991 -0.6719 0.2144 0.2127 0.6763 2560.0000 8.3456 8.3553
-314.8362 -4.3080 -672.0733 -0.6723 0.2130 0.2113 0.6768 2561.0000 8.3831 8.3924
-314.0150 -4.3082 -672.6439 -0.6728 0.2114 0.2099 0.6772 2562.0000 8.4210 8.4300
-313.1912 -4.3083 -673.2109 -0.6732 0.2098 0.2085 0.6777 2563.0000 8.4594 8.4682
-312.3649 -4.3080 -673.7740 -0.6737 0.2081 0.2070 0.6783 2564.0000 8.4983 8.5069
-311.5357 -4.3076 -674.3330 -0.6742 0.2063 0.2053 0.6788 2565.0000 8.5373 8.5461
-310.7035 -4.3069 -674.8875 -0.6747 0.2043 0.2035 0.6794 2566.0000 8.5763 8.5855
-309.8682 -4.3060 -675.4373 -0.6753 0.2022 0.2015 0.6800 2567.0000 8.6153 8.6251
-309.0296 -4.3049 -675.9820 -0.6759 0.2002 0.1996 0.6806 2568.0000 8.6541 8.6645
-308.1879 -4.3037 -676.5219 -0.6765 0.1982 0.1978 0.6812 2569.0000 8.6924 8.7030
-307.3432 -4.3024 -677.0572 -0.6770 0.1963 0.1959 0.6817 2570.0000 8.7295 8.7400
-306.4956 -4.3009 -677.5878 -0.6775 0.1945 0.1942 0.6823 2571.0000 8.7649 8.7750
-305.6453 -4.2994 -678.1141 -0.6780 0.1927 0.1925 0.6828 2572.0000 8.7982 8.8077
-304.7924 -4.2978 -678.6361 -0.6785 0.1910 0.1909 0.6832 2573.0000 8.8291 8.8378
-303.9369 -4.2960 -679.1541 -0.6789 0.1893 0.1893 0.6837 2574.0000 8.8575 8.8653
-303.0791 -4.2941 -679.6680 -0.6793 0.1877 0.1878 0.6841 2575.0000 8.8831 8.8899
-302.2189 -4.2919 -680.1779 -0.6798 0.1859 0.1862 0.6846 2576.0000 8.9058 8.9119
-301.3560 -4.2896 -680.6833 -0.6802 0.1840 0.1845 0.6851 2577.0000 8.9259 8.9315
-300.4904 -4.2870 -681.1840 -0.6808 0.1820 0.1826 0.6857 2578.0000 8.9438 8.9493
-299.6218 -4.2843 -681.6795 -0.6813 0.1797 0.1805 0.6862 2579.0000 8.9600 8.9655
-298.7499 -4.2813 -682.1693 -0.6819 0.1774 0.1783 0.6868 2580.0000 8.9748 8.9805
-297.8747 -4.2784 -682.6529 -0.6826 0.1749 0.1758 0.6875 2581.0000 8.9887 8.9946
-296.9958 -4.2754 -683.1299 -0.6833 0.1722 0.1731 0.6881 2582.0000 9.0018 9.0082
-296.1131 -4.2727 -683.5999 -0.6840 0.1695 0.1702 0.6888 2583.0000 9.0146 9.0215
-295.2265 -4.2703 -684.0623 -0.6848 0.1666 0.1672 0.6895 2584.0000 9.0272 9.0344
-294.3360 -4.2681 -684.5173 -0.6855 0.1638 0.1642 0.6902 2585.0000 9.0393 9.0462
-293.4417 -4.2662 -684.9647 -0.6862 0.1610 0.1612 0.6908 2586.0000 9.0500 9.0563
-292.5436 -4.2647 -685.4045 -0.6869 0.1582 0.1582 0.6914 2587.0000 9.0588 9.0639
-291.6419 -4.2634 -685.8369 -0.6876 0.1554 0.1552 0.6921 2588.0000 9.0652 9.0688
-290.7366 -4.2624 -686.2617 -0.6883 0.1526 0.1523 0.6927 2589.0000 9.0689 9.0706
-289.8279 -4.2615 -686.6791 -0.6889 0.1499 0.1496 0.6933 2590.0000 9.0696 9.0692
-288.9160 -4.2606 -687.0895 -0.6895 0.1472 0.1469 0.6938 2591.0000 9.0671 9.0644
-288.0009 -4.2597 -687.4927 -0.6900 0.1444 0.1442 0.6944 2592.0000 9.0614 9.0564
-287.0826 -4.2587 -687.8887 -0.6906 0.1416 0.1415 0.6950 2593.0000 9.0525 9.0454
-286.1613 -4.2575 -688.2774 -0.6912 0.1388 0.1389 0.6955 2594.0000 9.0408 9.0317
-285.2368 -4.2560 -688.6587 -0.6917 0.1358 0.1362 0.6961 2595.0000 9.0267 9.0159
-284.3092 -4.2541 -689.0323 -0.6923 0.1328 0.1334 0.6967 2596.0000 9.0105 8.9979
-283.3785 -4.2519 -689.3980 -0.6928 0.1296 0.1305 0.6973 2597.0000 8.9925 8.9782
-282.4445 -4.2493 -689.7553 -0.6934 0.1263 0.1275 0.6979 2598.0000 8.9729 8.9570
-281.5073 -4.2462 -690.1039 -0.6940 0.1228 0.1244 0.6985 2599.0000 8.9519 8.9347
-280.5669 -4.2427 -690.4439 -0.6945 0.1196 0.1215 0.6990 2600.0000 8.9301 8.9119
-279.6237 -4.2389 -690.7761 -0.6950 0.1168 0.1188 0.6995 2601.0000 8.9075 8.8889
-278.6779 -4.2351 -691.1011 -0.6954 0.1143 0.1163 0.6999 2602.0000 8.8844 8.8657
-277.7301 -4.2313 -691.4198 -0.6958 0.1121 0.1141 0.7002 2603.0000 8.8606 8.8425
-276.7804 -4.2277 -691.7329 -0.6961 0.1103 0.1121 0.7005 2604.0000 8.8362 8.8194
-275.8291 -4.2243 -692.0411 -0.6964 0.1087 0.1103 0.7007 2605.0000 8.8117 8.7967
-274.8764 -4.2212 -692.3452 -0.6967 0.1074 0.1088 0.7009 2606.0000 8.7872 8.7747
-273.9227 -4.2185 -692.6457 -0.6969 0.1063 0.1075 0.7011 2607.0000 8.7633 8.7534
-272.9679 -4.2162 -692.9430 -0.6971 0.1052 0.1062 0.7012 2608.0000 8.7403 8.7328
-272.0120 -4.2141 -693.2368 -0.6973 0.1040 0.1047 0.7014 2609.0000 8.7180 8.7127
-271.0549 -4.2122 -693.5267 -0.6975 0.1025 0.1032 0.7016 2610.0000 8.6966 8.6929
-270.0966 -4.2104 -693.8122 -0.6978 0.1008 0.1016 0.7019 2611.0000 8.6758 8.6736
-269.1368 -4.2086 -694.0931 -0.6980 0.0991 0.0998 0.7021 2612.0000 8.6555 8.6545
-268.1757 -4.2067 -694.3690 -0.6983 0.0972 0.0979 0.7024 2613.0000 8.6358 8.6358
-267.2130 -4.2049 -694.6396 -0.6986 0.0952 0.0960 0.7026 2614.0000 8.6164 8.6172
-266.2488 -4.2032 -694.9048 -0.6989 0.0932 0.0939 0.7029 2615.0000 8.5973 8.5987
-265.2830 -4.2014 -695.1642 -0.6992 0.0911 0.0918 0.7032 2616.0000 8.5783 8.5802
-264.3157 -4.1998 -695.4178 -0.6995 0.0891 0.0897 0.7034 2617.0000 8.5589 8.5612
-263.3469 -4.1984 -695.6656 -0.6997 0.0870 0.0875 0.7037 2618.0000 8.5389 8.5413
-262.3766 -4.1971 -695.9076 -0.7000 0.0850 0.0853 0.7039 2619.0000 8.5178 8.5202
-261.4049 -4.1962 -696.1438 -0.7003 0.0830 0.0831 0.7041 2620.0000 8.4954 8.4974
-260.4318 -4.1954 -696.3741 -0.7006 0.0809 0.0810 0.7044 2621.0000 8.4713 8.4727
-259.4574 -4.1948 -696.5987 -0.7008 0.0789 0.0788 0.7046 2622.0000 8.4454 8.4458
-258.4816 -4.1944 -696.8174 -0.7011 0.0768 0.0767 0.7048 2623.0000 8.4175 8.4163
-257.5045 -4.1941 -697.0303 -0.7013 0.0748 0.0746 0.7050 2624.0000 8.3872 8.3842
-256.5262 -4.1939 -697.2374 -0.7015 0.0728 0.0725 0.7052 2625.0000 8.3545 8.3493
-255.5467 -4.1938 -697.4390 -0.7017 0.0707 0.0705 0.7054 2626.0000 8.3193 8.3116
-254.5661 -4.1935 -697.6350 -0.7019 0.0688 0.0686 0.7056 2627.0000 8.2814 8.2711
-253.5845 -4.1932 -697.8256 -0.7021 0.0668 0.0668 0.7058 2628.0000 8.2409 8.2280
-252.6018 -4.1927 -698.0112 -0.7023 0.0649 0.0651 0.7059 2629.0000 8.1978 8.1825
-251.6183 -4.1917 -698.1921 -0.7024 0.0631 0.0637 0.7061 2630.0000 8.1525 8.1350
-250.6340 -4.1902 -698.3685 -0.7026 0.0614 0.0623 0.7062 2631.0000 8.1051 8.0856
-249.6490 -4.1880 -698.5408 -0.7027 0.0597 0.0612 0.7064 2632.0000 8.0560 8.0352
-248.6633 -4.1851 -698.7094 -0.7028 0.0582 0.0602 0.7065 2633.0000 8.0061 7.9847
-247.6771 -4.1814 -698.8748 -0.7028 0.0568 0.0595 0.7066 2634.0000 7.9564 7.9351
-246.6904 -4.1768 -699.0374 -0.7029 0.0556 0.0589 0.7067 2635.0000 7.9078 7.8875
-245.7033 -4.1713 -699.1973 -0.7029 0.0543 0.0582 0.7068 2636.0000 7.8613 7.8421
-244.7157 -4.1652 -699.3546 -0.7030 0.0531 0.0574 0.7069 2637.0000 7.8175 7.7995
-243.7278 -4.1585 -699.5090 -0.7031 0.0519 0.0565 0.7069 2638.0000 7.7768 7.7600
-242.7393 -4.1515 -699.6603 -0.7032 0.0508 0.0554 0.7070 2639.0000 7.7395 7.7241
-241.7504 -4.1445 -699.8085 -0.7033 0.0496 0.0544 0.7071 2640.0000 7.7059 7.6920
-240.7610 -4.1374 -699.9536 -0.7034 0.0485 0.0533 0.7072 2641.0000 7.6759 7.6634
-239.7711 -4.1304 -700.0956 -0.7035 0.0475 0.0521 0.7072 2642.0000 7.6493 7.6383
-238.7809 -4.1235 -700.2346 -0.7035 0.0465 0.0510 0.7073 2643.0000 7.6260 7.6163
-237.7902 -4.1168 -700.3708 -0.7036 0.0456 0.0500 0.7073 2644.0000 7.6057 7.5974
-236.7992 -4.1103 -700.5047 -0.7037 0.0450 0.0493 0.7074 2645.0000 7.5880 7.5808
-235.8080 -4.1039 -700.6370 -0.7037 0.0445 0.0488 0.7074 2646.0000 7.5724 7.5661
-234.8167 -4.0975 -700.7680 -0.7037 0.0441 0.0484 0.7074 2647.0000 7.5582 7.5528
-233.8252 -4.0911 -700.8983 -0.7037 0.0439 0.0482 0.7074 2648.0000 7.5449 7.5402
-232.8337 -4.0847 -701.0283 -0.7038 0.0438 0.0481 0.7075 2649.0000 7.5322 7.5281
-231.8422 -4.0783 -701.1580 -0.7038 0.0438 0.0481 0.7075 2650.0000 7.5198 7.5162
-230.8507 -4.0720 -701.2877 -0.7038 0.0439 0.0481 0.7074 2651.0000 7.5074 7.5043
-229.8592 -4.0657 -701.4177 -0.7038 0.0440 0.0482 0.7074 2652.0000 7.4949 7.4921
-228.8677 -4.0596 -701.5478 -0.7038 0.0441 0.0482 0.7074 2653.0000 7.4823 7.4798
-227.8762 -4.0536 -701.6781 -0.7038 0.0442 0.0481 0.7074 2654.0000 7.4696 7.4674
-226.8848 -4.0478 -701.8084 -0.7038 0.0443 0.0481 0.7074 2655.0000 7.4570 7.4550
-225.8933 -4.0422 -701.9387 -0.7038 0.0443 0.0480 0.7074 2656.0000 7.4446 7.4426
-224.9019 -4.0368 -702.0690 -0.7038 0.0444 0.0480 0.7074 2657.0000 7.4323 7.4304
-223.9104 -4.0315 -702.1993 -0.7038 0.0444 0.0479 0.7074 2658.0000 7.4202 7.4183
-222.9189 -4.0262 -702.3294 -0.7038 0.0443 0.0478 0.7074 2659.0000 7.4083 7.4065
-221.9274 -4.0210 -702.4594 -0.7038 0.0443 0.0478 0.7074 2660.0000 7.3966 7.3948
-220.9359 -4.0157 -702.5892 -0.7038 0.0442 0.0477 0.7074 2661.0000 7.3851 7.3834
-219.9443 -4.0105 -702.7188 -0.7038 0.0442 0.0476 0.7074 2662.0000 7.3739 7.3723
-218.9528 -4.0053 -702.8483 -0.7038 0.0441 0.0476 0.7074 2663.0000 7.3630 7.3614
-217.9612 -4.0001 -702.9775 -0.7038 0.0440 0.0475 0.7074 2664.0000 7.3523 7.3508
-216.9695 -3.9948 -703.1066 -0.7038 0.0440 0.0475 0.7074 2665.0000 7.3418 7.3404
-215.9779 -3.9896 -703.2355 -0.7038 0.0439 0.0474 0.7074 2666.0000 7.3317 7.3303
-214.9862 -3.9843 -703.3643 -0.7038 0.0439 0.0474 0.7074 2667.0000 7.3218 7.3205
-213.9946 -3.9790 -703.4929 -0.7038 0.0438 0.0473 0.7075 2668.0000 7.3121 7.3108
-213.0029 -3.9738 -703.6215 -0.7038 0.0438 0.0473 0.7075 2669.0000 7.3027 7.3014
-212.0112 -3.9685 -703.7498 -0.7038 0.0437 0.0472 0.7075 2670.0000 7.2935 7.2922
-211.0194 -3.9632 -703.8780 -0.7038 0.0436 0.0471 0.7075 2671.0000 7.2845 7.2832
-210.0276 -3.9579 -704.0060 -0.7038 0.0436 0.0471 0.7075 2672.0000 7.2757 7.2744
-209.0359 -3.9525 -704.1338 -0.7038 0.0435 0.0470 0.7075 2673.0000 7.2672 7.2658
-208.0441 -3.9472 -704.2614 -0.7038 0.0434 0.0470 0.7075 2674.0000 7.2588 7.2575
-207.0522 -3.9419 -704.3889 -0.7038 0.0433 0.0469 0.7075 2675.0000 7.2506 7.2493
-206.0604 -3.9365 -704.5161 -0.7038 0.0433 0.0468 0.7075 2676.0000 7.2427 7.2415
-205.0685 -3.9311 -704.6431 -0.7039 0.0432 0.0468 0.7075 2677.0000 7.2349 7.2338
-204.0766 -3.9258 -704.7700 -0.7039 0.0431 0.0467 0.7075 2678.0000 7.2274 7.2264
-203.0847 -3.9204 -704.8967 -0.7039 0.0431 0.0466 0.7075 2679.0000 7.2200 7.2191
-202.0927 -3.9150 -705.0231 -0.7039 0.0430 0.0466 0.7075 2680.0000 7.2128 7.2119
-201.1007 -3.9096 -705.1495 -0.7039 0.0429 0.0465 0.7075 2681.0000 7.2058 7.2049
-200.1087 -3.9042 -705.2756 -0.7039 0.0429 0.0464 0.7075 2682.0000 7.1990 7.1980
-199.1167 -3.8988 -705.4016 -0.7039 0.0428 0.0464 0.7075 2683.0000 7.1924 7.1914
-198.1246 -3.8935 -705.5272 -0.7039 0.0427 0.0463 0.7075 2684.0000 7.1860 7.1849
-197.1326 -3.8881 -705.6527 -0.7039 0.0426 0.0462 0.7075 2685.0000 7.1797 7.1787
-196.1405 -3.8827 -705.7780 -0.7039 0.0426 0.0461 0.7075 2686.0000 7.1736 7.1726
-195.1483 -3.8774 -705.9031 -0.7039 0.0425 0.0461 0.7075 2687.0000 7.1677 7.1667
-194.1562 -3.8720 -706.0281 -0.7039 0.0424 0.0460 0.7075 2688.0000 7.1619 7.1610
-193.1640 -3.8666 -706.1528 -0.7039 0.0424 0.0460 0.7075 2689.0000 7.1564 7.1555
-192.1718 -3.8612 -706.2773 -0.7039 0.0423 0.0459 0.7075 2690.0000 7.1510 7.1502
-191.1796 -3.8558 -706.4017 -0.7039 0.0422 0.0458 0.7075 2691.0000 7.1458 7.1451
-190.1873 -3.8503 -706.5257 -0.7039 0.0421 0.0457 0.7075 2692.0000 7.1408 7.1401
