VERSION 0.7
FIELDS x y z lapdistance
SIZE 4 4 4 4
TYPE F F F F
COUNT 1 1 1 1
WIDTH 1359
HEIGHT 1
VIEWPOINT 0.000 0.000 0.000 1.000 0.000 0.000 0.000
POINTS 1359
DATA ascii
-416.4167 -150.3170 2.6946 162.9569
-416.4801 -151.3147 2.6971 163.9567
-416.5391 -152.3127 2.6995 164.9564
-416.5938 -153.3109 2.7019 165.9561
-416.6440 -154.3094 2.7043 166.9559
-416.6897 -155.3080 2.7067 167.9556
-416.7310 -156.3069 2.7091 168.9554
-416.7679 -157.3060 2.7115 169.9551
-416.8004 -158.3052 2.7138 170.9548
-416.8283 -159.3045 2.7162 171.9545
-416.8518 -160.3040 2.7185 172.9543
-416.8708 -161.3035 2.7208 173.9540
-416.8853 -162.3032 2.7231 174.9538
-416.8953 -163.3028 2.7254 175.9535
-416.9008 -164.3026 2.7277 176.9532
-416.9017 -165.3023 2.7300 177.9530
-416.8982 -166.3020 2.7323 178.9527
-416.8901 -167.3017 2.7345 179.9524
-416.8775 -168.3014 2.7368 180.9522
-416.8603 -169.3009 2.7390 181.9519
-416.8386 -170.3004 2.7412 182.9516
-416.8124 -171.2998 2.7434 183.9514
-416.7816 -172.2991 2.7456 184.9511
-416.7462 -173.2982 2.7478 185.9509
-416.7063 -174.2971 2.7500 186.9506
-416.6618 -175.2959 2.7521 187.9503
-416.6128 -176.2944 2.7543 188.9501
-416.5592 -177.2927 2.7564 189.9498
-416.5010 -178.2907 2.7586 190.9495
-416.4382 -179.2885 2.7607 191.9493
-416.3709 -180.2860 2.7628 192.9490
-416.2991 -181.2831 2.7649 193.9487
-416.2226 -182.2799 2.7670 194.9485
-416.1416 -183.2764 2.7690 195.9482
-416.0561 -184.2724 2.7711 196.9479
-415.9659 -185.2681 2.7731 197.9477
-415.8713 -186.2633 2.7752 198.9474
-415.7720 -187.2581 2.7772 199.9472
-415.6682 -188.2525 2.7792 200.9469
-415.5599 -189.2463 2.7812 201.9466
-415.4471 -190.2397 2.7832 202.9464
-415.3297 -191.2325 2.7852 203.9461
-415.2077 -192.2247 2.7872 204.9458
-415.0813 -193.2164 2.7892 205.9456
-414.9503 -194.2076 2.7911 206.9453
-414.8148 -195.1981 2.7931 207.9450
-414.6748 -196.1880 2.7950 208.9448
-414.5303 -197.1772 2.7969 209.9445
-414.3814 -198.1658 2.7988 210.9442
-414.2279 -199.1536 2.8007 211.9440
-414.0700 -200.1408 2.8026 212.9437
-413.9076 -201.1273 2.8045 213.9435
-413.7408 -202.1130 2.8063 214.9432
-413.5695 -203.0979 2.8082 215.9429
-413.3937 -204.0821 2.8100 216.9427
-413.2136 -205.0655 2.8119 217.9424
-413.0290 -206.0480 2.8137 218.9421
-412.8401 -207.0297 2.8155 219.9419
-412.6467 -208.0106 2.8173 220.9416
-412.4489 -208.9906 2.8191 221.9413
-412.2468 -209.9697 2.8209 222.9411
-412.0403 -210.9478 2.8227 223.9408
-411.8294 -211.9251 2.8245 224.9406
-411.6142 -212.9014 2.8262 225.9403
-411.3947 -213.8767 2.8280 226.9400
-411.1708 -214.8510 2.8297 227.9397
-410.9427 -215.8244 2.8314 228.9395
-410.7101 -216.7967 2.8332 229.9392
-410.4734 -217.7680 2.8349 230.9389
-410.2323 -218.7382 2.8366 231.9387
-409.9870 -219.7074 2.8383 232.9384
-409.7373 -220.6755 2.8400 233.9382
-409.4835 -221.6424 2.8416 234.9379
-409.2254 -222.6083 2.8433 235.9376
-408.9630 -223.5730 2.8450 236.9374
-408.6964 -224.5365 2.8466 237.9371
-408.4256 -225.4989 2.8483 238.9368
-408.1506 -226.4600 2.8499 239.9366
-407.8714 -227.4200 2.8515 240.9363
-407.5880 -228.3787 2.8532 241.9361
-407.3004 -229.3362 2.8548 242.9358
-407.0086 -230.2924 2.8564 243.9355
-406.7126 -231.2473 2.8580 244.9353
-406.4125 -232.2009 2.8596 245.9350
-406.1082 -233.1532 2.8612 246.9347
-405.7998 -234.1042 2.8628 247.9345
-405.4872 -235.0538 2.8643 248.9342
-405.1705 -236.0020 2.8659 249.9339
-404.8497 -236.9489 2.8675 250.9337
-404.5248 -237.8944 2.8690 251.9334
-404.1957 -238.8384 2.8706 252.9332
-403.8625 -239.7810 2.8721 253.9329
-403.5253 -240.7221 2.8736 254.9326
-403.1840 -241.6618 2.8752 255.9324
-402.8385 -242.5999 2.8767 256.9321
-402.4890 -243.5366 2.8782 257.9318
-402.1355 -244.4717 2.8797 258.9316
-401.7778 -245.4053 2.8813 259.9313
-401.4162 -246.3373 2.8828 260.9310
-401.0504 -247.2677 2.8843 261.9308
-400.6807 -248.1966 2.8858 262.9305
-400.3069 -249.1238 2.8873 263.9302
-399.9291 -250.0494 2.8888 264.9300
-399.5473 -250.9734 2.8902 265.9297
-399.1614 -251.8956 2.8917 266.9294
-398.7716 -252.8162 2.8932 267.9292
-398.3778 -253.7351 2.8947 268.9289
-397.9800 -254.6523 2.8961 269.9286
-397.5783 -255.5678 2.8976 270.9284
-397.1726 -256.4815 2.8990 271.9281
-396.7629 -257.3935 2.9005 272.9279
-396.3493 -258.3036 2.9019 273.9276
-395.9318 -259.2120 2.9034 274.9273
-395.5103 -260.1186 2.9048 275.9271
-395.0850 -261.0233 2.9062 276.9268
-394.6558 -261.9262 2.9076 277.9265
-394.2226 -262.8272 2.9090 278.9263
-393.7856 -263.7264 2.9104 279.9260
-393.3447 -264.6237 2.9118 280.9258
-392.9000 -265.5190 2.9132 281.9255
-392.4514 -266.4124 2.9146 282.9252
-391.9990 -267.3040 2.9160 283.9250
-391.5428 -268.1935 2.9173 284.9247
-391.0827 -269.0811 2.9187 285.9244
-390.6189 -269.9668 2.9200 286.9242
-390.1513 -270.8504 2.9214 287.9239
-389.6799 -271.7320 2.9227 288.9236
-389.2047 -272.6116 2.9240 289.9234
-388.7258 -273.4892 2.9253 290.9231
-388.2432 -274.3647 2.9266 291.9229
-387.7568 -275.2381 2.9279 292.9226
-387.2667 -276.1095 2.9291 293.9223
-386.7729 -276.9788 2.9304 294.9221
-386.2754 -277.8459 2.9316 295.9218
-385.7742 -278.7110 2.9328 296.9215
-385.2694 -279.5739 2.9340 297.9213
-384.7609 -280.4346 2.9352 298.9210
-384.2487 -281.2932 2.9364 299.9207
-383.7329 -282.1496 2.9376 300.9205
-383.2135 -283.0038 2.9387 301.9202
-382.6905 -283.8558 2.9399 302.9200
-382.1638 -284.7056 2.9410 303.9197
-381.6336 -285.5531 2.9421 304.9194
-381.0998 -286.3984 2.9431 305.9191
-380.5623 -287.2414 2.9442 306.9189
-380.0214 -288.0821 2.9452 307.9186
-379.4769 -288.9206 2.9463 308.9184
-378.9288 -289.7567 2.9473 309.9181
-378.3772 -290.5905 2.9483 310.9178
-377.8221 -291.4219 2.9492 311.9176
-377.2635 -292.2510 2.9502 312.9173
-376.7014 -293.0778 2.9511 313.9170
-376.1357 -293.9021 2.9520 314.9167
-375.5667 -294.7241 2.9529 315.9165
-374.9941 -295.5436 2.9538 316.9162
-374.4180 -296.3607 2.9546 317.9160
-373.8386 -297.1754 2.9555 318.9157
-373.2556 -297.9875 2.9563 319.9155
-372.6693 -298.7973 2.9571 320.9152
-372.0795 -299.6045 2.9578 321.9149
-371.4863 -300.4092 2.9586 322.9146
-370.8897 -301.2114 2.9593 323.9144
-370.2897 -302.0111 2.9600 324.9141
-369.6863 -302.8082 2.9607 325.9138
-369.0796 -303.6028 2.9614 326.9136
-368.4695 -304.3948 2.9621 327.9133
-367.8560 -305.1841 2.9627 328.9131
-367.2392 -305.9709 2.9633 329.9128
-366.6190 -306.7551 2.9639 330.9125
-365.9956 -307.5366 2.9645 331.9123
-365.3688 -308.3155 2.9651 332.9120
-364.7388 -309.0917 2.9656 333.9118
-364.1054 -309.8652 2.9662 334.9115
-363.4688 -310.6360 2.9667 335.9112
-362.8289 -311.4042 2.9672 336.9109
-362.1858 -312.1696 2.9677 337.9107
-361.5394 -312.9322 2.9682 338.9104
-360.8897 -313.6921 2.9686 339.9102
-360.2369 -314.4492 2.9690 340.9099
-359.5808 -315.2036 2.9695 341.9096
-358.9216 -315.9552 2.9699 342.9094
-358.2591 -316.7039 2.9703 343.9091
-357.5935 -317.4499 2.9707 344.9088
-356.9247 -318.1930 2.9710 345.9086
-356.2527 -318.9332 2.9714 346.9083
-355.5777 -319.6706 2.9717 347.9081
-354.8994 -320.4051 2.9721 348.9078
-354.2181 -321.1367 2.9724 349.9075
-353.5337 -321.8654 2.9727 350.9073
-352.8462 -322.5912 2.9730 351.9070
-352.1555 -323.3141 2.9733 352.9067
-351.4619 -324.0340 2.9735 353.9065
-350.7651 -324.7509 2.9738 354.9062
-350.0653 -325.4649 2.9741 355.9059
-349.3625 -326.1759 2.9743 356.9057
-348.6566 -326.8839 2.9745 357.9054
-347.9478 -327.5888 2.9747 358.9052
-347.2359 -328.2908 2.9749 359.9049
-346.5211 -328.9897 2.9751 360.9046
-345.8033 -329.6855 2.9753 361.9044
-345.0825 -330.3784 2.9755 362.9041
-344.3588 -331.0681 2.9756 363.9038
-343.6321 -331.7547 2.9758 364.9036
-342.9026 -332.4382 2.9759 365.9033
-342.1700 -333.1186 2.9760 366.9030
-341.4347 -333.7958 2.9762 367.9028
-340.6964 -334.4699 2.9763 368.9025
-339.9552 -335.1408 2.9763 369.9023
-339.2112 -335.8086 2.9764 370.9020
-338.4643 -336.4731 2.9765 371.9017
-337.7146 -337.1345 2.9765 372.9015
-336.9621 -337.7927 2.9766 373.9012
-336.2067 -338.4476 2.9766 374.9009
-335.4486 -339.0993 2.9766 375.9007
-334.6876 -339.7477 2.9766 376.9004
-333.9239 -340.3928 2.9766 377.9001
-333.1574 -341.0347 2.9766 378.8998
-332.3882 -341.6732 2.9766 379.8996
-331.6162 -342.3085 2.9765 380.8993
-330.8416 -342.9404 2.9765 381.8990
-330.0641 -343.5690 2.9764 382.8988
-329.2840 -344.1942 2.9763 383.8986
-328.5013 -344.8161 2.9762 384.8983
-327.7158 -345.4345 2.9761 385.8980
-326.9277 -346.0496 2.9760 386.8977
-326.1369 -346.6613 2.9758 387.8975
-325.3435 -347.2696 2.9757 388.8972
-324.5475 -347.8744 2.9755 389.8969
-323.7488 -348.4758 2.9754 390.8967
-322.9476 -349.0737 2.9752 391.8964
-322.1439 -349.6682 2.9750 392.8961
-321.3375 -350.2592 2.9748 393.8959
-320.5286 -350.8467 2.9746 394.8956
-319.7171 -351.4307 2.9743 395.8954
-318.9032 -352.0111 2.9741 396.8951
-318.0867 -352.5881 2.9738 397.8948
-317.2678 -353.1615 2.9736 398.8946
-316.4464 -353.7313 2.9733 399.8943
-315.6225 -354.2976 2.9730 400.8940
-314.7961 -354.8603 2.9727 401.8938
-313.9674 -355.4195 2.9724 402.8935
-313.1362 -355.9750 2.9721 403.8932
-312.3027 -356.5270 2.9718 404.8930
-311.4667 -357.0753 2.9714 405.8927
-310.6284 -357.6200 2.9711 406.8925
-309.7878 -358.1611 2.9707 407.8922
-308.9448 -358.6985 2.9704 408.8919
-308.0995 -359.2324 2.9700 409.8917
-307.2519 -359.7625 2.9697 410.8914
-306.4020 -360.2890 2.9693 411.8911
-305.5499 -360.8118 2.9689 412.8909
-304.6955 -361.3309 2.9685 413.8906
-303.8389 -361.8463 2.9681 414.8904
-302.9800 -362.3581 2.9677 415.8901
-302.1190 -362.8661 2.9673 416.8898
-301.2558 -363.3705 2.9669 417.8896
-300.3904 -363.8711 2.9665 418.8893
-299.5229 -364.3680 2.9661 419.8890
-298.6533 -364.8611 2.9656 420.8888
-297.7815 -365.3505 2.9652 421.8885
-296.9077 -365.8361 2.9648 422.8882
-296.0317 -366.3180 2.9643 423.8880
-295.1537 -366.7961 2.9639 424.8877
-294.2737 -367.2704 2.9634 425.8874
-293.3916 -367.7410 2.9630 426.8872
-292.5075 -368.2078 2.9625 427.8869
-291.6215 -368.6707 2.9621 428.8866
-290.7334 -369.1299 2.9616 429.8864
-289.8434 -369.5853 2.9611 430.8861
-288.9514 -370.0368 2.9607 431.8858
-288.0576 -370.4845 2.9602 432.8856
-287.1617 -370.9283 2.9597 433.8853
-286.2640 -371.3683 2.9592 434.8851
-285.3644 -371.8045 2.9587 435.8848
-284.4630 -372.2367 2.9583 436.8845
-283.5597 -372.6651 2.9578 437.8842
-282.6546 -373.0897 2.9573 438.8840
-281.7477 -373.5103 2.9568 439.8837
-280.8389 -373.9270 2.9563 440.8835
-279.9284 -374.3398 2.9558 441.8832
-279.0161 -374.7487 2.9553 442.8829
-278.1020 -375.1536 2.9548 443.8827
-277.1862 -375.5547 2.9543 444.8824
-276.2687 -375.9517 2.9538 445.8822
-275.3495 -376.3448 2.9533 446.8819
-274.4286 -376.7340 2.9528 447.8816
-273.5061 -377.1191 2.9522 448.8814
-272.5819 -377.5003 2.9517 449.8811
-271.6560 -377.8775 2.9512 450.8808
-270.7286 -378.2507 2.9507 451.8806
-269.7995 -378.6199 2.9502 452.8803
-268.8688 -378.9851 2.9497 453.8800
-267.9366 -379.3462 2.9492 454.8798
-267.0028 -379.7033 2.9486 455.8795
-266.0675 -380.0564 2.9481 456.8793
-265.1307 -380.4054 2.9476 457.8790
-264.1924 -380.7504 2.9471 458.8787
-263.2525 -381.0913 2.9466 459.8784
-262.3112 -381.4281 2.9461 460.8782
-261.3685 -381.7609 2.9455 461.8779
-260.4243 -382.0895 2.9450 462.8777
-259.4788 -382.4141 2.9445 463.8774
-258.5318 -382.7346 2.9440 464.8771
-257.5835 -383.0510 2.9435 465.8769
-256.6338 -383.3633 2.9429 466.8766
-255.6827 -383.6715 2.9424 467.8763
-254.7303 -383.9756 2.9419 468.8761
-253.7767 -384.2755 2.9414 469.8758
-252.8217 -384.5713 2.9409 470.8755
-251.8654 -384.8630 2.9403 471.8753
-250.9080 -385.1506 2.9398 472.8750
-249.9492 -385.4340 2.9393 473.8748
-248.9893 -385.7133 2.9388 474.8745
-248.0282 -385.9884 2.9382 475.8742
-247.0659 -386.2594 2.9377 476.8740
-246.1024 -386.5262 2.9372 477.8737
-245.1378 -386.7889 2.9366 478.8734
-244.1721 -387.0475 2.9361 479.8732
-243.2052 -387.3018 2.9356 480.8729
-242.2373 -387.5520 2.9350 481.8727
-241.2683 -387.7981 2.9345 482.8724
-240.2983 -388.0399 2.9340 483.8721
-239.3272 -388.2776 2.9334 484.8719
-238.3551 -388.5111 2.9329 485.8716
-237.3821 -388.7405 2.9323 486.8713
-236.4080 -388.9656 2.9318 487.8711
-235.4330 -389.1866 2.9312 488.8708
-234.4571 -389.4034 2.9307 489.8705
-233.4802 -389.6160 2.9301 490.8703
-232.5024 -389.8244 2.9296 491.8700
-231.5238 -390.0286 2.9290 492.8697
-230.5443 -390.2286 2.9284 493.8695
-229.5639 -390.4244 2.9279 494.8692
-228.5827 -390.6161 2.9273 495.8690
-227.6007 -390.8034 2.9267 496.8687
-226.6179 -390.9866 2.9262 497.8684
-225.6343 -391.1656 2.9256 498.8682
-224.6499 -391.3403 2.9250 499.8679
-223.6648 -391.5109 2.9245 500.8676
-222.6790 -391.6772 2.9239 501.8673
-221.6925 -391.8392 2.9233 502.8671
-220.7053 -391.9971 2.9228 503.8668
-219.7175 -392.1507 2.9222 504.8666
-218.7290 -392.3000 2.9216 505.8663
-217.7398 -392.4451 2.9211 506.8660
-216.7500 -392.5860 2.9205 507.8658
-215.7597 -392.7226 2.9199 508.8655
-214.7688 -392.8549 2.9193 509.8652
-213.7773 -392.9831 2.9188 510.8650
-212.7852 -393.1069 2.9182 511.8647
-211.7927 -393.2265 2.9176 512.8644
-210.7996 -393.3417 2.9171 513.8642
-209.8060 -393.4528 2.9165 514.8640
-208.8120 -393.5595 2.9159 515.8636
-207.8176 -393.6620 2.9154 516.8634
-206.8226 -393.7601 2.9148 517.8632
-205.8273 -393.8540 2.9142 518.8629
-204.8316 -393.9436 2.9137 519.8626
-203.8355 -394.0289 2.9131 520.8623
-202.8391 -394.1099 2.9126 521.8621
-201.8423 -394.1866 2.9120 522.8618
-200.8452 -394.2590 2.9114 523.8616
-199.8478 -394.3271 2.9109 524.8613
-198.8501 -394.3908 2.9103 525.8610
-197.8521 -394.4503 2.9098 526.8608
-196.8539 -394.5054 2.9092 527.8605
-195.8555 -394.5562 2.9087 528.8602
-194.8568 -394.6027 2.9081 529.8600
-193.8580 -394.6449 2.9076 530.8597
-192.8589 -394.6827 2.9070 531.8594
-191.8598 -394.7162 2.9064 532.8592
-190.8604 -394.7454 2.9059 533.8589
-189.8610 -394.7702 2.9053 534.8586
-188.8615 -394.7907 2.9048 535.8584
-187.8619 -394.8068 2.9042 536.8581
-186.8622 -394.8186 2.9037 537.8578
-185.8625 -394.8261 2.9031 538.8576
-184.8628 -394.8292 2.9026 539.8573
-183.8631 -394.8280 2.9020 540.8571
-182.8633 -394.8224 2.9015 541.8568
-181.8636 -394.8125 2.9009 542.8565
-180.8640 -394.7982 2.9003 543.8563
-179.8645 -394.7796 2.8998 544.8560
-178.8650 -394.7567 2.8992 545.8557
-177.8656 -394.7293 2.8987 546.8555
-176.8664 -394.6977 2.8981 547.8552
-175.8673 -394.6617 2.8976 548.8549
-174.8684 -394.6213 2.8970 549.8547
-173.8697 -394.5766 2.8965 550.8544
-172.8711 -394.5275 2.8959 551.8541
-171.8728 -394.4741 2.8954 552.8539
-170.8748 -394.4164 2.8948 553.8536
-169.8769 -394.3543 2.8942 554.8533
-168.8794 -394.2878 2.8937 555.8531
-167.8822 -394.2171 2.8931 556.8528
-166.8853 -394.1419 2.8926 557.8525
-165.8887 -394.0625 2.8920 558.8523
-164.8925 -393.9787 2.8915 559.8521
-163.8967 -393.8906 2.8909 560.8517
-162.9012 -393.7981 2.8904 561.8515
-161.9062 -393.7013 2.8898 562.8513
-160.9116 -393.6002 2.8893 563.8510
-159.9174 -393.4948 2.8887 564.8507
-158.9237 -393.3850 2.8882 565.8505
-157.9305 -393.2710 2.8876 566.8502
-156.9378 -393.1526 2.8870 567.8499
-155.9456 -393.0299 2.8865 568.8497
-154.9540 -392.9030 2.8859 569.8494
-153.9629 -392.7717 2.8854 570.8491
-152.9724 -392.6361 2.8848 571.8489
-151.9825 -392.4962 2.8842 572.8486
-150.9932 -392.3521 2.8837 573.8483
-150.0045 -392.2037 2.8831 574.8481
-149.0165 -392.0510 2.8825 575.8478
-148.0292 -391.8940 2.8819 576.8475
-147.0426 -391.7328 2.8814 577.8473
-146.0566 -391.5674 2.8808 578.8470
-145.0714 -391.3976 2.8802 579.8467
-144.0869 -391.2237 2.8796 580.8465
-143.1032 -391.0455 2.8790 581.8463
-142.1202 -390.8631 2.8784 582.8459
-141.1380 -390.6765 2.8778 583.8457
-140.1567 -390.4857 2.8772 584.8455
-139.1762 -390.2907 2.8766 585.8452
-138.1965 -390.0915 2.8760 586.8449
-137.2177 -389.8881 2.8754 587.8446
-136.2397 -389.6805 2.8747 588.8444
-135.2626 -389.4688 2.8741 589.8441
-134.2865 -389.2530 2.8735 590.8439
-133.3112 -389.0330 2.8728 591.8436
-132.3369 -388.8089 2.8722 592.8433
-131.3636 -388.5807 2.8715 593.8430
-130.3913 -388.3484 2.8709 594.8428
-129.4199 -388.1120 2.8702 595.8425
-128.4495 -387.8715 2.8696 596.8423
-127.4801 -387.6270 2.8689 597.8420
-126.5118 -387.3784 2.8682 598.8417
-125.5445 -387.1257 2.8676 599.8415
-124.5783 -386.8691 2.8669 600.8412
-123.6131 -386.6085 2.8662 601.8409
-122.6490 -386.3438 2.8655 602.8407
-121.6861 -386.0752 2.8648 603.8404
-120.7242 -385.8026 2.8641 604.8401
-119.7635 -385.5261 2.8634 605.8399
-118.8039 -385.2457 2.8627 606.8396
-117.8454 -384.9613 2.8620 607.8394
-116.8881 -384.6731 2.8613 608.8391
-115.9320 -384.3810 2.8606 609.8388
-114.9771 -384.0850 2.8599 610.8386
-114.0234 -383.7852 2.8591 611.8383
-113.0709 -383.4815 2.8584 612.8380
-112.1196 -383.1741 2.8577 613.8378
-111.1696 -382.8628 2.8570 614.8375
-110.2207 -382.5478 2.8562 615.8372
-109.2732 -382.2290 2.8555 616.8370
-108.3269 -381.9066 2.8548 617.8367
-107.3819 -381.5803 2.8541 618.8364
-106.4382 -381.2504 2.8533 619.8362
-105.4957 -380.9168 2.8526 620.8359
-104.5546 -380.5795 2.8519 621.8356
-103.6148 -380.2386 2.8511 622.8354
-102.6763 -379.8941 2.8504 623.8351
-101.7391 -379.5460 2.8497 624.8348
-100.8033 -379.1943 2.8489 625.8346
-99.8688 -378.8390 2.8482 626.8344
-98.9357 -378.4802 2.8475 627.8340
-98.0039 -378.1179 2.8467 628.8338
-97.0735 -377.7520 2.8460 629.8336
-96.1445 -377.3827 2.8453 630.8333
-95.2169 -377.0099 2.8445 631.8330
-94.2906 -376.6337 2.8438 632.8328
-93.3658 -376.2540 2.8431 633.8325
-92.4424 -375.8709 2.8423 634.8322
-91.5204 -375.4845 2.8416 635.8320
-90.5997 -375.0947 2.8409 636.8317
-89.6806 -374.7015 2.8401 637.8314
-88.7628 -374.3051 2.8394 638.8312
-87.8465 -373.9053 2.8387 639.8309
-86.9316 -373.5023 2.8379 640.8306
-86.0181 -373.0959 2.8372 641.8304
-85.1061 -372.6864 2.8365 642.8301
-84.1956 -372.2737 2.8357 643.8298
-83.2865 -371.8577 2.8350 644.8296
-82.3789 -371.4386 2.8343 645.8293
-81.4727 -371.0163 2.8336 646.8290
-80.5680 -370.5909 2.8328 647.8288
-79.6647 -370.1624 2.8321 648.8285
-78.7629 -369.7308 2.8314 649.8282
-77.8626 -369.2962 2.8306 650.8280
-76.9638 -368.8586 2.8299 651.8277
-76.0664 -368.4179 2.8292 652.8275
-75.1705 -367.9742 2.8284 653.8272
-74.2761 -367.5276 2.8277 654.8270
-73.3831 -367.0780 2.8270 655.8267
-72.4916 -366.6256 2.8263 656.8264
-71.6016 -366.1702 2.8255 657.8261
-70.7131 -365.7120 2.8248 658.8259
-69.8260 -365.2509 2.8241 659.8256
-68.9404 -364.7871 2.8233 660.8253
-68.0562 -364.3204 2.8226 661.8251
-67.1736 -363.8510 2.8219 662.8248
-66.2923 -363.3789 2.8211 663.8246
-65.4126 -362.9041 2.8204 664.8243
-64.5343 -362.4265 2.8197 665.8240
-63.6574 -361.9464 2.8190 666.8238
-62.7820 -361.4635 2.8182 667.8235
-61.9080 -360.9781 2.8175 668.8232
-61.0354 -360.4901 2.8168 669.8230
-60.1643 -359.9996 2.8160 670.8227
-59.2946 -359.5066 2.8153 671.8224
-58.4263 -359.0110 2.8145 672.8221
-57.5595 -358.5130 2.8138 673.8219
-56.6940 -358.0126 2.8131 674.8217
-55.8299 -357.5097 2.8123 675.8214
-54.9673 -357.0045 2.8116 676.8211
-54.1060 -356.4969 2.8108 677.8209
-53.2461 -355.9869 2.8101 678.8206
-52.3875 -355.4747 2.8094 679.8203
-51.5304 -354.9602 2.8086 680.8201
-50.6745 -354.4434 2.8079 681.8198
-49.8201 -353.9244 2.8071 682.8195
-48.9669 -353.4033 2.8064 683.8193
-48.1151 -352.8799 2.8056 684.8190
-47.2647 -352.3544 2.8048 685.8187
-46.4155 -351.8268 2.8041 686.8185
-45.5676 -351.2971 2.8033 687.8182
-44.7210 -350.7653 2.8026 688.8179
-43.8757 -350.2315 2.8018 689.8177
-43.0317 -349.6957 2.8010 690.8174
-42.1890 -349.1579 2.8003 691.8171
-41.3475 -348.6181 2.7995 692.8169
-40.5072 -348.0764 2.7987 693.8167
-39.6682 -347.5328 2.7979 694.8163
-38.8304 -346.9873 2.7972 695.8161
-37.9938 -346.4399 2.7964 696.8159
-37.1584 -345.8907 2.7956 697.8156
-36.3243 -345.3398 2.7948 698.8153
-35.4912 -344.7870 2.7940 699.8151
-34.6594 -344.2324 2.7932 700.8148
-33.8287 -343.6761 2.7924 701.8145
-32.9992 -343.1182 2.7916 702.8143
-32.1708 -342.5585 2.7908 703.8140
-31.3435 -341.9972 2.7901 704.8137
-30.5173 -341.4342 2.7893 705.8135
-29.6923 -340.8697 2.7884 706.8132
-28.8683 -340.3035 2.7876 707.8129
-28.0454 -339.7358 2.7868 708.8127
-27.2236 -339.1665 2.7860 709.8124
-26.4028 -338.5958 2.7852 710.8121
-25.5830 -338.0235 2.7844 711.8119
-24.7643 -337.4498 2.7836 712.8116
-23.9466 -336.8746 2.7828 713.8113
-23.1299 -336.2980 2.7819 714.8111
-22.3142 -335.7200 2.7811 715.8109
-21.4995 -335.1406 2.7803 716.8105
-20.6857 -334.5598 2.7795 717.8103
-19.8729 -333.9778 2.7786 718.8100
-19.0610 -333.3944 2.7778 719.8098
-18.2501 -332.8097 2.7770 720.8095
-17.4401 -332.2238 2.7762 721.8092
-16.6310 -331.6366 2.7753 722.8090
-15.8227 -331.0481 2.7745 723.8087
-15.0154 -330.4585 2.7736 724.8085
-14.2089 -329.8676 2.7728 725.8082
-13.4033 -329.2756 2.7720 726.8079
-12.5986 -328.6825 2.7711 727.8076
-11.7946 -328.0882 2.7703 728.8074
-10.9915 -327.4928 2.7694 729.8071
-10.1892 -326.8963 2.7686 730.8068
-9.3877 -326.2988 2.7677 731.8066
-8.5870 -325.7001 2.7669 732.8063
-7.7871 -325.1005 2.7660 733.8060
-6.9880 -324.4998 2.7652 734.8058
-6.1895 -323.8982 2.7643 735.8055
-5.3919 -323.2955 2.7635 736.8052
-4.5949 -322.6919 2.7626 737.8050
-3.7987 -322.0873 2.7618 738.8047
-3.0032 -321.4818 2.7609 739.8045
-2.2084 -320.8754 2.7601 740.8042
-1.4143 -320.2680 2.7592 741.8040
-0.6208 -319.6599 2.7584 742.8036
0.1720 -319.0508 2.7575 743.8034
0.9641 -318.4409 2.7567 744.8032
1.7556 -317.8301 2.7558 745.8029
2.5464 -317.2186 2.7550 746.8026
3.3367 -316.6062 2.7541 747.8024
4.1263 -315.9930 2.7533 748.8021
4.9153 -315.3791 2.7524 749.8018
5.7038 -314.7644 2.7516 750.8016
6.4917 -314.1490 2.7508 751.8013
7.2790 -313.5329 2.7499 752.8010
8.0657 -312.9160 2.7491 753.8008
8.8519 -312.2985 2.7482 754.8005
9.6376 -311.6803 2.7474 755.8002
10.4227 -311.0614 2.7466 756.8000
11.2073 -310.4418 2.7457 757.7997
11.9915 -309.8217 2.7449 758.7994
12.7751 -309.2009 2.7441 759.7992
13.5582 -308.5794 2.7432 760.7990
14.3409 -307.9574 2.7424 761.7986
15.1231 -307.3348 2.7416 762.7984
15.9049 -306.7117 2.7407 763.7982
16.6862 -306.0880 2.7399 764.7979
17.4670 -305.4637 2.7391 765.7976
18.2475 -304.8389 2.7383 766.7974
19.0275 -304.2136 2.7374 767.7971
19.8071 -303.5877 2.7366 768.7968
20.5863 -302.9614 2.7358 769.7966
21.3652 -302.3346 2.7349 770.7963
22.1436 -301.7073 2.7341 771.7960
22.9217 -301.0795 2.7333 772.7958
23.6994 -300.4513 2.7325 773.7955
24.4767 -299.8226 2.7316 774.7952
25.2537 -299.1935 2.7308 775.7950
26.0303 -298.5640 2.7300 776.7947
26.8067 -297.9341 2.7291 777.7944
27.5826 -297.3037 2.7283 778.7942
28.3583 -296.6730 2.7275 779.7939
29.1336 -296.0419 2.7266 780.7936
29.9087 -295.4104 2.7258 781.7934
30.6834 -294.7785 2.7249 782.7931
31.4578 -294.1463 2.7241 783.7928
32.2320 -293.5137 2.7232 784.7926
33.0059 -292.8808 2.7224 785.7923
33.7794 -292.2475 2.7215 786.7921
34.5528 -291.6139 2.7207 787.7918
35.3258 -290.9800 2.7198 788.7915
36.0987 -290.3458 2.7190 789.7913
36.8712 -289.7113 2.7181 790.7910
37.6436 -289.0765 2.7172 791.7907
38.4157 -288.4414 2.7164 792.7905
39.1875 -287.8060 2.7155 793.7902
39.9592 -287.1704 2.7146 794.7899
40.7306 -286.5345 2.7137 795.7897
41.5018 -285.8983 2.7128 796.7894
42.2729 -285.2620 2.7120 797.7892
43.0437 -284.6254 2.7111 798.7889
43.8144 -283.9885 2.7102 799.7886
44.5848 -283.3514 2.7093 800.7883
45.3551 -282.7142 2.7084 801.7881
46.1252 -282.0767 2.7075 802.7878
46.8952 -281.4390 2.7066 803.7875
47.6650 -280.8011 2.7056 804.7873
48.4347 -280.1631 2.7047 805.7870
49.2042 -279.5249 2.7038 806.7868
49.9736 -278.8865 2.7029 807.7865
50.7428 -278.2480 2.7020 808.7863
51.5120 -277.6093 2.7010 809.7860
52.2810 -276.9706 2.7001 810.7857
53.0499 -276.3316 2.6992 811.7855
53.8187 -275.6925 2.6982 812.7852
54.5874 -275.0533 2.6973 813.7849
55.3560 -274.4141 2.6963 814.7847
56.1246 -273.7747 2.6954 815.7844
56.8930 -273.1352 2.6944 816.7841
57.6614 -272.4956 2.6934 817.7839
58.4297 -271.8559 2.6925 818.7836
59.1979 -271.2161 2.6915 819.7833
59.9661 -270.5763 2.6905 820.7831
60.7342 -269.9364 2.6895 821.7828
61.5023 -269.2964 2.6885 822.7825
62.2703 -268.6564 2.6876 823.7823
63.0382 -268.0163 2.6866 824.7820
63.8061 -267.3762 2.6856 825.7817
64.5740 -266.7360 2.6845 826.7815
65.3419 -266.0958 2.6835 827.7812
66.1097 -265.4555 2.6825 828.7809
66.8774 -264.8152 2.6815 829.7807
67.6452 -264.1748 2.6804 830.7805
68.4129 -263.5344 2.6794 831.7802
69.1806 -262.8940 2.6784 832.7799
69.9482 -262.2536 2.6773 833.7797
70.7159 -261.6131 2.6762 834.7794
71.4835 -260.9726 2.6752 835.7791
72.2511 -260.3321 2.6741 836.7789
73.0186 -259.6915 2.6730 837.7786
73.7862 -259.0509 2.6719 838.7783
74.5537 -258.4103 2.6708 839.7781
75.3212 -257.7697 2.6697 840.7778
76.0887 -257.1291 2.6686 841.7775
76.8562 -256.4884 2.6675 842.7773
77.6237 -255.8478 2.6664 843.7770
78.3911 -255.2071 2.6653 844.7767
79.1586 -254.5664 2.6642 845.7765
79.9260 -253.9256 2.6630 846.7762
80.6934 -253.2849 2.6619 847.7759
81.4608 -252.6441 2.6608 848.7757
82.2282 -252.0034 2.6596 849.7754
82.9956 -251.3626 2.6585 850.7751
83.7629 -250.7218 2.6573 851.7749
84.5303 -250.0810 2.6562 852.7746
85.2976 -249.4402 2.6550 853.7744
86.0650 -248.7993 2.6538 854.7741
86.8323 -248.1585 2.6527 855.7738
87.5996 -247.5177 2.6515 856.7736
88.3670 -246.8768 2.6503 857.7733
89.1343 -246.2360 2.6492 858.7730
89.9016 -245.5951 2.6480 859.7728
90.6689 -244.9543 2.6468 860.7725
91.4362 -244.3134 2.6456 861.7722
92.2036 -243.6726 2.6444 862.7720
92.9709 -243.0317 2.6432 863.7717
93.7382 -242.3909 2.6420 864.7714
94.5056 -241.7501 2.6408 865.7712
95.2729 -241.1093 2.6396 866.7709
96.0403 -240.4685 2.6384 867.7706
96.8077 -239.8277 2.6372 868.7704
97.5751 -239.1870 2.6360 869.7701
98.3425 -238.5462 2.6347 870.7698
99.1100 -237.9056 2.6335 871.7696
99.8775 -237.2649 2.6323 872.7693
100.6450 -236.6243 2.6311 873.7690
101.4125 -235.9837 2.6298 874.7688
102.1801 -235.3431 2.6286 875.7686
102.9476 -234.7026 2.6273 876.7682
103.7153 -234.0621 2.6261 877.7680
104.4829 -233.4216 2.6249 878.7678
105.2506 -232.7812 2.6236 879.7675
106.0183 -232.1409 2.6224 880.7672
106.7861 -231.5005 2.6211 881.7670
107.5539 -230.8603 2.6199 882.7667
108.3218 -230.2200 2.6186 883.7664
109.0897 -229.5799 2.6174 884.7662
109.8576 -228.9398 2.6161 885.7659
110.6256 -228.2997 2.6149 886.7656
111.3936 -227.6597 2.6136 887.7654
112.1616 -227.0197 2.6124 888.7651
112.9297 -226.3798 2.6111 889.7648
113.6979 -225.7400 2.6099 890.7646
114.4661 -225.1001 2.6086 891.7643
115.2343 -224.4604 2.6074 892.7640
116.0026 -223.8207 2.6061 893.7638
116.7709 -223.1810 2.6048 894.7635
117.5393 -222.5414 2.6036 895.7632
118.3077 -221.9019 2.6023 896.7630
119.0761 -221.2624 2.6011 897.7627
119.8446 -220.6229 2.5998 898.7625
120.6131 -219.9835 2.5986 899.7622
121.3817 -219.3441 2.5973 900.7619
122.1503 -218.7048 2.5961 901.7617
122.9189 -218.0655 2.5948 902.7614
123.6875 -217.4263 2.5936 903.7612
124.4562 -216.7871 2.5923 904.7609
125.2250 -216.1479 2.5911 905.7606
125.9937 -215.5088 2.5899 906.7604
126.7625 -214.8697 2.5886 907.7601
127.5313 -214.2306 2.5874 908.7598
128.3002 -213.5916 2.5862 909.7596
129.0690 -212.9526 2.5850 910.7593
129.8379 -212.3136 2.5838 911.7590
130.6068 -211.6747 2.5826 912.7587
131.3758 -211.0358 2.5814 913.7585
132.1447 -210.3969 2.5802 914.7582
132.9137 -209.7581 2.5790 915.7580
133.6827 -209.1193 2.5778 916.7577
134.4518 -208.4805 2.5767 917.7574
135.2208 -207.8417 2.5755 918.7572
135.9899 -207.2029 2.5744 919.7569
136.7590 -206.5642 2.5732 920.7567
137.5281 -205.9255 2.5721 921.7564
138.2972 -205.2868 2.5710 922.7561
139.0664 -204.6482 2.5698 923.7559
139.8355 -204.0096 2.5687 924.7556
140.6047 -203.3709 2.5676 925.7553
141.3739 -202.7324 2.5666 926.7551
142.1432 -202.0938 2.5655 927.7548
142.9124 -201.4553 2.5644 928.7545
143.6817 -200.8168 2.5634 929.7543
144.4510 -200.1783 2.5623 930.7540
145.2203 -199.5398 2.5613 931.7537
145.9896 -198.9014 2.5603 932.7535
146.7590 -198.2630 2.5593 933.7532
147.5284 -197.6246 2.5583 934.7529
148.2978 -196.9863 2.5574 935.7527
149.0672 -196.3479 2.5564 936.7524
149.8367 -195.7097 2.5554 937.7521
150.6061 -195.0714 2.5545 938.7519
151.3757 -194.4332 2.5536 939.7516
152.1452 -193.7950 2.5527 940.7513
152.9148 -193.1569 2.5518 941.7511
153.6844 -192.5188 2.5509 942.7509
154.4540 -191.8807 2.5501 943.7505
155.2237 -191.2427 2.5492 944.7503
155.9934 -190.6047 2.5484 945.7501
156.7632 -189.9668 2.5476 946.7498
157.5329 -189.3289 2.5467 947.7495
158.3028 -188.6911 2.5460 948.7493
159.0726 -188.0533 2.5452 949.7490
159.8425 -187.4155 2.5444 950.7487
160.6125 -186.7778 2.5437 951.7485
161.3825 -186.1402 2.5429 952.7482
162.1525 -185.5026 2.5422 953.7479
162.9226 -184.8651 2.5415 954.7477
163.6927 -184.2276 2.5408 955.7474
164.4629 -183.5902 2.5401 956.7471
165.2331 -182.9528 2.5395 957.7469
166.0034 -182.3155 2.5388 958.7466
166.7737 -181.6782 2.5382 959.7463
167.5440 -181.0410 2.5375 960.7461
168.3144 -180.4038 2.5369 961.7458
169.0848 -179.7667 2.5363 962.7455
169.8553 -179.1297 2.5358 963.7453
170.6258 -178.4927 2.5352 964.7451
171.3964 -177.8557 2.5346 965.7448
172.1670 -177.2188 2.5341 966.7445
172.9376 -176.5819 2.5335 967.7442
173.7083 -175.9451 2.5330 968.7440
174.4790 -175.3083 2.5325 969.7437
175.2497 -174.6716 2.5320 970.7434
176.0205 -174.0349 2.5316 971.7432
176.7913 -173.3982 2.5311 972.7429
177.5621 -172.7616 2.5306 973.7426
178.3329 -172.1250 2.5302 974.7424
179.1038 -171.4884 2.5298 975.7421
179.8747 -170.8518 2.5293 976.7419
180.6456 -170.2153 2.5289 977.7416
181.4165 -169.5788 2.5285 978.7413
182.1874 -168.9422 2.5282 979.7411
182.9584 -168.3058 2.5278 980.7408
183.7293 -167.6693 2.5274 981.7405
184.5003 -167.0328 2.5271 982.7403
185.2712 -166.3963 2.5267 983.7400
186.0422 -165.7598 2.5264 984.7397
186.8131 -165.1234 2.5261 985.7395
187.5841 -164.4869 2.5258 986.7392
188.3550 -163.8504 2.5255 987.7390
189.1260 -163.2139 2.5252 988.7387
189.8969 -162.5774 2.5249 989.7384
190.6678 -161.9409 2.5247 990.7382
191.4387 -161.3043 2.5244 991.7379
192.2096 -160.6678 2.5241 992.7376
192.9805 -160.0312 2.5239 993.7374
193.7513 -159.3946 2.5237 994.7371
194.5222 -158.7580 2.5234 995.7368
195.2930 -158.1214 2.5232 996.7366
196.0638 -157.4847 2.5230 997.7363
196.8346 -156.8480 2.5228 998.7360
197.6053 -156.2113 2.5226 999.7358
198.3761 -155.5746 2.5224 1000.7355
199.1468 -154.9378 2.5222 1001.7352
199.9175 -154.3010 2.5220 1002.7350
200.6882 -153.6642 2.5218 1003.7347
201.4588 -153.0274 2.5216 1004.7344
202.2295 -152.3905 2.5214 1005.7342
203.0001 -151.7537 2.5212 1006.7339
203.7707 -151.1168 2.5211 1007.7336
204.5413 -150.4798 2.5209 1008.7334
205.3119 -149.8429 2.5207 1009.7332
206.0824 -149.2059 2.5205 1010.7328
206.8530 -148.5690 2.5204 1011.7326
207.6235 -147.9320 2.5202 1012.7324
208.3940 -147.2950 2.5200 1013.7321
209.1645 -146.6579 2.5199 1014.7318
209.9350 -146.0209 2.5197 1015.7316
210.7055 -145.3839 2.5195 1016.7313
211.4759 -144.7468 2.5193 1017.7310
212.2464 -144.1097 2.5192 1018.7308
213.0168 -143.4726 2.5190 1019.7305
213.7873 -142.8355 2.5188 1020.7302
214.5577 -142.1985 2.5186 1021.7300
215.3282 -141.5613 2.5185 1022.7297
216.0986 -140.9242 2.5183 1023.7294
216.8690 -140.2871 2.5181 1024.7291
217.6395 -139.6500 2.5179 1025.7289
218.4099 -139.0129 2.5177 1026.7286
219.1803 -138.3758 2.5175 1027.7284
219.9507 -137.7386 2.5173 1028.7281
220.7211 -137.1015 2.5171 1029.7279
221.4915 -136.4644 2.5169 1030.7275
222.2619 -135.8272 2.5167 1031.7273
223.0323 -135.1901 2.5165 1032.7271
223.8027 -134.5529 2.5163 1033.7268
224.5731 -133.9158 2.5161 1034.7266
225.3435 -133.2787 2.5159 1035.7263
226.1139 -132.6415 2.5157 1036.7260
226.8843 -132.0043 2.5154 1037.7257
227.6547 -131.3672 2.5152 1038.7255
228.4251 -130.7300 2.5150 1039.7252
229.1954 -130.0928 2.5147 1040.7250
229.9658 -129.4556 2.5145 1041.7247
230.7361 -128.8184 2.5143 1042.7244
231.5065 -128.1812 2.5140 1043.7241
232.2768 -127.5440 2.5138 1044.7239
233.0471 -126.9067 2.5135 1045.7236
233.8174 -126.2694 2.5132 1046.7234
234.5877 -125.6322 2.5130 1047.7231
235.3580 -124.9949 2.5127 1048.7228
236.1283 -124.3576 2.5124 1049.7225
236.8985 -123.7202 2.5121 1050.7223
237.6687 -123.0828 2.5119 1051.7220
238.4389 -122.4455 2.5116 1052.7218
239.2091 -121.8080 2.5113 1053.7216
239.9792 -121.1706 2.5110 1054.7212
240.7494 -120.5331 2.5106 1055.7209
241.5195 -119.8956 2.5103 1056.7207
242.2895 -119.2580 2.5100 1057.7205
243.0596 -118.6205 2.5097 1058.7202
243.8296 -117.9828 2.5093 1059.7200
244.5995 -117.3451 2.5090 1060.7196
245.3694 -116.7074 2.5087 1061.7194
246.1393 -116.0696 2.5083 1062.7191
246.9091 -115.4318 2.5079 1063.7189
247.6789 -114.7939 2.5076 1064.7186
248.4487 -114.1559 2.5072 1065.7184
249.2183 -113.5179 2.5068 1066.7180
249.9879 -112.8798 2.5064 1067.7178
250.7575 -112.2416 2.5061 1068.7175
251.5270 -111.6034 2.5057 1069.7173
252.2964 -110.9651 2.5053 1070.7170
253.0657 -110.3266 2.5049 1071.7168
253.8350 -109.6881 2.5044 1072.7164
254.6042 -109.0495 2.5040 1073.7162
255.3732 -108.4107 2.5036 1074.7159
256.1422 -107.7719 2.5032 1075.7157
256.9111 -107.1329 2.5028 1076.7155
257.6799 -106.4938 2.5023 1077.7152
258.4485 -105.8546 2.5019 1078.7148
259.2171 -105.2152 2.5015 1079.7146
259.9855 -104.5757 2.5010 1080.7144
260.7538 -103.9360 2.5006 1081.7141
261.5219 -103.2961 2.5002 1082.7139
262.2899 -102.6561 2.4997 1083.7136
263.0578 -102.0159 2.4993 1084.7134
263.8255 -101.3754 2.4988 1085.7130
264.5930 -100.7348 2.4984 1086.7128
265.3603 -100.0940 2.4980 1087.7125
266.1275 -99.4529 2.4975 1088.7123
266.8944 -98.8116 2.4971 1089.7120
267.6612 -98.1701 2.4967 1090.7117
268.4277 -97.5283 2.4962 1091.7114
269.1940 -96.8863 2.4958 1092.7112
269.9601 -96.2439 2.4954 1093.7109
270.7260 -95.6013 2.4949 1094.7107
271.4916 -94.9585 2.4945 1095.7104
272.2570 -94.3153 2.4941 1096.7102
273.0221 -93.6717 2.4937 1097.7098
273.7869 -93.0279 2.4933 1098.7096
274.5514 -92.3838 2.4929 1099.7094
275.3157 -91.7393 2.4925 1100.7091
276.0796 -91.0944 2.4921 1101.7089
276.8433 -90.4492 2.4917 1102.7086
277.6066 -89.8036 2.4913 1103.7083
278.3697 -89.1576 2.4909 1104.7080
279.1323 -88.5113 2.4905 1105.7078
279.8947 -87.8645 2.4902 1106.7075
280.6567 -87.2173 2.4898 1107.7073
281.4183 -86.5697 2.4894 1108.7070
282.1796 -85.9217 2.4891 1109.7067
282.9405 -85.2733 2.4887 1110.7064
283.7010 -84.6243 2.4884 1111.7062
284.4611 -83.9750 2.4880 1112.7059
285.2209 -83.3251 2.4876 1113.7057
285.9802 -82.6748 2.4873 1114.7054
286.7391 -82.0240 2.4869 1115.7051
287.4975 -81.3727 2.4866 1116.7048
288.2556 -80.7209 2.4863 1117.7046
289.0132 -80.0686 2.4859 1118.7043
289.7703 -79.4157 2.4856 1119.7041
290.5270 -78.7624 2.4852 1120.7039
291.2832 -78.1084 2.4849 1121.7036
292.0389 -77.4539 2.4845 1122.7032
292.7942 -76.7989 2.4842 1123.7030
293.5489 -76.1432 2.4839 1124.7028
294.3031 -75.4870 2.4835 1125.7025
295.0568 -74.8302 2.4832 1126.7023
295.8099 -74.1728 2.4828 1127.7019
296.5626 -73.5147 2.4825 1128.7017
297.3146 -72.8560 2.4821 1129.7014
298.0661 -72.1967 2.4818 1130.7012
298.8170 -71.5367 2.4814 1131.7009
299.5674 -70.8760 2.4810 1132.7007
300.3170 -70.2146 2.4807 1133.7003
301.0662 -69.5526 2.4803 1134.7001
301.8146 -68.8898 2.4799 1135.6998
302.5625 -68.2263 2.4795 1136.6996
303.3096 -67.5621 2.4792 1137.6993
304.0562 -66.8971 2.4788 1138.6991
304.8020 -66.2314 2.4784 1139.6987
305.5471 -65.5648 2.4780 1140.6985
306.2915 -64.8975 2.4776 1141.6982
307.0352 -64.2294 2.4772 1142.6980
307.7781 -63.5604 2.4768 1143.6978
308.5203 -62.8906 2.4764 1144.6975
309.2617 -62.2200 2.4759 1145.6973
310.0023 -61.5484 2.4755 1146.6969
310.7422 -60.8760 2.4751 1147.6967
311.4812 -60.2027 2.4747 1148.6964
312.2193 -59.5285 2.4742 1149.6962
312.9566 -58.8533 2.4738 1150.6959
313.6931 -58.1772 2.4733 1151.6957
314.4286 -57.5000 2.4729 1152.6953
315.1632 -56.8220 2.4724 1153.6951
315.8969 -56.1429 2.4720 1154.6948
316.6296 -55.4628 2.4715 1155.6946
317.3614 -54.7816 2.4710 1156.6943
318.0922 -54.0994 2.4706 1157.6940
318.8220 -53.4161 2.4701 1158.6937
319.5508 -52.7318 2.4696 1159.6935
320.2786 -52.0463 2.4691 1160.6932
321.0052 -51.3597 2.4686 1161.6930
321.7308 -50.6720 2.4681 1162.6927
322.4554 -49.9831 2.4677 1163.6925
323.1787 -49.2931 2.4672 1164.6921
323.9010 -48.6018 2.4667 1165.6919
324.6221 -47.9094 2.4662 1166.6917
325.3420 -47.2157 2.4657 1167.6914
326.0607 -46.5208 2.4652 1168.6912
326.7782 -45.8246 2.4647 1169.6909
327.4945 -45.1271 2.4642 1170.6906
328.2095 -44.4284 2.4637 1171.6903
328.9232 -43.7283 2.4632 1172.6901
329.6356 -43.0269 2.4627 1173.6898
330.3467 -42.3242 2.4622 1174.6896
331.0564 -41.6201 2.4617 1175.6892
331.7648 -40.9147 2.4612 1176.6890
332.4718 -40.2078 2.4607 1177.6887
333.1774 -39.4996 2.4602 1178.6885
333.8816 -38.7899 2.4597 1179.6882
334.5843 -38.0788 2.4592 1180.6880
335.2855 -37.3662 2.4587 1181.6877
335.9852 -36.6522 2.4582 1182.6874
336.6835 -35.9367 2.4577 1183.6871
337.3802 -35.2197 2.4572 1184.6869
338.0753 -34.5012 2.4567 1185.6866
338.7689 -33.7812 2.4562 1186.6864
339.4608 -33.0596 2.4557 1187.6862
340.1512 -32.3365 2.4552 1188.6858
340.8399 -31.6119 2.4548 1189.6855
341.5270 -30.8856 2.4543 1190.6853
342.2124 -30.1578 2.4538 1191.6851
342.8961 -29.4284 2.4533 1192.6848
343.5780 -28.6974 2.4528 1193.6846
344.2582 -27.9647 2.4523 1194.6842
344.9367 -27.2304 2.4519 1195.6840
345.6134 -26.4945 2.4514 1196.6837
346.2883 -25.7570 2.4509 1197.6835
346.9614 -25.0178 2.4505 1198.6832
347.6326 -24.2769 2.4500 1199.6830
348.3020 -23.5343 2.4495 1200.6826
348.9695 -22.7900 2.4490 1201.6824
349.6351 -22.0441 2.4486 1202.6821
350.2987 -21.2964 2.4481 1203.6819
350.9605 -20.5470 2.4476 1204.6816
351.6203 -19.7959 2.4472 1205.6814
352.2781 -19.0431 2.4467 1206.6810
352.9339 -18.2885 2.4463 1207.6808
353.5877 -17.5322 2.4458 1208.6805
354.2394 -16.7741 2.4453 1209.6803
354.8892 -16.0143 2.4449 1210.6801
355.5368 -15.2527 2.4444 1211.6798
356.1823 -14.4893 2.4440 1212.6796
356.8257 -13.7241 2.4435 1213.6792
357.4670 -12.9572 2.4430 1214.6790
358.1061 -12.1884 2.4426 1215.6787
358.7430 -11.4178 2.4421 1216.6785
359.3778 -10.6454 2.4417 1217.6782
360.0103 -9.8712 2.4412 1218.6779
360.6406 -9.0952 2.4407 1219.6776
361.2686 -8.3173 2.4403 1220.6774
361.8943 -7.5376 2.4398 1221.6771
362.5177 -6.7560 2.4394 1222.6769
363.1388 -5.9726 2.4389 1223.6766
363.7575 -5.1874 2.4384 1224.6763
364.3738 -4.4002 2.4380 1225.6760
364.9878 -3.6112 2.4375 1226.6758
365.5993 -2.8203 2.4371 1227.6755
366.2084 -2.0276 2.4366 1228.6753
366.8150 -1.2329 2.4361 1229.6750
367.4191 -0.4363 2.4357 1230.6748
368.0207 0.3621 2.4352 1231.6744
368.6198 1.1625 2.4347 1232.6742
369.2163 1.9648 2.4343 1233.6740
369.8102 2.7690 2.4338 1234.6737
370.4015 3.5751 2.4333 1235.6735
370.9902 4.3832 2.4329 1236.6732
371.5762 5.1932 2.4324 1237.6729
372.1595 6.0051 2.4319 1238.6726
372.7401 6.8189 2.4315 1239.6724
373.3179 7.6348 2.4310 1240.6721
373.8930 8.4525 2.4305 1241.6719
374.4653 9.2722 2.4301 1242.6715
375.0349 10.0939 2.4296 1243.6713
375.6015 10.9175 2.4291 1244.6710
376.1653 11.7431 2.4286 1245.6708
376.7262 12.5707 2.4282 1246.6705
377.2842 13.4002 2.4277 1247.6703
377.8393 14.2317 2.4272 1248.6700
378.3914 15.0651 2.4268 1249.6697
378.9405 15.9006 2.4263 1250.6694
379.4866 16.7380 2.4259 1251.6692
380.0297 17.5773 2.4254 1252.6689
380.5697 18.4187 2.4249 1253.6687
381.1066 19.2620 2.4245 1254.6685
381.6404 20.1073 2.4240 1255.6681
382.1711 20.9545 2.4235 1256.6678
382.6986 21.8038 2.4231 1257.6676
383.2230 22.6550 2.4226 1258.6674
383.7441 23.5081 2.4222 1259.6671
384.2620 24.3633 2.4217 1260.6669
384.7767 25.2203 2.4212 1261.6665
385.2881 26.0794 2.4208 1262.6663
385.7962 26.9404 2.4203 1263.6660
386.3010 27.8033 2.4199 1264.6658
386.8024 28.6682 2.4194 1265.6655
387.3005 29.5350 2.4189 1266.6653
387.7952 30.4038 2.4185 1267.6649
388.2865 31.2745 2.4180 1268.6647
388.7744 32.1471 2.4176 1269.6644
389.2588 33.0216 2.4171 1270.6642
389.7397 33.8980 2.4167 1271.6639
390.2173 34.7764 2.4162 1272.6637
390.6912 35.6566 2.4157 1273.6633
391.1617 36.5387 2.4153 1274.6631
391.6286 37.4227 2.4148 1275.6628
392.0920 38.3086 2.4143 1276.6626
392.5518 39.1963 2.4139 1277.6624
393.0079 40.0859 2.4134 1278.6621
393.4605 40.9773 2.4129 1279.6617
393.9095 41.8706 2.4125 1280.6615
394.3548 42.7657 2.4120 1281.6613
394.7964 43.6626 2.4115 1282.6610
395.2343 44.5613 2.4111 1283.6608
395.6686 45.4618 2.4106 1284.6605
396.0991 46.3641 2.4101 1285.6603
396.5259 47.2681 2.4096 1286.6599
396.9490 48.1740 2.4091 1287.6597
397.3683 49.0815 2.4087 1288.6594
397.7838 49.9908 2.4082 1289.6592
398.1955 50.9018 2.4077 1290.6589
398.6034 51.8146 2.4072 1291.6586
399.0075 52.7290 2.4067 1292.6583
399.4077 53.6451 2.4062 1293.6581
399.8041 54.5629 2.4057 1294.6578
400.1967 55.4823 2.4053 1295.6576
400.5853 56.4034 2.4048 1296.6573
400.9701 57.3262 2.4043 1297.6571
401.3509 58.2505 2.4038 1298.6567
401.7279 59.1765 2.4033 1299.6565
402.1009 60.1040 2.4028 1300.6562
402.4699 61.0331 2.4023 1301.6560
402.8350 61.9638 2.4018 1302.6558
403.1961 62.8961 2.4013 1303.6554
403.5533 63.8298 2.4008 1304.6552
403.9064 64.7651 2.4003 1305.6549
404.2556 65.7019 2.3999 1306.6547
404.6007 66.6402 2.3994 1307.6544
404.9418 67.5799 2.3989 1308.6542
405.2788 68.5211 2.3984 1309.6539
405.6118 69.4638 2.3979 1310.6536
405.9408 70.4079 2.3974 1311.6533
406.2656 71.3533 2.3969 1312.6531
406.5864 72.3002 2.3964 1313.6528
406.9030 73.2485 2.3960 1314.6526
407.2156 74.1981 2.3955 1315.6523
407.5240 75.1491 2.3950 1316.6520
407.8283 76.1014 2.3945 1317.6517
408.1285 77.0550 2.3940 1318.6515
408.4245 78.0099 2.3936 1319.6512
408.7164 78.9660 2.3931 1320.6510
409.0041 79.9235 2.3926 1321.6508
409.2876 80.8822 2.3921 1322.6504
409.5669 81.8421 2.3917 1323.6501
409.8420 82.8033 2.3912 1324.6499
410.1129 83.7656 2.3907 1325.6497
410.3795 84.7291 2.3903 1326.6494
410.6420 85.6938 2.3898 1327.6492
410.9002 86.6596 2.3894 1328.6488
411.1541 87.6265 2.3889 1329.6486
411.4038 88.5946 2.3884 1330.6483
411.6492 89.5637 2.3880 1331.6481
411.8904 90.5340 2.3875 1332.6478
412.1272 91.5052 2.3871 1333.6476
412.3598 92.4775 2.3866 1334.6472
412.5880 93.4509 2.3862 1335.6470
412.8120 94.4252 2.3857 1336.6467
413.0316 95.4005 2.3853 1337.6465
413.2469 96.3768 2.3848 1338.6462
413.4578 97.3540 2.3844 1339.6460
413.6644 98.3322 2.3839 1340.6456
413.8666 99.3112 2.3835 1341.6454
414.0645 100.2912 2.3831 1342.6451
414.2580 101.2720 2.3826 1343.6449
414.4471 102.2537 2.3822 1344.6447
414.6319 103.2362 2.3818 1345.6444
414.8123 104.2196 2.3813 1346.6440
414.9882 105.2037 2.3809 1347.6438
415.1598 106.1886 2.3805 1348.6436
415.3270 107.1742 2.3801 1349.6433
415.4897 108.1606 2.3796 1350.6431
415.6481 109.1478 2.3792 1351.6428
415.8020 110.1356 2.3788 1352.6425
415.9515 111.1241 2.3784 1353.6422
416.0966 112.1132 2.3780 1354.6420
416.2373 113.1030 2.3775 1355.6417
416.3735 114.0934 2.3771 1356.6415
416.5053 115.0844 2.3767 1357.6412
416.6327 116.0760 2.3763 1358.6409
416.7557 117.0681 2.3759 1359.6406
416.8742 118.0608 2.3755 1360.6404
416.9883 119.0540 2.3751 1361.6401
417.0980 120.0477 2.3747 1362.6399
417.2032 121.0419 2.3743 1363.6396
417.3040 122.0366 2.3739 1364.6393
417.4005 123.0316 2.3735 1365.6390
417.4924 124.0271 2.3732 1366.6388
417.5800 125.0230 2.3728 1367.6385
417.6631 126.0193 2.3724 1368.6383
417.7419 127.0159 2.3720 1369.6381
417.8162 128.0129 2.3717 1370.6377
417.8861 129.0102 2.3713 1371.6375
417.9516 130.0078 2.3709 1372.6372
418.0128 131.0056 2.3706 1373.6370
418.0695 132.0038 2.3702 1374.6367
418.1218 133.0021 2.3699 1375.6365
418.1698 134.0007 2.3695 1376.6362
418.2133 134.9995 2.3692 1377.6359
418.2525 135.9984 2.3689 1378.6356
418.2874 136.9976 2.3685 1379.6354
418.3178 137.9968 2.3682 1380.6351
418.3439 138.9962 2.3679 1381.6349
418.3656 139.9957 2.3676 1382.6346
418.3830 140.9953 2.3673 1383.6343
418.3961 141.9950 2.3670 1384.6340
418.4048 142.9947 2.3667 1385.6338
418.4091 143.9944 2.3664 1386.6335
418.4092 144.9941 2.3661 1387.6333
418.4049 145.9939 2.3658 1388.6329
418.3963 146.9936 2.3655 1389.6327
418.3834 147.9932 2.3652 1390.6324
418.3661 148.9928 2.3650 1391.6322
418.3446 149.9923 2.3647 1392.6320
418.3188 150.9917 2.3644 1393.6317
418.2887 151.9910 2.3642 1394.6315
418.2542 152.9901 2.3639 1395.6311
418.2155 153.9891 2.3637 1396.6309
418.1726 154.9879 2.3635 1397.6306
418.1253 155.9865 2.3632 1398.6304
418.0738 156.9849 2.3630 1399.6301
418.0180 157.9831 2.3628 1400.6299
417.9579 158.9810 2.3625 1401.6295
417.8936 159.9787 2.3623 1402.6293
417.8250 160.9761 2.3621 1403.6290
417.7522 161.9732 2.3619 1404.6288
417.6751 162.9699 2.3617 1405.6285
417.5938 163.9664 2.3615 1406.6283
417.5082 164.9624 2.3613 1407.6279
417.4185 165.9581 2.3611 1408.6277
417.3244 166.9534 2.3610 1409.6274
417.2262 167.9483 2.3608 1410.6272
417.1237 168.9428 2.3606 1411.6270
417.0169 169.9368 2.3605 1412.6267
416.9060 170.9304 2.3603 1413.6263
416.7908 171.9234 2.3601 1414.6261
416.6714 172.9160 2.3600 1415.6259
416.5478 173.9081 2.3598 1416.6256
416.4200 174.8996 2.3597 1417.6254
416.2880 175.8906 2.3595 1418.6251
416.1517 176.8810 2.3594 1419.6248
416.0112 177.8708 2.3593 1420.6245
415.8666 178.8600 2.3591 1421.6243
415.7177 179.8486 2.3590 1422.6240
415.5646 180.8365 2.3589 1423.6238
415.4073 181.8238 2.3587 1424.6235
415.2458 182.8104 2.3586 1425.6232
415.0800 183.7963 2.3585 1426.6229
414.9102 184.7815 2.3584 1427.6227
414.7360 185.7660 2.3583 1428.6224
414.5577 186.7497 2.3582 1429.6222
414.3752 187.7326 2.3580 1430.6219
414.1884 188.7148 2.3579 1431.6216
413.9975 189.6961 2.3578 1432.6213
413.8024 190.6766 2.3577 1433.6211
413.6031 191.6563 2.3576 1434.6208
413.3996 192.6351 2.3575 1435.6206
413.1918 193.6130 2.3574 1436.6204
412.9799 194.5900 2.3572 1437.6201
412.7638 195.5661 2.3571 1438.6198
412.5435 196.5413 2.3570 1439.6195
412.3191 197.5155 2.3569 1440.6193
412.0904 198.4887 2.3568 1441.6190
411.8575 199.4610 2.3566 1442.6188
411.6205 200.4322 2.3565 1443.6185
411.3793 201.4024 2.3564 1444.6182
411.1339 202.3715 2.3562 1445.6179
410.8844 203.3396 2.3561 1446.6177
410.6307 204.3066 2.3559 1447.6174
410.3728 205.2725 2.3558 1448.6172
410.1108 206.2373 2.3556 1449.6168
409.8446 207.2010 2.3555 1450.6166
409.5742 208.1635 2.3553 1451.6163
409.2997 209.1248 2.3551 1452.6161
409.0211 210.0849 2.3549 1453.6158
408.7383 211.0438 2.3548 1454.6156
408.4514 212.0015 2.3546 1455.6154
408.1604 212.9579 2.3544 1456.6150
407.8653 213.9131 2.3542 1457.6147
407.5661 214.8670 2.3539 1458.6145
407.2627 215.8196 2.3537 1459.6143
406.9553 216.7709 2.3535 1460.6140
406.6437 217.7209 2.3533 1461.6138
406.3281 218.6695 2.3530 1462.6134
406.0084 219.6167 2.3528 1463.6132
405.6847 220.5626 2.3525 1464.6129
405.3568 221.5070 2.3522 1465.6127
405.0250 222.4501 2.3520 1466.6124
404.6891 223.3917 2.3517 1467.6121
404.3491 224.3318 2.3514 1468.6118
404.0052 225.2705 2.3511 1469.6116
403.6572 226.2078 2.3507 1470.6113
403.3052 227.1435 2.3504 1471.6111
402.9492 228.0777 2.3501 1472.6108
402.5892 229.0104 2.3498 1473.6106
402.2253 229.9415 2.3494 1474.6102
401.8573 230.8710 2.3490 1475.6100
401.4854 231.7990 2.3487 1476.6097
401.1095 232.7254 2.3483 1477.6095
400.7297 233.6502 2.3479 1478.6093
400.3460 234.5734 2.3475 1479.6090
399.9583 235.4949 2.3471 1480.6086
399.5667 236.4147 2.3466 1481.6084
399.1712 237.3329 2.3462 1482.6082
398.7718 238.2494 2.3457 1483.6079
398.3685 239.1642 2.3453 1484.6077
397.9613 240.0772 2.3448 1485.6074
397.5502 240.9885 2.3443 1486.6071
397.1353 241.8981 2.3438 1487.6068
396.7165 242.8058 2.3433 1488.6066
396.2938 243.7118 2.3428 1489.6063
395.8673 244.6160 2.3423 1490.6061
395.4369 245.5184 2.3417 1491.6058
395.0027 246.4189 2.3412 1492.6055
394.5647 247.3176 2.3406 1493.6052
394.1228 248.2144 2.3400 1494.6050
393.6771 249.1093 2.3394 1495.6047
393.2276 250.0022 2.3388 1496.6045
392.7744 250.8933 2.3382 1497.6042
392.3173 251.7824 2.3376 1498.6039
391.8564 252.6696 2.3369 1499.6036
391.3917 253.5548 2.3363 1500.6034
390.9232 254.4379 2.3356 1501.6031
390.4510 255.3191 2.3349 1502.6029
389.9749 256.1982 2.3342 1503.6027
389.4951 257.0753 2.3335 1504.6023
389.0116 257.9503 2.3328 1505.6021
388.5243 258.8233 2.3321 1506.6018
388.0333 259.6941 2.3313 1507.6016
387.5385 260.5628 2.3306 1508.6013
387.0399 261.4294 2.3298 1509.6010
386.5377 262.2938 2.3290 1510.6007
386.0317 263.1560 2.3282 1511.6005
385.5220 264.0161 2.3274 1512.6002
385.0085 264.8739 2.3266 1513.6000
384.4914 265.7295 2.3258 1514.5997
383.9706 266.5828 2.3249 1515.5995
383.4461 267.4339 2.3241 1516.5991
382.9179 268.2827 2.3232 1517.5989
382.3860 269.1292 2.3223 1518.5986
381.8504 269.9734 2.3214 1519.5984
381.3112 270.8153 2.3205 1520.5981
