VERSION 0.7
FIELDS x y z lapdistance
SIZE 4 4 4 4
TYPE F F F F
COUNT 1 1 1 1
WIDTH 1348
HEIGHT 1
VIEWPOINT 0.000 0.000 0.000 1.000 0.000 0.000 0.000
POINTS 1348
DATA ascii
-373.7486 -27.7939 0.0002 32.0035
-374.1303 -28.7168 0.0003 33.0023
-374.5117 -29.6396 0.0004 34.0008
-374.8930 -30.5624 0.0005 34.9992
-375.2740 -31.4850 0.0005 35.9974
-375.6546 -32.4075 0.0006 36.9954
-376.0350 -33.3300 0.0007 37.9932
-376.4150 -34.2524 0.0008 38.9908
-376.7947 -35.1747 0.0008 39.9882
-377.1739 -36.0970 0.0009 40.9854
-377.5527 -37.0192 0.0010 41.9824
-377.9311 -37.9414 0.0011 42.9792
-378.3089 -38.8636 0.0011 43.9758
-378.6862 -39.7857 0.0012 44.9721
-379.0630 -40.7078 0.0013 45.9682
-379.4391 -41.6299 0.0014 46.9641
-379.8146 -42.5521 0.0015 47.9598
-380.1895 -43.4742 0.0016 48.9552
-380.5637 -44.3964 0.0017 49.9504
-380.9371 -45.3186 0.0017 50.9454
-381.3098 -46.2409 0.0018 51.9401
-381.6816 -47.1633 0.0019 52.9346
-382.0527 -48.0857 0.0020 53.9289
-382.4229 -49.0082 0.0021 54.9229
-382.7922 -49.9309 0.0022 55.9167
-383.1605 -50.8536 0.0022 56.9102
-383.5279 -51.7765 0.0023 57.9035
-383.8943 -52.6994 0.0023 58.8966
-384.2596 -53.6226 0.0024 59.8894
-384.6239 -54.5458 0.0024 60.8819
-384.9871 -55.4693 0.0025 61.8742
-385.3491 -56.3929 0.0025 62.8662
-385.7100 -57.3166 0.0025 63.8579
-386.0696 -58.2406 0.0025 64.8494
-386.4279 -59.1647 0.0024 65.8405
-386.7850 -60.0890 0.0024 66.8314
-387.1407 -61.0134 0.0023 67.8220
-387.4950 -61.9381 0.0023 68.8122
-387.8479 -62.8630 0.0022 69.8021
-388.1994 -63.7880 0.0021 70.7917
-388.5493 -64.7132 0.0021 71.7809
-388.8977 -65.6387 0.0020 72.7697
-389.2445 -66.5643 0.0019 73.7582
-389.5897 -67.4901 0.0018 74.7462
-389.9332 -68.4162 0.0017 75.7339
-390.2749 -69.3424 0.0016 76.7211
-390.6148 -70.2688 0.0016 77.7080
-390.9529 -71.1954 0.0016 78.6944
-391.2891 -72.1223 0.0016 79.6803
-391.6234 -73.0493 0.0016 80.6658
-391.9556 -73.9766 0.0017 81.6508
-392.2859 -74.9042 0.0019 82.6354
-392.6139 -75.8320 0.0020 83.6195
-392.9398 -76.7601 0.0023 84.6031
-393.2635 -77.6885 0.0025 85.5863
-393.5848 -78.6173 0.0029 86.5691
-393.9038 -79.5464 0.0032 87.5515
-394.2205 -80.4759 0.0036 88.5334
-394.5346 -81.4058 0.0041 89.5150
-394.8461 -82.3363 0.0045 90.4962
-395.1550 -83.2673 0.0049 91.4772
-395.4612 -84.1989 0.0053 92.4578
-395.7647 -85.1311 0.0056 93.4382
-396.0654 -86.0641 0.0059 94.4184
-396.3632 -86.9978 0.0060 95.3984
-396.6579 -87.9324 0.0060 96.3784
-396.9496 -88.8678 0.0058 97.3583
-397.2383 -89.8042 0.0054 98.3382
-397.5239 -90.7417 0.0048 99.3181
-397.8064 -91.6801 0.0041 100.2981
-398.0857 -92.6196 0.0031 101.2783
-398.3620 -93.5601 0.0019 102.2586
-398.6355 -94.5016 0.0006 103.2390
-398.9063 -95.4441 -0.0008 104.2196
-399.1750 -96.3873 -0.0019 105.2003
-399.4422 -97.3310 -0.0027 106.1812
-399.7081 -98.2751 -0.0029 107.1620
-399.9725 -99.2196 -0.0027 108.1428
-400.2350 -100.1645 -0.0021 109.1234
-400.4952 -101.1098 -0.0014 110.1039
-400.7529 -102.0555 -0.0005 111.0841
-401.0078 -103.0016 0.0004 112.0639
-401.2599 -103.9480 0.0014 113.0434
-401.5089 -104.8949 0.0022 114.0224
-401.7547 -105.8420 0.0031 115.0009
-401.9973 -106.7895 0.0038 115.9790
-402.2365 -107.7373 0.0044 116.9565
-402.4724 -108.6855 0.0049 117.9336
-402.7048 -109.6339 0.0053 118.9101
-402.9336 -110.5827 0.0056 119.8861
-403.1589 -111.5318 0.0059 120.8615
-403.3806 -112.4813 0.0060 121.8365
-403.5985 -113.4311 0.0060 122.8110
-403.8127 -114.3812 0.0060 123.7850
-404.0233 -115.3318 0.0059 124.7586
-404.2300 -116.2827 0.0058 125.7318
-404.4330 -117.2340 0.0057 126.7045
-404.6321 -118.1858 0.0055 127.6769
-404.8273 -119.1380 0.0053 128.6489
-405.0187 -120.0906 0.0051 129.6205
-405.2062 -121.0437 0.0050 130.5919
-405.3897 -121.9973 0.0048 131.5629
-405.5694 -122.9513 0.0046 132.5337
-405.7451 -123.9058 0.0045 133.5043
-405.9167 -124.8608 0.0043 134.4746
-406.0844 -125.8163 0.0042 135.4447
-406.2481 -126.7723 0.0041 136.4146
-406.4079 -127.7288 0.0040 137.3843
-406.5636 -128.6857 0.0039 138.3539
-406.7153 -129.6432 0.0039 139.3233
-406.8629 -130.6012 0.0038 140.2926
-407.0064 -131.5596 0.0038 141.2617
-407.1459 -132.5185 0.0038 142.2307
-407.2814 -133.4779 0.0038 143.1996
-407.4128 -134.4378 0.0038 144.1684
-407.5401 -135.3980 0.0038 145.1371
-407.6632 -136.3588 0.0038 146.1057
-407.7822 -137.3199 0.0038 147.0742
-407.8971 -138.2814 0.0038 148.0425
-408.0079 -139.2434 0.0038 149.0108
-408.1146 -140.2057 0.0038 149.9790
-408.2172 -141.1683 0.0038 150.9471
-408.3155 -142.1313 0.0038 151.9151
-408.4096 -143.0946 0.0038 152.8830
-408.4996 -144.0583 0.0037 153.8508
-408.5854 -145.0222 0.0037 154.8186
-408.6670 -145.9863 0.0036 155.7862
-408.7444 -146.9507 0.0036 156.7537
-408.8177 -147.9154 0.0035 157.7211
-408.8866 -148.8803 0.0034 158.6885
-408.9513 -149.8454 0.0033 159.6557
-409.0118 -150.8106 0.0032 160.6228
-409.0681 -151.7760 0.0030 161.5899
-409.1201 -152.7415 0.0029 162.5568
-409.1680 -153.7072 0.0028 163.5237
-409.2114 -154.6730 0.0026 164.4905
-409.2506 -155.6389 0.0024 165.4571
-409.2856 -156.6048 0.0022 166.4237
-409.3162 -157.5708 0.0020 167.3902
-409.3426 -158.5369 0.0018 168.3566
-409.3648 -159.5029 0.0016 169.3229
-409.3825 -160.4690 0.0014 170.2892
-409.3960 -161.4351 0.0012 171.2553
-409.4052 -162.4011 0.0009 172.2214
-409.4100 -163.3671 0.0007 173.1874
-409.4105 -164.3330 0.0004 174.1533
-409.4068 -165.2988 0.0002 175.1191
-409.3987 -166.2646 -0.0000 176.0849
-409.3861 -167.2302 -0.0002 177.0506
-409.3694 -168.1957 -0.0005 178.0163
-409.3482 -169.1610 -0.0007 178.9818
-409.3227 -170.1262 -0.0009 179.9474
-409.2929 -171.0912 -0.0010 180.9129
-409.2588 -172.0561 -0.0012 181.8783
-409.2202 -173.0207 -0.0014 182.8436
-409.1774 -173.9850 -0.0015 183.8090
-409.1301 -174.9492 -0.0016 184.7743
-409.0785 -175.9130 -0.0017 185.7395
-409.0226 -176.8766 -0.0018 186.7047
-408.9624 -177.8399 -0.0019 187.6699
-408.8978 -178.8029 -0.0020 188.6350
-408.8289 -179.7655 -0.0020 189.6001
-408.7556 -180.7278 -0.0020 190.5652
-408.6779 -181.6898 -0.0021 191.5303
-408.5959 -182.6513 -0.0021 192.4953
-408.5096 -183.6125 -0.0021 193.4604
-408.4190 -184.5733 -0.0021 194.4254
-408.3240 -185.5336 -0.0021 195.3904
-408.2247 -186.4935 -0.0021 196.3555
-408.1211 -187.4529 -0.0021 197.3205
-408.0131 -188.4119 -0.0021 198.2855
-407.9009 -189.3704 -0.0021 199.2505
-407.7844 -190.3283 -0.0020 200.2155
-407.6635 -191.2858 -0.0020 201.1806
-407.5385 -192.2427 -0.0020 202.1456
-407.4090 -193.1990 -0.0019 203.1107
-407.2753 -194.1548 -0.0019 204.0758
-407.1373 -195.1100 -0.0019 205.0409
-406.9951 -196.0646 -0.0018 206.0060
-406.8487 -197.0185 -0.0018 206.9711
-406.6980 -197.9719 -0.0017 207.9363
-406.5430 -198.9246 -0.0017 208.9015
-406.3838 -199.8766 -0.0017 209.8668
-406.2203 -200.8279 -0.0017 210.8320
-406.0527 -201.7786 -0.0016 211.7973
-405.8809 -202.7285 -0.0016 212.7627
-405.7049 -203.6777 -0.0016 213.7281
-405.5247 -204.6262 -0.0015 214.6935
-405.3403 -205.5738 -0.0015 215.6590
-405.1517 -206.5207 -0.0015 216.6245
-404.9590 -207.4668 -0.0015 217.5900
-404.7621 -208.4122 -0.0015 218.5556
-404.5612 -209.3566 -0.0014 219.5212
-404.3561 -210.3003 -0.0014 220.4869
-404.1468 -211.2430 -0.0014 221.4526
-403.9334 -212.1849 -0.0014 222.4183
-403.7159 -213.1259 -0.0014 223.3841
-403.4944 -214.0659 -0.0014 224.3499
-403.2688 -215.0051 -0.0013 225.3158
-403.0392 -215.9433 -0.0013 226.2817
-402.8053 -216.8805 -0.0013 227.2476
-402.5674 -217.8167 -0.0013 228.2136
-402.3255 -218.7519 -0.0013 229.1796
-402.0796 -219.6861 -0.0013 230.1456
-401.8297 -220.6193 -0.0013 231.1117
-401.5757 -221.5514 -0.0013 232.0778
-401.3177 -222.4825 -0.0013 233.0439
-401.0556 -223.4124 -0.0013 234.0101
-400.7896 -224.3412 -0.0013 234.9762
-400.5196 -225.2689 -0.0013 235.9424
-400.2455 -226.1955 -0.0013 236.9087
-399.9676 -227.1209 -0.0013 237.8749
-399.6856 -228.0451 -0.0013 238.8412
-399.3996 -228.9681 -0.0013 239.8075
-399.1097 -229.8899 -0.0013 240.7738
-398.8158 -230.8104 -0.0013 241.7401
-398.5180 -231.7297 -0.0013 242.7065
-398.2162 -232.6478 -0.0013 243.6728
-397.9106 -233.5645 -0.0013 244.6392
-397.6008 -234.4799 -0.0013 245.6055
-397.2872 -235.3940 -0.0013 246.5719
-396.9697 -236.3067 -0.0014 247.5383
-396.6482 -237.2181 -0.0014 248.5048
-396.3228 -238.1281 -0.0014 249.4712
-395.9936 -239.0367 -0.0014 250.4376
-395.6603 -239.9439 -0.0014 251.4041
-395.3232 -240.8497 -0.0014 252.3705
-394.9821 -241.7540 -0.0015 253.3370
-394.6372 -242.6568 -0.0015 254.3035
-394.2884 -243.5581 -0.0015 255.2700
-393.9357 -244.4580 -0.0015 256.2365
-393.5791 -245.3563 -0.0015 257.2030
-393.2186 -246.2531 -0.0016 258.1695
-392.8543 -247.1483 -0.0016 259.1360
-392.4861 -248.0420 -0.0016 260.1026
-392.1140 -248.9341 -0.0017 261.0692
-391.7381 -249.8246 -0.0017 262.0358
-391.3583 -250.7135 -0.0017 263.0024
-390.9747 -251.6007 -0.0018 263.9690
-390.5872 -252.4863 -0.0018 264.9357
-390.1959 -253.3702 -0.0019 265.9023
-389.8008 -254.2525 -0.0019 266.8690
-389.4019 -255.1331 -0.0019 267.8357
-388.9992 -256.0119 -0.0020 268.8025
-388.5927 -256.8891 -0.0020 269.7692
-388.1824 -257.7645 -0.0020 270.7360
-387.7683 -258.6381 -0.0021 271.7028
-387.3504 -259.5100 -0.0021 272.6697
-386.9287 -260.3801 -0.0022 273.6365
-386.5034 -261.2484 -0.0022 274.6034
-386.0742 -262.1148 -0.0022 275.5703
-385.6414 -262.9795 -0.0023 276.5373
-385.2048 -263.8423 -0.0023 277.5043
-384.7645 -264.7032 -0.0024 278.4713
-384.3204 -265.5623 -0.0024 279.4383
-383.8727 -266.4195 -0.0024 280.4054
-383.4213 -267.2748 -0.0025 281.3725
-382.9663 -268.1282 -0.0025 282.3397
-382.5076 -268.9797 -0.0025 283.3068
-382.0451 -269.8291 -0.0025 284.2740
-381.5790 -270.6766 -0.0026 285.2412
-381.1094 -271.5222 -0.0026 286.2084
-380.6361 -272.3658 -0.0026 287.1757
-380.1592 -273.2073 -0.0026 288.1430
-379.6787 -274.0469 -0.0026 289.1103
-379.1945 -274.8843 -0.0027 290.0777
-378.7068 -275.7197 -0.0027 291.0450
-378.2155 -276.5531 -0.0027 292.0124
-377.7207 -277.3844 -0.0027 292.9798
-377.2224 -278.2135 -0.0027 293.9472
-376.7205 -279.0406 -0.0027 294.9147
-376.2151 -279.8655 -0.0027 295.8821
-375.7060 -280.6882 -0.0027 296.8495
-375.1936 -281.5089 -0.0027 297.8170
-374.6776 -282.3273 -0.0027 298.7845
-374.1581 -283.1435 -0.0027 299.7520
-373.6353 -283.9575 -0.0027 300.7195
-373.1089 -284.7693 -0.0027 301.6870
-372.5789 -285.5788 -0.0027 302.6546
-372.0456 -286.3860 -0.0027 303.6221
-371.5089 -287.1910 -0.0027 304.5896
-370.9687 -287.9937 -0.0027 305.5572
-370.4252 -288.7942 -0.0026 306.5247
-369.8782 -289.5923 -0.0026 307.4922
-369.3277 -290.3879 -0.0026 308.4597
-368.7739 -291.1813 -0.0026 309.4273
-368.2167 -291.9723 -0.0026 310.3948
-367.6562 -292.7609 -0.0026 311.3623
-367.0923 -293.5471 -0.0026 312.3299
-366.5251 -294.3310 -0.0025 313.2974
-365.9545 -295.1123 -0.0025 314.2649
-365.3806 -295.8912 -0.0025 315.2324
-364.8033 -296.6676 -0.0025 316.2000
-364.2227 -297.4416 -0.0025 317.1674
-363.6389 -298.2131 -0.0025 318.1350
-363.0518 -298.9821 -0.0024 319.1024
-362.4614 -299.7486 -0.0024 320.0699
-361.8677 -300.5125 -0.0024 321.0374
-361.2708 -301.2738 -0.0024 322.0049
-360.6706 -302.0326 -0.0024 322.9724
-360.0672 -302.7888 -0.0024 323.9398
-359.4606 -303.5425 -0.0023 324.9073
-358.8507 -304.2935 -0.0023 325.8748
-358.2376 -305.0419 -0.0023 326.8422
-357.6214 -305.7877 -0.0023 327.8097
-357.0020 -306.5309 -0.0023 328.7771
-356.3793 -307.2713 -0.0022 329.7445
-355.7536 -308.0091 -0.0022 330.7119
-355.1248 -308.7443 -0.0022 331.6794
-354.4927 -309.4767 -0.0022 332.6468
-353.8575 -310.2064 -0.0021 333.6142
-353.2193 -310.9333 -0.0021 334.5816
-352.5779 -311.6575 -0.0021 335.5490
-351.9335 -312.3791 -0.0021 336.5164
-351.2860 -313.0978 -0.0020 337.4838
-350.6354 -313.8137 -0.0020 338.4512
-349.9818 -314.5269 -0.0020 339.4185
-349.3251 -315.2372 -0.0020 340.3859
-348.6654 -315.9448 -0.0019 341.3533
-348.0027 -316.6495 -0.0019 342.3206
-347.3371 -317.3514 -0.0019 343.2880
-346.6684 -318.0504 -0.0019 344.2553
-345.9968 -318.7466 -0.0018 345.2227
-345.3222 -319.4399 -0.0018 346.1900
-344.6447 -320.1303 -0.0018 347.1573
-343.9642 -320.8178 -0.0017 348.1246
-343.2809 -321.5024 -0.0017 349.0919
-342.5946 -322.1841 -0.0017 350.0592
-341.9054 -322.8628 -0.0016 351.0265
-341.2134 -323.5386 -0.0016 351.9938
-340.5185 -324.2114 -0.0016 352.9610
-339.8207 -324.8812 -0.0016 353.9283
-339.1201 -325.5481 -0.0015 354.8955
-338.4167 -326.2120 -0.0015 355.8627
-337.7104 -326.8728 -0.0014 356.8300
-337.0015 -327.5307 -0.0014 357.7971
-336.2896 -328.1855 -0.0013 358.7643
-335.5750 -328.8372 -0.0013 359.7315
-334.8576 -329.4858 -0.0013 360.6986
-334.1376 -330.1314 -0.0012 361.6657
-333.4147 -330.7740 -0.0012 362.6328
-332.6892 -331.4134 -0.0011 363.5999
-331.9609 -332.0497 -0.0011 364.5670
-331.2299 -332.6828 -0.0011 365.5341
-330.4962 -333.3128 -0.0011 366.5011
-329.7599 -333.9396 -0.0010 367.4681
-329.0210 -334.5633 -0.0010 368.4351
-328.2793 -335.1839 -0.0009 369.4021
-327.5351 -335.8012 -0.0009 370.3691
-326.7881 -336.4152 -0.0009 371.3360
-326.0386 -337.0261 -0.0009 372.3029
-325.2865 -337.6337 -0.0008 373.2698
-324.5318 -338.2381 -0.0008 374.2367
-323.7745 -338.8393 -0.0008 375.2036
-323.0147 -339.4372 -0.0007 376.1704
-322.2523 -340.0317 -0.0007 377.1373
-321.4873 -340.6229 -0.0007 378.1041
-320.7198 -341.2109 -0.0007 379.0709
-319.9499 -341.7955 -0.0007 380.0377
-319.1774 -342.3768 -0.0007 381.0044
-318.4025 -342.9548 -0.0007 381.9712
-317.6250 -343.5294 -0.0007 382.9379
-316.8450 -344.1006 -0.0007 383.9047
-316.0627 -344.6684 -0.0007 384.8714
-315.2778 -345.2328 -0.0007 385.8381
-314.4906 -345.7939 -0.0007 386.8048
-313.7010 -346.3516 -0.0007 387.7715
-312.9089 -346.9058 -0.0007 388.7383
-312.1144 -347.4565 -0.0007 389.7050
-311.3176 -348.0038 -0.0008 390.6717
-310.5184 -348.5477 -0.0008 391.6384
-309.7168 -349.0882 -0.0008 392.6051
-308.9130 -349.6252 -0.0008 393.5718
-308.1068 -350.1587 -0.0008 394.5385
-307.2983 -350.6886 -0.0008 395.5052
-306.4875 -351.2151 -0.0009 396.4720
-305.6745 -351.7381 -0.0009 397.4387
-304.8591 -352.2576 -0.0009 398.4055
-304.0416 -352.7737 -0.0009 399.3723
-303.2219 -353.2862 -0.0009 400.3390
-302.3998 -353.7950 -0.0010 401.3058
-301.5757 -354.3004 -0.0010 402.2726
-300.7493 -354.8022 -0.0010 403.2394
-299.9207 -355.3005 -0.0010 404.2063
-299.0901 -355.7953 -0.0011 405.1731
-298.2573 -356.2865 -0.0011 406.1400
-297.4223 -356.7740 -0.0011 407.1068
-296.5853 -357.2580 -0.0011 408.0737
-295.7462 -357.7385 -0.0011 409.0406
-294.9050 -358.2152 -0.0011 410.0075
-294.0618 -358.6884 -0.0012 410.9744
-293.2166 -359.1581 -0.0011 411.9414
-292.3693 -359.6241 -0.0011 412.9083
-291.5201 -360.0864 -0.0012 413.8753
-290.6689 -360.5451 -0.0012 414.8422
-289.8156 -361.0002 -0.0012 415.8092
-288.9605 -361.4515 -0.0012 416.7762
-288.1035 -361.8993 -0.0012 417.7431
-287.2445 -362.3434 -0.0012 418.7101
-286.3836 -362.7838 -0.0012 419.6771
-285.5209 -363.2206 -0.0012 420.6440
-284.6563 -363.6536 -0.0012 421.6110
-283.7899 -364.0829 -0.0012 422.5780
-282.9216 -364.5085 -0.0011 423.5450
-282.0515 -364.9304 -0.0011 424.5119
-281.1797 -365.3486 -0.0011 425.4789
-280.3061 -365.7630 -0.0011 426.4458
-279.4307 -366.1737 -0.0011 427.4128
-278.5535 -366.5806 -0.0011 428.3797
-277.6747 -366.9837 -0.0011 429.3466
-276.7941 -367.3831 -0.0011 430.3135
-275.9118 -367.7787 -0.0011 431.2804
-275.0279 -368.1706 -0.0010 432.2473
-274.1423 -368.5586 -0.0010 433.2142
-273.2550 -368.9427 -0.0010 434.1810
-272.3661 -369.3231 -0.0010 435.1479
-271.4756 -369.6996 -0.0010 436.1147
-270.5835 -370.0723 -0.0010 437.0816
-269.6898 -370.4412 -0.0009 438.0484
-268.7946 -370.8063 -0.0009 439.0152
-267.8978 -371.1674 -0.0009 439.9820
-266.9994 -371.5246 -0.0009 440.9488
-266.0995 -371.8780 -0.0009 441.9156
-265.1982 -372.2275 -0.0009 442.8823
-264.2953 -372.5732 -0.0009 443.8491
-263.3910 -372.9149 -0.0009 444.8159
-262.4851 -373.2527 -0.0009 445.7826
-261.5779 -373.5865 -0.0009 446.7494
-260.6692 -373.9165 -0.0009 447.7161
-259.7591 -374.2426 -0.0009 448.6828
-258.8476 -374.5647 -0.0008 449.6496
-257.9348 -374.8830 -0.0008 450.6163
-257.0205 -375.1973 -0.0008 451.5831
-256.1049 -375.5075 -0.0008 452.5498
-255.1879 -375.8138 -0.0008 453.5166
-254.2697 -376.1162 -0.0008 454.4833
-253.3501 -376.4147 -0.0008 455.4501
-252.4293 -376.7092 -0.0008 456.4169
-251.5072 -376.9998 -0.0008 457.3837
-250.5838 -377.2862 -0.0008 458.3505
-249.6592 -377.5688 -0.0008 459.3173
-248.7334 -377.8474 -0.0008 460.2841
-247.8064 -378.1219 -0.0008 461.2509
-246.8782 -378.3926 -0.0008 462.2178
-245.9489 -378.6593 -0.0008 463.1847
-245.0183 -378.9219 -0.0008 464.1516
-244.0866 -379.1805 -0.0008 465.1185
-243.1539 -379.4352 -0.0008 466.0854
-242.2200 -379.6859 -0.0008 467.0523
-241.2850 -379.9326 -0.0008 468.0193
-240.3490 -380.1753 -0.0008 468.9862
-239.4119 -380.4139 -0.0008 469.9532
-238.4738 -380.6485 -0.0008 470.9202
-237.5347 -380.8791 -0.0008 471.8872
-236.5946 -381.1057 -0.0008 472.8542
-235.6536 -381.3282 -0.0008 473.8213
-234.7115 -381.5468 -0.0007 474.7883
-233.7686 -381.7614 -0.0007 475.7554
-232.8247 -381.9718 -0.0007 476.7224
-231.8799 -382.1783 -0.0007 477.6895
-230.9342 -382.3806 -0.0007 478.6566
-229.9876 -382.5789 -0.0007 479.6237
-229.0403 -382.7733 -0.0007 480.5909
-228.0920 -382.9636 -0.0007 481.5580
-227.1430 -383.1497 -0.0007 482.5251
-226.1932 -383.3318 -0.0006 483.4922
-225.2426 -383.5098 -0.0006 484.4594
-224.2912 -383.6837 -0.0006 485.4265
-223.3391 -383.8536 -0.0006 486.3936
-222.3863 -384.0194 -0.0006 487.3608
-221.4327 -384.1811 -0.0006 488.3279
-220.4785 -384.3387 -0.0006 489.2950
-219.5236 -384.4922 -0.0005 490.2622
-218.5681 -384.6415 -0.0006 491.2293
-217.6119 -384.7867 -0.0005 492.1965
-216.6552 -384.9279 -0.0005 493.1636
-215.6978 -385.0649 -0.0005 494.1307
-214.7398 -385.1978 -0.0005 495.0978
-213.7813 -385.3265 -0.0005 496.0649
-212.8223 -385.4510 -0.0005 497.0321
-211.8627 -385.5715 -0.0005 497.9991
-210.9026 -385.6878 -0.0004 498.9662
-209.9421 -385.8000 -0.0004 499.9333
-208.9811 -385.9079 -0.0004 500.9004
-208.0196 -386.0118 -0.0004 501.8675
-207.0577 -386.1114 -0.0004 502.8345
-206.0954 -386.2068 -0.0004 503.8015
-205.1327 -386.2981 -0.0004 504.7686
-204.1696 -386.3852 -0.0004 505.7356
-203.2062 -386.4681 -0.0004 506.7025
-202.2424 -386.5469 -0.0003 507.6696
-201.2783 -386.6214 -0.0003 508.6365
-200.3139 -386.6917 -0.0003 509.6035
-199.3492 -386.7578 -0.0003 510.5704
-198.3842 -386.8197 -0.0003 511.5374
-197.4191 -386.8774 -0.0003 512.5043
-196.4536 -386.9309 -0.0003 513.4712
-195.4880 -386.9802 -0.0002 514.4381
-194.5221 -387.0252 -0.0003 515.4050
-193.5561 -387.0660 -0.0003 516.3719
-192.5900 -387.1026 -0.0002 517.3387
-191.6237 -387.1350 -0.0002 518.3056
-190.6572 -387.1632 -0.0002 519.2724
-189.6907 -387.1872 -0.0002 520.2393
-188.7241 -387.2068 -0.0002 521.2061
-187.7574 -387.2222 -0.0002 522.1729
-186.7907 -387.2334 -0.0002 523.1396
-185.8240 -387.2404 -0.0002 524.1064
-184.8572 -387.2432 -0.0002 525.0732
-183.8904 -387.2418 -0.0001 526.0399
-182.9237 -387.2359 -0.0002 527.0067
-181.9570 -387.2259 -0.0002 527.9734
-180.9904 -387.2117 -0.0002 528.9401
-180.0239 -387.1932 -0.0002 529.9069
-179.0574 -387.1705 -0.0002 530.8736
-178.0911 -387.1437 -0.0001 531.8403
-177.1249 -387.1124 -0.0002 532.8070
-176.1588 -387.0769 -0.0002 533.7737
-175.1930 -387.0372 -0.0002 534.7404
-174.2273 -386.9933 -0.0002 535.7071
-173.2618 -386.9452 -0.0002 536.6738
-172.2965 -386.8929 -0.0002 537.6404
-171.3315 -386.8363 -0.0002 538.6071
-170.3668 -386.7754 -0.0002 539.5738
-169.4023 -386.7104 -0.0002 540.5405
-168.4381 -386.6411 -0.0002 541.5071
-167.4742 -386.5675 -0.0002 542.4738
-166.5107 -386.4899 -0.0002 543.4405
-165.5475 -386.4080 -0.0002 544.4072
-164.5846 -386.3218 -0.0002 545.3738
-163.6222 -386.2315 -0.0002 546.3405
-162.6601 -386.1369 -0.0002 547.3072
-161.6985 -386.0381 -0.0002 548.2739
-160.7373 -385.9353 -0.0002 549.2406
-159.7766 -385.8282 -0.0002 550.2073
-158.8163 -385.7168 -0.0002 551.1740
-157.8565 -385.6013 -0.0002 552.1407
-156.8972 -385.4817 -0.0002 553.1074
-155.9384 -385.3578 -0.0002 554.0742
-154.9802 -385.2298 -0.0001 555.0410
-154.0225 -385.0977 -0.0001 556.0077
-153.0654 -384.9613 -0.0001 556.9745
-152.1088 -384.8208 -0.0000 557.9413
-151.1529 -384.6762 -0.0000 558.9081
-150.1976 -384.5274 0.0000 559.8749
-149.2429 -384.3745 0.0000 560.8418
-148.2889 -384.2175 0.0001 561.8087
-147.3355 -384.0563 0.0001 562.7756
-146.3828 -383.8910 0.0001 563.7425
-145.4308 -383.7216 0.0002 564.7094
-144.4795 -383.5481 0.0002 565.6764
-143.5290 -383.3704 0.0002 566.6434
-142.5791 -383.1887 0.0003 567.6105
-141.6301 -383.0030 0.0003 568.5776
-140.6818 -382.8130 0.0004 569.5447
-139.7343 -382.6191 0.0004 570.5118
-138.7876 -382.4211 0.0004 571.4791
-137.8417 -382.2189 0.0004 572.4463
-136.8966 -382.0128 0.0005 573.4136
-135.9523 -381.8027 0.0005 574.3809
-135.0090 -381.5885 0.0005 575.3483
-134.0664 -381.3703 0.0006 576.3158
-133.1248 -381.1481 0.0006 577.2833
-132.1841 -380.9218 0.0006 578.2509
-131.2442 -380.6916 0.0006 579.2184
-130.3053 -380.4575 0.0006 580.1862
-129.3673 -380.2193 0.0006 581.1539
-128.4302 -379.9773 0.0006 582.1218
-127.4941 -379.7313 0.0006 583.0897
-126.5590 -379.4813 0.0006 584.0576
-125.6248 -379.2274 0.0006 585.0256
-124.6916 -378.9697 0.0006 585.9938
-123.7594 -378.7082 0.0006 586.9620
-122.8282 -378.4427 0.0006 587.9303
-121.8980 -378.1735 0.0006 588.8986
-120.9689 -377.9003 0.0006 589.8671
-120.0408 -377.6234 0.0005 590.8356
-119.1137 -377.3427 0.0005 591.8043
-118.1877 -377.0582 0.0005 592.7730
-117.2627 -376.7700 0.0005 593.7418
-116.3388 -376.4781 0.0005 594.7108
-115.4161 -376.1824 0.0004 595.6797
-114.4944 -375.8830 0.0004 596.6489
-113.5737 -375.5799 0.0004 597.6181
-112.6542 -375.2733 0.0004 598.5874
-111.7358 -374.9629 0.0004 599.5568
-110.8185 -374.6490 0.0004 600.5264
-109.9023 -374.3315 0.0004 601.4960
-108.9873 -374.0103 0.0003 602.4657
-108.0735 -373.6856 0.0003 603.4355
-107.1607 -373.3574 0.0003 604.4055
-106.2491 -373.0256 0.0003 605.3756
-105.3387 -372.6905 0.0003 606.3458
-104.4294 -372.3518 0.0003 607.3160
-103.5214 -372.0095 0.0003 608.2864
-102.6145 -371.6639 0.0003 609.2570
-101.7088 -371.3148 0.0003 610.2276
-100.8043 -370.9624 0.0004 611.1984
-99.9009 -370.6066 0.0004 612.1693
-98.9988 -370.2475 0.0004 613.1403
-98.0979 -369.8849 0.0004 614.1114
-97.1982 -369.5190 0.0005 615.0826
-96.2997 -369.1499 0.0005 616.0540
-95.4025 -368.7774 0.0005 617.0255
-94.5064 -368.4017 0.0006 617.9971
-93.6116 -368.0228 0.0006 618.9689
-92.7181 -367.6406 0.0006 619.9407
-91.8257 -367.2551 0.0007 620.9127
-90.9346 -366.8665 0.0007 621.8849
-90.0448 -366.4747 0.0008 622.8571
-89.1562 -366.0797 0.0008 623.8296
-88.2688 -365.6817 0.0009 624.8021
-87.3827 -365.2805 0.0009 625.7748
-86.4979 -364.8761 0.0009 626.7477
-85.6143 -364.4687 0.0010 627.7206
-84.7320 -364.0582 0.0010 628.6938
-83.8509 -363.6447 0.0011 629.6671
-82.9711 -363.2281 0.0011 630.6406
-82.0925 -362.8086 0.0012 631.6141
-81.2153 -362.3860 0.0012 632.5879
-80.3392 -361.9604 0.0012 633.5618
-79.4644 -361.5320 0.0012 634.5359
-78.5909 -361.1005 0.0013 635.5102
-77.7186 -360.6662 0.0013 636.4846
-76.8476 -360.2290 0.0013 637.4592
-75.9779 -359.7888 0.0014 638.4340
-75.1093 -359.3459 0.0014 639.4089
-74.2421 -358.9001 0.0014 640.3841
-73.3760 -358.4515 0.0014 641.3594
-72.5112 -358.0002 0.0014 642.3349
-71.6477 -357.5461 0.0014 643.3106
-70.7853 -357.0891 0.0014 644.2865
-69.9242 -356.6296 0.0014 645.2626
-69.0643 -356.1673 0.0014 646.2388
-68.2057 -355.7023 0.0014 647.2153
-67.3482 -355.2347 0.0014 648.1920
-66.4919 -354.7646 0.0014 649.1688
-65.6369 -354.2917 0.0014 650.1459
-64.7830 -353.8164 0.0014 651.1232
-63.9303 -353.3385 0.0014 652.1006
-63.0788 -352.8580 0.0014 653.0784
-62.2285 -352.3751 0.0013 654.0562
-61.3793 -351.8897 0.0013 655.0343
-60.5314 -351.4019 0.0013 656.0126
-59.6845 -350.9116 0.0013 656.9911
-58.8388 -350.4189 0.0013 657.9699
-57.9943 -349.9239 0.0013 658.9489
-57.1509 -349.4265 0.0013 659.9280
-56.3086 -348.9268 0.0013 660.9073
-55.4674 -348.4248 0.0012 661.8870
-54.6273 -347.9205 0.0012 662.8668
-53.7884 -347.4140 0.0012 663.8467
-52.9505 -346.9052 0.0012 664.8270
-52.1138 -346.3942 0.0012 665.8074
-51.2781 -345.8811 0.0012 666.7881
-50.4435 -345.3658 0.0012 667.7689
-49.6099 -344.8484 0.0012 668.7500
-48.7774 -344.3289 0.0012 669.7313
-47.9460 -343.8073 0.0012 670.7128
-47.1156 -343.2836 0.0011 671.6945
-46.2863 -342.7579 0.0011 672.6765
-45.4579 -342.2302 0.0011 673.6586
-44.6306 -341.7005 0.0011 674.6410
-43.8043 -341.1689 0.0012 675.6235
-42.9790 -340.6353 0.0011 676.6063
-42.1547 -340.0997 0.0011 677.5894
-41.3314 -339.5622 0.0011 678.5726
-40.5090 -339.0229 0.0011 679.5560
-39.6876 -338.4818 0.0011 680.5396
-38.8672 -337.9388 0.0012 681.5234
-38.0477 -337.3939 0.0012 682.5075
-37.2292 -336.8473 0.0011 683.4918
-36.4116 -336.2989 0.0011 684.4763
-35.5950 -335.7487 0.0011 685.4609
-34.7792 -335.1969 0.0011 686.4458
-33.9643 -334.6433 0.0011 687.4309
-33.1504 -334.0881 0.0011 688.4163
-32.3373 -333.5311 0.0011 689.4017
-31.5251 -332.9726 0.0011 690.3875
-30.7138 -332.4124 0.0011 691.3734
-29.9034 -331.8506 0.0011 692.3595
-29.0938 -331.2873 0.0011 693.3458
-28.2850 -330.7224 0.0011 694.3323
-27.4771 -330.1559 0.0011 695.3191
-26.6699 -329.5880 0.0011 696.3060
-25.8636 -329.0185 0.0011 697.2931
-25.0582 -328.4476 0.0011 698.2804
-24.2534 -327.8752 0.0011 699.2679
-23.4495 -327.3015 0.0011 700.2556
-22.6464 -326.7263 0.0010 701.2435
-21.8440 -326.1497 0.0010 702.2315
-21.0424 -325.5717 0.0010 703.2197
-20.2416 -324.9924 0.0010 704.2082
-19.4414 -324.4117 0.0010 705.1968
-18.6420 -323.8298 0.0010 706.1855
-17.8434 -323.2466 0.0010 707.1745
-17.0454 -322.6621 0.0010 708.1636
-16.2481 -322.0763 0.0009 709.1530
-15.4516 -321.4893 0.0009 710.1424
-14.6557 -320.9012 0.0009 711.1320
-13.8605 -320.3118 0.0009 712.1219
-13.0660 -319.7212 0.0009 713.1118
-12.2721 -319.1295 0.0009 714.1020
-11.4789 -318.5366 0.0009 715.0923
-10.6863 -317.9426 0.0008 716.0827
-9.8943 -317.3475 0.0008 717.0734
-9.1030 -316.7514 0.0008 718.0641
-8.3123 -316.1541 0.0008 719.0551
-7.5221 -315.5558 0.0008 720.0461
-6.7326 -314.9565 0.0007 721.0374
-5.9437 -314.3562 0.0007 722.0287
-5.1553 -313.7548 0.0007 723.0203
-4.3675 -313.1525 0.0007 724.0120
-3.5802 -312.5492 0.0007 725.0038
-2.7935 -311.9449 0.0006 725.9958
-2.0073 -311.3398 0.0006 726.9880
-1.2217 -310.7337 0.0006 727.9802
-0.4365 -310.1266 0.0005 728.9727
0.3481 -309.5188 0.0005 729.9652
1.1323 -308.9100 0.0005 730.9579
1.9159 -308.3004 0.0005 731.9507
2.6991 -307.6900 0.0004 732.9438
3.4818 -307.0787 0.0004 733.9369
4.2641 -306.4667 0.0004 734.9301
5.0459 -305.8539 0.0004 735.9235
5.8273 -305.2402 0.0003 736.9171
6.6083 -304.6259 0.0003 737.9107
7.3888 -304.0107 0.0003 738.9045
8.1689 -303.3949 0.0003 739.8984
8.9486 -302.7784 0.0002 740.8924
9.7279 -302.1611 0.0002 741.8865
10.5069 -301.5432 0.0002 742.8808
11.2854 -300.9246 0.0002 743.8752
12.0637 -300.3054 0.0002 744.8697
12.8415 -299.6855 0.0002 745.8643
13.6189 -299.0650 0.0002 746.8591
14.3961 -298.4438 0.0002 747.8539
15.1729 -297.8221 0.0002 748.8489
15.9493 -297.1998 0.0002 749.8439
16.7254 -296.5769 0.0002 750.8391
17.5012 -295.9535 0.0002 751.8344
18.2767 -295.3295 0.0002 752.8297
19.0519 -294.7050 0.0002 753.8252
19.8268 -294.0799 0.0003 754.8207
20.6013 -293.4543 0.0003 755.8164
21.3756 -292.8282 0.0003 756.8121
22.1496 -292.2017 0.0003 757.8079
22.9233 -291.5746 0.0003 758.8039
23.6968 -290.9470 0.0004 759.7999
24.4699 -290.3190 0.0004 760.7960
25.2428 -289.6905 0.0004 761.7921
26.0154 -289.0616 0.0004 762.7884
26.7878 -288.4322 0.0005 763.7847
27.5599 -287.8023 0.0005 764.7812
28.3318 -287.1721 0.0005 765.7776
29.1034 -286.5414 0.0006 766.7742
29.8748 -285.9103 0.0006 767.7709
30.6460 -285.2788 0.0006 768.7676
31.4170 -284.6469 0.0006 769.7645
32.1877 -284.0146 0.0006 770.7614
32.9582 -283.3820 0.0007 771.7584
33.7286 -282.7490 0.0007 772.7554
34.4987 -282.1156 0.0007 773.7525
35.2686 -281.4818 0.0007 774.7497
36.0384 -280.8477 0.0007 775.7470
36.8079 -280.2133 0.0007 776.7444
37.5773 -279.5786 0.0008 777.7418
38.3466 -278.9435 0.0008 778.7393
39.1156 -278.3081 0.0008 779.7369
39.8846 -277.6724 0.0008 780.7346
40.6534 -277.0364 0.0008 781.7324
41.4220 -276.4001 0.0008 782.7302
42.1905 -275.7636 0.0008 783.7281
42.9590 -275.1268 0.0008 784.7261
43.7272 -274.4897 0.0008 785.7241
44.4954 -273.8524 0.0008 786.7223
45.2635 -273.2149 0.0008 787.7205
46.0315 -272.5771 0.0008 788.7188
46.7994 -271.9391 0.0008 789.7172
47.5673 -271.3009 0.0009 790.7156
48.3350 -270.6625 0.0009 791.7141
49.1027 -270.0240 0.0009 792.7126
49.8703 -269.3852 0.0009 793.7112
50.6379 -268.7463 0.0009 794.7099
51.4054 -268.1072 0.0009 795.7087
52.1728 -267.4680 0.0010 796.7075
52.9403 -266.8286 0.0010 797.7064
53.7076 -266.1891 0.0010 798.7053
54.4750 -265.5494 0.0011 799.7042
55.2423 -264.9096 0.0011 800.7033
56.0095 -264.2697 0.0012 801.7023
56.7767 -263.6297 0.0012 802.7015
57.5439 -262.9896 0.0013 803.7006
58.3111 -262.3494 0.0013 804.6998
59.0782 -261.7091 0.0014 805.6990
59.8453 -261.0688 0.0014 806.6984
60.6124 -260.4283 0.0015 807.6976
61.3795 -259.7878 0.0016 808.6970
62.1465 -259.1472 0.0016 809.6963
62.9135 -258.5065 0.0017 810.6957
63.6805 -257.8657 0.0018 811.6951
64.4474 -257.2249 0.0019 812.6945
65.2143 -256.5840 0.0019 813.6940
65.9812 -255.9430 0.0020 814.6934
66.7480 -255.3020 0.0021 815.6929
67.5148 -254.6609 0.0022 816.6924
68.2815 -254.0197 0.0023 817.6919
69.0482 -253.3785 0.0023 818.6914
69.8149 -252.7372 0.0024 819.6909
70.5815 -252.0959 0.0025 820.6904
71.3481 -251.4545 0.0026 821.6899
72.1147 -250.8130 0.0026 822.6895
72.8812 -250.1714 0.0027 823.6890
73.6476 -249.5298 0.0028 824.6886
74.4140 -248.8882 0.0028 825.6882
75.1804 -248.2464 0.0029 826.6877
75.9467 -247.6046 0.0029 827.6873
76.7129 -246.9627 0.0030 828.6869
77.4791 -246.3208 0.0030 829.6865
78.2453 -245.6787 0.0031 830.6860
79.0114 -245.0367 0.0031 831.6857
79.7775 -244.3945 0.0031 832.6853
80.5435 -243.7523 0.0032 833.6849
81.3096 -243.1100 0.0032 834.6846
82.0755 -242.4677 0.0032 835.6842
82.8415 -241.8253 0.0032 836.6839
83.6074 -241.1828 0.0033 837.6836
84.3733 -240.5403 0.0033 838.6833
85.1392 -239.8977 0.0033 839.6830
85.9050 -239.2551 0.0033 840.6827
86.6709 -238.6125 0.0033 841.6826
87.4367 -237.9698 0.0032 842.6823
88.2026 -237.3271 0.0032 843.6821
88.9684 -236.6843 0.0032 844.6819
89.7343 -236.0415 0.0032 845.6818
90.5001 -235.3987 0.0032 846.6817
91.2660 -234.7559 0.0032 847.6816
92.0320 -234.1131 0.0032 848.6815
92.7979 -233.4703 0.0031 849.6815
93.5639 -232.8274 0.0031 850.6815
94.3299 -232.1846 0.0031 851.6815
95.0960 -231.5418 0.0031 852.6815
95.8621 -230.8991 0.0030 853.6815
96.6283 -230.2563 0.0030 854.6816
97.3945 -229.6136 0.0030 855.6817
98.1608 -228.9709 0.0030 856.6818
98.9271 -228.3283 0.0030 857.6819
99.6936 -227.6857 0.0030 858.6821
100.4600 -227.0432 0.0030 859.6823
101.2266 -226.4007 0.0030 860.6824
101.9932 -225.7583 0.0030 861.6826
102.7599 -225.1160 0.0030 862.6828
103.5267 -224.4737 0.0030 863.6830
104.2935 -223.8316 0.0030 864.6832
105.0604 -223.1895 0.0030 865.6835
105.8274 -222.5474 0.0030 866.6837
106.5945 -221.9055 0.0031 867.6840
107.3616 -221.2636 0.0031 868.6842
108.1288 -220.6218 0.0031 869.6844
108.8961 -219.9801 0.0032 870.6847
109.6634 -219.3385 0.0032 871.6849
110.4308 -218.6970 0.0032 872.6852
111.1983 -218.0555 0.0033 873.6854
111.9659 -217.4142 0.0033 874.6856
112.7335 -216.7729 0.0034 875.6859
113.5011 -216.1317 0.0034 876.6860
114.2688 -215.4906 0.0034 877.6863
115.0366 -214.8496 0.0035 878.6865
115.8044 -214.2086 0.0035 879.6866
116.5723 -213.5677 0.0036 880.6868
117.3401 -212.9269 0.0036 881.6870
118.1081 -212.2861 0.0037 882.6871
118.8761 -211.6454 0.0037 883.6873
119.6441 -211.0048 0.0037 884.6874
120.4121 -210.3642 0.0038 885.6875
121.1802 -209.7237 0.0038 886.6876
121.9483 -209.0833 0.0039 887.6877
122.7165 -208.4429 0.0039 888.6878
123.4846 -207.8025 0.0039 889.6879
124.2528 -207.1622 0.0039 890.6879
125.0210 -206.5219 0.0040 891.6880
125.7893 -205.8817 0.0040 892.6880
126.5575 -205.2415 0.0040 893.6880
127.3258 -204.6013 0.0040 894.6880
128.0941 -203.9612 0.0040 895.6880
128.8624 -203.3211 0.0040 896.6881
129.6308 -202.6811 0.0040 897.6881
130.3991 -202.0411 0.0040 898.6881
131.1675 -201.4011 0.0040 899.6881
131.9359 -200.7611 0.0040 900.6881
132.7043 -200.1212 0.0040 901.6880
133.4728 -199.4813 0.0040 902.6880
134.2413 -198.8414 0.0040 903.6880
135.0098 -198.2016 0.0040 904.6880
135.7783 -197.5618 0.0040 905.6880
136.5469 -196.9221 0.0040 906.6880
137.3155 -196.2823 0.0039 907.6880
138.0841 -195.6426 0.0039 908.6880
138.8528 -195.0030 0.0039 909.6880
139.6215 -194.3634 0.0039 910.6881
140.3903 -193.7238 0.0038 911.6881
141.1591 -193.0842 0.0038 912.6882
141.9280 -192.4448 0.0038 913.6882
142.6969 -191.8053 0.0038 914.6882
143.4659 -191.1659 0.0037 915.6884
144.2349 -190.5266 0.0037 916.6884
145.0040 -189.8873 0.0037 917.6885
145.7732 -189.2481 0.0036 918.6886
146.5424 -188.6090 0.0036 919.6887
147.3117 -187.9699 0.0036 920.6888
148.0811 -187.3309 0.0035 921.6890
148.8506 -186.6920 0.0035 922.6892
149.6202 -186.0531 0.0034 923.6893
150.3898 -185.4143 0.0034 924.6896
151.1595 -184.7757 0.0034 925.6898
151.9294 -184.1371 0.0033 926.6899
152.6993 -183.4985 0.0033 927.6902
153.4693 -182.8601 0.0033 928.6904
154.2394 -182.2218 0.0033 929.6907
155.0096 -181.5836 0.0032 930.6910
155.7799 -180.9455 0.0032 931.6912
156.5503 -180.3075 0.0032 932.6915
157.3208 -179.6696 0.0031 933.6918
158.0914 -179.0318 0.0031 934.6921
158.8621 -178.3941 0.0031 935.6924
159.6329 -177.7566 0.0031 936.6927
160.4037 -177.1191 0.0031 937.6930
161.1747 -176.4818 0.0031 938.6933
161.9458 -175.8446 0.0031 939.6936
162.7170 -175.2075 0.0031 940.6939
163.4882 -174.5705 0.0030 941.6942
164.2596 -173.9337 0.0030 942.6945
165.0310 -173.2969 0.0030 943.6947
165.8025 -172.6603 0.0030 944.6949
166.5741 -172.0238 0.0030 945.6952
167.3457 -171.3874 0.0031 946.6954
168.1174 -170.7511 0.0031 947.6956
168.8892 -170.1149 0.0031 948.6958
169.6610 -169.4788 0.0031 949.6960
170.4329 -168.8428 0.0031 950.6961
171.2048 -168.2069 0.0031 951.6962
171.9768 -167.5711 0.0031 952.6964
172.7488 -166.9354 0.0032 953.6964
173.5209 -166.2998 0.0032 954.6965
174.2929 -165.6642 0.0032 955.6965
175.0650 -165.0287 0.0032 956.6965
175.8371 -164.3932 0.0033 957.6964
176.6092 -163.7579 0.0033 958.6964
177.3813 -163.1225 0.0033 959.6962
178.1534 -162.4873 0.0033 960.6961
178.9255 -161.8520 0.0034 961.6959
179.6976 -161.2168 0.0034 962.6957
180.4697 -160.5816 0.0034 963.6956
181.2417 -159.9464 0.0034 964.6953
182.0138 -159.3113 0.0035 965.6950
182.7858 -158.6761 0.0035 966.6948
183.5577 -158.0409 0.0035 967.6944
184.3297 -157.4058 0.0035 968.6941
185.1016 -156.7706 0.0036 969.6937
185.8734 -156.1354 0.0036 970.6933
186.6452 -155.5002 0.0036 971.6929
187.4170 -154.8649 0.0036 972.6925
188.1887 -154.2297 0.0036 973.6921
188.9604 -153.5943 0.0036 974.6917
189.7320 -152.9590 0.0037 975.6912
190.5036 -152.3236 0.0037 976.6907
191.2751 -151.6881 0.0037 977.6902
192.0466 -151.0526 0.0037 978.6898
192.8180 -150.4171 0.0037 979.6892
193.5894 -149.7814 0.0037 980.6887
194.3607 -149.1458 0.0037 981.6882
195.1319 -148.5100 0.0037 982.6877
195.9032 -147.8742 0.0037 983.6873
196.6743 -147.2383 0.0037 984.6868
197.4454 -146.6024 0.0037 985.6863
198.2165 -145.9664 0.0037 986.6859
198.9875 -145.3303 0.0037 987.6854
199.7585 -144.6942 0.0037 988.6849
200.5294 -144.0580 0.0037 989.6844
201.3004 -143.4217 0.0037 990.6840
202.0712 -142.7854 0.0037 991.6836
202.8420 -142.1490 0.0037 992.6832
203.6128 -141.5125 0.0036 993.6827
204.3835 -140.8760 0.0036 994.6824
205.1543 -140.2394 0.0036 995.6819
205.9249 -139.6028 0.0036 996.6816
206.6956 -138.9661 0.0036 997.6812
207.4662 -138.3294 0.0036 998.6808
208.2367 -137.6926 0.0036 999.6805
209.0073 -137.0557 0.0036 1000.6802
209.7778 -136.4188 0.0036 1001.6798
210.5483 -135.7818 0.0036 1002.6795
211.3187 -135.1449 0.0036 1003.6792
212.0891 -134.5078 0.0036 1004.6788
212.8595 -133.8707 0.0036 1005.6785
213.6299 -133.2336 0.0036 1006.6782
214.4002 -132.5964 0.0036 1007.6779
215.1705 -131.9592 0.0036 1008.6776
215.9408 -131.3220 0.0036 1009.6773
216.7110 -130.6847 0.0036 1010.6770
217.4812 -130.0473 0.0036 1011.6767
218.2514 -129.4100 0.0036 1012.6765
219.0215 -128.7726 0.0036 1013.6761
219.7916 -128.1351 0.0036 1014.6758
220.5617 -127.4977 0.0036 1015.6755
221.3317 -126.8602 0.0036 1016.6752
222.1017 -126.2227 0.0036 1017.6748
222.8717 -125.5851 0.0036 1018.6745
223.6416 -124.9475 0.0036 1019.6741
224.4114 -124.3099 0.0036 1020.6738
225.1813 -123.6722 0.0036 1021.6734
225.9511 -123.0345 0.0036 1022.6730
226.7208 -122.3968 0.0036 1023.6726
227.4905 -121.7590 0.0035 1024.6722
228.2602 -121.1212 0.0035 1025.6718
229.0298 -120.4834 0.0035 1026.6714
229.7993 -119.8456 0.0035 1027.6709
230.5689 -119.2077 0.0035 1028.6704
231.3383 -118.5697 0.0035 1029.6699
232.1077 -117.9318 0.0035 1030.6694
232.8771 -117.2938 0.0035 1031.6689
233.6464 -116.6557 0.0035 1032.6683
234.4156 -116.0176 0.0034 1033.6678
235.1848 -115.3795 0.0034 1034.6672
235.9539 -114.7414 0.0034 1035.6666
236.7230 -114.1032 0.0034 1036.6660
237.4920 -113.4650 0.0033 1037.6653
238.2609 -112.8267 0.0033 1038.6647
239.0298 -112.1884 0.0033 1039.6639
239.7986 -111.5500 0.0033 1040.6632
240.5673 -110.9116 0.0032 1041.6625
241.3359 -110.2732 0.0032 1042.6616
242.1045 -109.6347 0.0032 1043.6608
242.8729 -108.9962 0.0031 1044.6599
243.6413 -108.3576 0.0031 1045.6591
244.4096 -107.7189 0.0031 1046.6581
245.1777 -107.0803 0.0030 1047.6571
245.9458 -106.4415 0.0030 1048.6560
246.7138 -105.8027 0.0030 1049.6549
247.4816 -105.1639 0.0030 1050.6538
248.2493 -104.5250 0.0029 1051.6526
249.0169 -103.8860 0.0029 1052.6514
249.7844 -103.2469 0.0029 1053.6500
250.5517 -102.6078 0.0028 1054.6487
251.3189 -101.9686 0.0028 1055.6472
252.0859 -101.3293 0.0028 1056.6458
252.8528 -100.6899 0.0028 1057.6442
253.6194 -100.0505 0.0027 1058.6426
254.3859 -99.4109 0.0027 1059.6407
255.1522 -98.7712 0.0027 1060.6390
255.9183 -98.1314 0.0027 1061.6371
256.6842 -97.4915 0.0027 1062.6351
257.4499 -96.8515 0.0026 1063.6332
258.2154 -96.2113 0.0026 1064.6310
258.9806 -95.5710 0.0026 1065.6288
259.7455 -94.9305 0.0026 1066.6265
260.5103 -94.2899 0.0026 1067.6240
261.2747 -93.6491 0.0026 1068.6216
262.0389 -93.0081 0.0026 1069.6189
262.8028 -92.3670 0.0026 1070.6162
263.5663 -91.7256 0.0026 1071.6134
264.3296 -91.0840 0.0025 1072.6106
265.0926 -90.4422 0.0025 1073.6075
265.8553 -89.8002 0.0025 1074.6045
266.6176 -89.1580 0.0025 1075.6013
267.3795 -88.5155 0.0025 1076.5980
268.1412 -87.8727 0.0025 1077.5946
268.9025 -87.2297 0.0025 1078.5911
269.6634 -86.5864 0.0025 1079.5875
270.4239 -85.9428 0.0024 1080.5837
271.1841 -85.2989 0.0024 1081.5800
271.9438 -84.6547 0.0024 1082.5762
272.7032 -84.0102 0.0024 1083.5721
273.4622 -83.3654 0.0024 1084.5680
274.2207 -82.7203 0.0023 1085.5638
274.9789 -82.0748 0.0023 1086.5596
275.7366 -81.4289 0.0023 1087.5552
276.4939 -80.7828 0.0022 1088.5507
277.2507 -80.1362 0.0022 1089.5460
278.0071 -79.4893 0.0022 1090.5414
278.7631 -78.8421 0.0021 1091.5366
279.5186 -78.1944 0.0021 1092.5316
280.2737 -77.5464 0.0020 1093.5267
281.0283 -76.8980 0.0020 1094.5216
281.7823 -76.2491 0.0019 1095.5164
282.5360 -75.5999 0.0019 1096.5111
283.2891 -74.9503 0.0019 1097.5057
284.0417 -74.3002 0.0018 1098.5002
284.7939 -73.6497 0.0018 1099.4946
285.5455 -72.9989 0.0017 1100.4889
286.2966 -72.3475 0.0017 1101.4830
287.0472 -71.6958 0.0016 1102.4772
287.7972 -71.0436 0.0016 1103.4711
288.5467 -70.3909 0.0015 1104.4650
289.2957 -69.7378 0.0015 1105.4586
290.0441 -69.0842 0.0015 1106.4523
290.7919 -68.4301 0.0014 1107.4457
291.5391 -67.7756 0.0014 1108.4391
292.2857 -67.1206 0.0013 1109.4323
293.0317 -66.4651 0.0013 1110.4254
293.7771 -65.8090 0.0013 1111.4183
294.5219 -65.1525 0.0012 1112.4113
295.2660 -64.4954 0.0012 1113.4039
296.0095 -63.8379 0.0012 1114.3965
296.7523 -63.1797 0.0011 1115.3888
297.4944 -62.5210 0.0011 1116.3811
298.2358 -61.8618 0.0011 1117.3733
298.9764 -61.2019 0.0011 1118.3652
299.7164 -60.5415 0.0010 1119.3571
300.4556 -59.8805 0.0010 1120.3486
301.1941 -59.2189 0.0010 1121.3401
301.9317 -58.5566 0.0010 1122.3315
302.6686 -57.8937 0.0009 1123.3226
303.4046 -57.2302 0.0009 1124.3136
304.1399 -56.5659 0.0009 1125.3044
304.8742 -55.9010 0.0009 1126.2952
305.6078 -55.2354 0.0009 1127.2856
306.3404 -54.5691 0.0009 1128.2759
307.0721 -53.9020 0.0008 1129.2661
307.8029 -53.2342 0.0008 1130.2560
308.5327 -52.5657 0.0008 1131.2458
309.2616 -51.8964 0.0008 1132.2354
309.9895 -51.2262 0.0008 1133.2249
310.7164 -50.5553 0.0008 1134.2140
311.4423 -49.8835 0.0008 1135.2031
312.1671 -49.2108 0.0008 1136.1919
312.8909 -48.5373 0.0008 1137.1805
313.6136 -47.8630 0.0008 1138.1691
314.3352 -47.1877 0.0008 1139.1573
315.0556 -46.5115 0.0008 1140.1454
315.7749 -45.8343 0.0008 1141.1333
316.4930 -45.1562 0.0008 1142.1210
317.2100 -44.4772 0.0008 1143.1085
317.9257 -43.7971 0.0008 1144.0958
318.6403 -43.1160 0.0008 1145.0829
319.3535 -42.4339 0.0008 1146.0698
320.0654 -41.7507 0.0008 1147.0565
320.7761 -41.0665 0.0008 1148.0431
321.4854 -40.3811 0.0008 1149.0293
322.1934 -39.6947 0.0009 1150.0155
322.9001 -39.0072 0.0009 1151.0015
323.6053 -38.3185 0.0009 1151.9872
324.3091 -37.6286 0.0009 1152.9727
325.0115 -36.9375 0.0010 1153.9580
325.7124 -36.2453 0.0010 1154.9431
326.4119 -35.5518 0.0010 1155.9281
327.1098 -34.8571 0.0010 1156.9128
327.8062 -34.1611 0.0011 1157.8975
328.5011 -33.4639 0.0011 1158.8818
329.1944 -32.7653 0.0011 1159.8661
329.8862 -32.0655 0.0011 1160.8501
330.5763 -31.3643 0.0012 1161.8339
331.2648 -30.6618 0.0012 1162.8175
331.9517 -29.9579 0.0012 1163.8010
332.6368 -29.2527 0.0012 1164.7843
333.3203 -28.5460 0.0013 1165.7673
334.0021 -27.8380 0.0013 1166.7502
334.6821 -27.1285 0.0013 1167.7330
335.3604 -26.4177 0.0013 1168.7156
336.0370 -25.7053 0.0014 1169.6980
336.7117 -24.9915 0.0014 1170.6803
337.3846 -24.2762 0.0014 1171.6624
338.0557 -23.5595 0.0014 1172.6442
338.7250 -22.8412 0.0014 1173.6260
339.3924 -22.1215 0.0014 1174.6075
340.0580 -21.4002 0.0014 1175.5890
340.7216 -20.6774 0.0014 1176.5702
341.3833 -19.9531 0.0014 1177.5513
342.0431 -19.2272 0.0015 1178.5322
342.7010 -18.4997 0.0014 1179.5131
343.3568 -17.7707 0.0015 1180.4937
344.0107 -17.0401 0.0015 1181.4741
344.6627 -16.3079 0.0015 1182.4545
345.3126 -15.5742 0.0015 1183.4347
345.9604 -14.8388 0.0015 1184.4147
346.6062 -14.1018 0.0015 1185.3947
347.2499 -13.3633 0.0015 1186.3744
347.8916 -12.6231 0.0015 1187.3539
348.5312 -11.8813 0.0015 1188.3334
349.1686 -11.1379 0.0015 1189.3126
349.8039 -10.3928 0.0015 1190.2917
350.4370 -9.6461 0.0015 1191.2708
351.0679 -8.8977 0.0015 1192.2496
351.6967 -8.1477 0.0016 1193.2284
352.3232 -7.3960 0.0016 1194.2069
352.9475 -6.6427 0.0016 1195.1853
353.5696 -5.8878 0.0016 1196.1635
354.1893 -5.1311 0.0017 1197.1416
354.8068 -4.3727 0.0017 1198.1195
355.4219 -3.6127 0.0017 1199.0973
356.0347 -2.8509 0.0018 1200.0750
356.6452 -2.0875 0.0018 1201.0524
357.2532 -1.3224 0.0019 1202.0297
357.8589 -0.5556 0.0019 1203.0068
358.4620 0.2130 0.0019 1203.9839
359.0628 0.9832 0.0020 1204.9607
359.6610 1.7552 0.0020 1205.9374
360.2568 2.5289 0.0021 1206.9138
360.8501 3.3043 0.0022 1207.8901
361.4407 4.0815 0.0022 1208.8663
362.0288 4.8605 0.0022 1209.8424
362.6143 5.6412 0.0023 1210.8182
363.1971 6.4237 0.0024 1211.7938
363.7773 7.2079 0.0024 1212.7694
364.3549 7.9938 0.0025 1213.7448
364.9297 8.7816 0.0026 1214.7200
365.5017 9.5712 0.0026 1215.6949
366.0710 10.3625 0.0026 1216.6698
366.6375 11.1556 0.0027 1217.6444
367.2012 11.9506 0.0028 1218.6189
367.7621 12.7473 0.0028 1219.5933
368.3201 13.5458 0.0029 1220.5675
368.8752 14.3461 0.0029 1221.5415
369.4274 15.1483 0.0030 1222.5153
369.9766 15.9522 0.0030 1223.4890
370.5229 16.7580 0.0031 1224.4625
371.0662 17.5656 0.0032 1225.4358
371.6066 18.3750 0.0032 1226.4091
372.1438 19.1863 0.0033 1227.3821
372.6779 19.9994 0.0033 1228.3549
373.2090 20.8143 0.0034 1229.3276
373.7370 21.6311 0.0034 1230.3002
374.2619 22.4497 0.0035 1231.2726
374.7836 23.2701 0.0035 1232.2448
375.3021 24.0923 0.0036 1233.2169
375.8174 24.9164 0.0036 1234.1888
376.3295 25.7424 0.0037 1235.1606
376.8383 26.5701 0.0037 1236.1323
377.3439 27.3997 0.0037 1237.1039
377.8463 28.2311 0.0038 1238.0752
378.3452 29.0644 0.0038 1239.0464
378.8409 29.8995 0.0039 1240.0176
379.3332 30.7364 0.0039 1240.9885
379.8221 31.5751 0.0039 1241.9594
380.3076 32.4156 0.0040 1242.9301
380.7898 33.2580 0.0040 1243.9006
381.2686 34.1021 0.0041 1244.8711
381.7438 34.9481 0.0041 1245.8414
382.2157 35.7958 0.0041 1246.8116
382.6841 36.6454 0.0041 1247.7817
383.1489 37.4967 0.0041 1248.7517
383.6103 38.3498 0.0042 1249.7216
384.0682 39.2047 0.0042 1250.6913
384.5225 40.0613 0.0042 1251.6610
384.9732 40.9197 0.0042 1252.6305
385.4204 41.7798 0.0042 1253.6000
385.8640 42.6417 0.0042 1254.5693
386.3041 43.5053 0.0042 1255.5386
386.7406 44.3706 0.0042 1256.5077
387.1734 45.2376 0.0042 1257.4768
387.6026 46.1063 0.0042 1258.4457
388.0282 46.9767 0.0042 1259.4146
388.4500 47.8488 0.0042 1260.3833
388.8683 48.7226 0.0042 1261.3521
389.2829 49.5980 0.0042 1262.3207
389.6938 50.4750 0.0041 1263.2892
390.1011 51.3536 0.0041 1264.2576
390.5046 52.2339 0.0041 1265.2260
390.9044 53.1158 0.0041 1266.1943
391.3005 53.9993 0.0040 1267.1625
391.6929 54.8844 0.0040 1268.1306
392.0815 55.7710 0.0040 1269.0986
392.4664 56.6591 0.0039 1270.0667
392.8476 57.5488 0.0039 1271.0345
393.2249 58.4401 0.0039 1272.0024
393.5985 59.3329 0.0038 1272.9702
393.9683 60.2271 0.0038 1273.9379
394.3344 61.1229 0.0038 1274.9055
394.6967 62.0201 0.0037 1275.8732
395.0551 62.9187 0.0037 1276.8407
395.4098 63.8189 0.0037 1277.8081
395.7605 64.7204 0.0036 1278.7755
396.1075 65.6234 0.0036 1279.7429
396.4506 66.5278 0.0035 1280.7102
396.7899 67.4335 0.0035 1281.6774
397.1254 68.3407 0.0035 1282.6445
397.4570 69.2492 0.0034 1283.6117
397.7846 70.1590 0.0034 1284.5787
398.1084 71.0702 0.0033 1285.5458
398.4283 71.9827 0.0033 1286.5127
398.7443 72.8966 0.0033 1287.4796
399.0565 73.8116 0.0033 1288.4465
399.3647 74.7280 0.0032 1289.4133
399.6689 75.6457 0.0032 1290.3801
399.9692 76.5646 0.0031 1291.3468
400.2656 77.4847 0.0031 1292.3135
400.5580 78.4060 0.0031 1293.2802
400.8464 79.3286 0.0030 1294.2467
401.1310 80.2523 0.0030 1295.2133
401.4114 81.1772 0.0030 1296.1797
401.6878 82.1032 0.0029 1297.1461
401.9602 83.0304 0.0029 1298.1125
402.2287 83.9588 0.0029 1299.0789
402.4931 84.8882 0.0029 1300.0452
402.7535 85.8187 0.0029 1301.0115
403.0098 86.7503 0.0028 1301.9777
403.2620 87.6830 0.0028 1302.9438
403.5102 88.6167 0.0028 1303.9100
403.7542 89.5514 0.0027 1304.8761
403.9942 90.4872 0.0027 1305.8422
404.2302 91.4240 0.0027 1306.8081
404.4620 92.3617 0.0027 1307.7742
404.6896 93.3004 0.0027 1308.7400
404.9131 94.2401 0.0027 1309.7059
405.1324 95.1807 0.0026 1310.6718
405.3476 96.1222 0.0026 1311.6376
405.5587 97.0647 0.0026 1312.6034
405.7657 98.0080 0.0026 1313.5691
405.9683 98.9522 0.0026 1314.5348
406.1668 99.8972 0.0025 1315.5005
406.3611 100.8431 0.0025 1316.4661
406.5511 101.7898 0.0025 1317.4318
406.7371 102.7374 0.0025 1318.3973
406.9188 103.6857 0.0025 1319.3629
407.0962 104.6348 0.0024 1320.3284
407.2694 105.5846 0.0024 1321.2939
407.4384 106.5352 0.0024 1322.2594
407.6031 107.4865 0.0024 1323.2249
407.7635 108.4386 0.0023 1324.1904
407.9198 109.3913 0.0023 1325.1559
408.0718 110.3447 0.0023 1326.1213
408.2195 111.2988 0.0023 1327.0867
408.3630 112.2535 0.0023 1328.0521
408.5021 113.2089 0.0022 1329.0176
408.6371 114.1648 0.0022 1329.9830
408.7678 115.1214 0.0022 1330.9485
408.8942 116.0785 0.0021 1331.9139
409.0163 117.0362 0.0021 1332.8794
409.1342 117.9945 0.0021 1333.8448
409.2478 118.9533 0.0020 1334.8103
409.3571 119.9126 0.0020 1335.7759
409.4622 120.8724 0.0019 1336.7415
409.5630 121.8326 0.0019 1337.7069
409.6596 122.7934 0.0018 1338.6725
409.7520 123.7545 0.0018 1339.6382
409.8401 124.7161 0.0017 1340.6038
409.9238 125.6782 0.0017 1341.5695
410.0034 126.6406 0.0016 1342.5352
410.0788 127.6033 0.0016 1343.5009
410.1499 128.5665 0.0015 1344.4667
410.2169 129.5300 0.0014 1345.4324
410.2796 130.4938 0.0014 1346.3983
410.3380 131.4579 0.0013 1347.3641
410.3922 132.4223 0.0012 1348.3301
410.4423 133.3869 0.0011 1349.2960
410.4882 134.3519 0.0010 1350.2621
410.5298 135.3170 0.0009 1351.2280
410.5674 136.2823 0.0008 1352.1941
