VERSION 0.7
FIELDS x y z lapdistance
SIZE 4 4 4 4
TYPE F F F F
COUNT 1 1 1 1
WIDTH 1362
HEIGHT 1
VIEWPOINT 0.000 0.000 0.000 1.000 0.000 0.000 0.000
POINTS 1362
DATA ascii
-388.6210 -288.7225 5.8844 310.9940
-388.0730 -289.5970 5.8866 312.0260
-387.5214 -290.4691 5.8888 313.0580
-386.9659 -291.3389 5.8908 314.0899
-386.4069 -292.2063 5.8929 315.1219
-385.8443 -293.0714 5.8949 316.1538
-385.2780 -293.9341 5.8969 317.1858
-384.7081 -294.7944 5.8989 318.2177
-384.1346 -295.6523 5.9008 319.2497
-383.5575 -296.5078 5.9027 320.2816
-382.9769 -297.3609 5.9045 321.3135
-382.3926 -298.2115 5.9063 322.3455
-381.8047 -299.0596 5.9081 323.3774
-381.2133 -299.9052 5.9098 324.4094
-380.6184 -300.7484 5.9114 325.4413
-380.0199 -301.5891 5.9131 326.4732
-379.4180 -302.4273 5.9147 327.5052
-378.8125 -303.2629 5.9163 328.5371
-378.2035 -304.0960 5.9178 329.5691
-377.5910 -304.9265 5.9192 330.6010
-376.9750 -305.7544 5.9207 331.6330
-376.3555 -306.5797 5.9220 332.6649
-375.7325 -307.4025 5.9234 333.6969
-375.1062 -308.2226 5.9247 334.7289
-374.4763 -309.0401 5.9260 335.7608
-373.8431 -309.8550 5.9273 336.7928
-373.2065 -310.6672 5.9285 337.8248
-372.5663 -311.4766 5.9296 338.8568
-371.9227 -312.2833 5.9308 339.8888
-371.2758 -313.0874 5.9318 340.9208
-370.6254 -313.8887 5.9329 341.9528
-369.9718 -314.6873 5.9339 342.9848
-369.3148 -315.4832 5.9349 344.0168
-368.6544 -316.2762 5.9359 345.0489
-367.9907 -317.0665 5.9368 346.0809
-367.3236 -317.8540 5.9377 347.1129
-366.6531 -318.6386 5.9386 348.1450
-365.9795 -319.4204 5.9394 349.1770
-365.3025 -320.1994 5.9402 350.2091
-364.6222 -320.9756 5.9410 351.2411
-363.9387 -321.7488 5.9418 352.2732
-363.2519 -322.5192 5.9426 353.3053
-362.5618 -323.2866 5.9432 354.3373
-361.8684 -324.0511 5.9439 355.3694
-361.1718 -324.8127 5.9446 356.4015
-360.4720 -325.5713 5.9452 357.4336
-359.7690 -326.3269 5.9458 358.4657
-359.0629 -327.0797 5.9464 359.4978
-358.3535 -327.8293 5.9469 360.5299
-357.6410 -328.5760 5.9475 361.5620
-356.9252 -329.3197 5.9480 362.5941
-356.2063 -330.0602 5.9485 363.6263
-355.4842 -330.7977 5.9489 364.6584
-354.7590 -331.5322 5.9494 365.6906
-354.0307 -332.2636 5.9498 366.7227
-353.2993 -332.9919 5.9502 367.7549
-352.5648 -333.7171 5.9506 368.7871
-351.8272 -334.4391 5.9509 369.8193
-351.0865 -335.1580 5.9513 370.8515
-350.3427 -335.8737 5.9516 371.8837
-349.5958 -336.5862 5.9518 372.9159
-348.8460 -337.2957 5.9521 373.9482
-348.0931 -338.0018 5.9524 374.9804
-347.3372 -338.7048 5.9526 376.0127
-346.5783 -339.4046 5.9528 377.0450
-345.8163 -340.1011 5.9530 378.0773
-345.0513 -340.7942 5.9531 379.1096
-344.2834 -341.4842 5.9533 380.1419
-343.5125 -342.1708 5.9534 381.1743
-342.7387 -342.8541 5.9534 382.2066
-341.9619 -343.5342 5.9535 383.2390
-341.1823 -344.2110 5.9536 384.2715
-340.3997 -344.8843 5.9536 385.3039
-339.6142 -345.5544 5.9536 386.3363
-338.8257 -346.2210 5.9536 387.3688
-338.0345 -346.8842 5.9535 388.4013
-337.2403 -347.5441 5.9534 389.4338
-336.4434 -348.2005 5.9533 390.4663
-335.6435 -348.8535 5.9532 391.4988
-334.8409 -349.5032 5.9531 392.5314
-334.0355 -350.1493 5.9530 393.5640
-333.2272 -350.7919 5.9527 394.5966
-332.4162 -351.4311 5.9525 395.6292
-331.6024 -352.0667 5.9523 396.6618
-330.7858 -352.6989 5.9520 397.6945
-329.9666 -353.3275 5.9517 398.7271
-329.1446 -353.9527 5.9515 399.7599
-328.3199 -354.5742 5.9511 400.7925
-327.4925 -355.1922 5.9508 401.8253
-326.6624 -355.8066 5.9504 402.8580
-325.8296 -356.4173 5.9500 403.8907
-324.9942 -357.0245 5.9496 404.9235
-324.1562 -357.6281 5.9492 405.9562
-323.3156 -358.2280 5.9487 406.9890
-322.4724 -358.8244 5.9483 408.0217
-321.6266 -359.4170 5.9478 409.0545
-320.7782 -360.0060 5.9472 410.0872
-319.9273 -360.5912 5.9467 411.1200
-319.0738 -361.1728 5.9461 412.1528
-318.2178 -361.7506 5.9455 413.1855
-317.3594 -362.3248 5.9449 414.2183
-316.4985 -362.8953 5.9443 415.2511
-315.6351 -363.4619 5.9437 416.2838
-314.7693 -364.0249 5.9431 417.3165
-313.9011 -364.5841 5.9424 418.3493
-313.0304 -365.1394 5.9416 419.3820
-312.1573 -365.6910 5.9409 420.4147
-311.2819 -366.2388 5.9402 421.4474
-310.4041 -366.7828 5.9395 422.4801
-309.5240 -367.3230 5.9387 423.5127
-308.6416 -367.8594 5.9380 424.5454
-307.7569 -368.3920 5.9372 425.5780
-306.8699 -368.9207 5.9364 426.6107
-305.9806 -369.4455 5.9355 427.6432
-305.0891 -369.9665 5.9347 428.6759
-304.1954 -370.4837 5.9339 429.7084
-303.2994 -370.9970 5.9330 430.7410
-302.4013 -371.5065 5.9322 431.7736
-301.5010 -372.0121 5.9314 432.8062
-300.5985 -372.5137 5.9305 433.8387
-299.6938 -373.0114 5.9296 434.8712
-298.7871 -373.5052 5.9286 435.9037
-297.8782 -373.9951 5.9277 436.9362
-296.9672 -374.4811 5.9268 437.9687
-296.0542 -374.9633 5.9259 439.0012
-295.1391 -375.4414 5.9250 440.0337
-294.2219 -375.9156 5.9240 441.0663
-293.3028 -376.3859 5.9231 442.0987
-292.3815 -376.8522 5.9221 443.1312
-291.4583 -377.3145 5.9211 444.1637
-290.5331 -377.7728 5.9201 445.1962
-289.6060 -378.2271 5.9192 446.2287
-288.6769 -378.6776 5.9182 447.2612
-287.7459 -379.1240 5.9172 448.2937
-286.8129 -379.5663 5.9162 449.3262
-285.8781 -380.0046 5.9152 450.3588
-284.9413 -380.4389 5.9142 451.3913
-284.0027 -380.8691 5.9132 452.4238
-283.0622 -381.2953 5.9122 453.4564
-282.1199 -381.7176 5.9112 454.4890
-281.1757 -382.1357 5.9102 455.5216
-280.2298 -382.5498 5.9092 456.5541
-279.2821 -382.9598 5.9082 457.5868
-278.3326 -383.3656 5.9071 458.6194
-277.3813 -383.7673 5.9061 459.6520
-276.4283 -384.1649 5.9050 460.6846
-275.4735 -384.5584 5.9040 461.7173
-274.5171 -384.9478 5.9030 462.7499
-273.5590 -385.3331 5.9020 463.7826
-272.5992 -385.7142 5.9009 464.8153
-271.6378 -386.0912 5.8999 465.8480
-270.6747 -386.4640 5.8988 466.8807
-269.7100 -386.8326 5.8978 467.9134
-268.7437 -387.1970 5.8967 468.9461
-267.7759 -387.5572 5.8957 469.9788
-266.8065 -387.9133 5.8947 471.0115
-265.8356 -388.2652 5.8937 472.0443
-264.8631 -388.6129 5.8927 473.0770
-263.8892 -388.9562 5.8916 474.1097
-262.9137 -389.2953 5.8905 475.1424
-261.9368 -389.6302 5.8895 476.1751
-260.9584 -389.9608 5.8884 477.2079
-259.9787 -390.2872 5.8874 478.2406
-258.9975 -390.6095 5.8863 479.2733
-258.0150 -390.9273 5.8853 480.3060
-257.0311 -391.2410 5.8843 481.3387
-256.0458 -391.5504 5.8832 482.3713
-255.0592 -391.8554 5.8821 483.4040
-254.0714 -392.1562 5.8811 484.4367
-253.0822 -392.4527 5.8800 485.4693
-252.0918 -392.7449 5.8790 486.5019
-251.1001 -393.0328 5.8779 487.5345
-250.1073 -393.3165 5.8769 488.5672
-249.1132 -393.5958 5.8758 489.5997
-248.1179 -393.8708 5.8747 490.6323
-247.1214 -394.1414 5.8736 491.6649
-246.1238 -394.4077 5.8725 492.6974
-245.1251 -394.6698 5.8715 493.7299
-244.1253 -394.9276 5.8704 494.7624
-243.1244 -395.1810 5.8693 495.7949
-242.1225 -395.4301 5.8682 496.8274
-241.1194 -395.6750 5.8671 497.8598
-240.1154 -395.9153 5.8660 498.8923
-239.1103 -396.1514 5.8649 499.9247
-238.1042 -396.3831 5.8638 500.9571
-237.0972 -396.6105 5.8626 501.9895
-236.0892 -396.8337 5.8615 503.0219
-235.0803 -397.0525 5.8604 504.0543
-234.0704 -397.2669 5.8593 505.0866
-233.0596 -397.4770 5.8582 506.1190
-232.0480 -397.6827 5.8570 507.1514
-231.0355 -397.8840 5.8559 508.1837
-230.0221 -398.0811 5.8547 509.2161
-229.0079 -398.2738 5.8536 510.2484
-227.9929 -398.4622 5.8525 511.2807
-226.9771 -398.6462 5.8514 512.3130
-225.9606 -398.8259 5.8502 513.3454
-224.9432 -399.0011 5.8491 514.3777
-223.9252 -399.1720 5.8479 515.4100
-222.9063 -399.3385 5.8467 516.4424
-221.8868 -399.5007 5.8456 517.4747
-220.8667 -399.6585 5.8444 518.5070
-219.8458 -399.8121 5.8433 519.5394
-218.8243 -399.9612 5.8421 520.5717
-217.8021 -400.1059 5.8410 521.6041
-216.7794 -400.2463 5.8398 522.6364
-215.7560 -400.3822 5.8387 523.6688
-214.7321 -400.5138 5.8375 524.7011
-213.7076 -400.6410 5.8364 525.7335
-212.6825 -400.7639 5.8352 526.7659
-211.6570 -400.8824 5.8341 527.7983
-210.6309 -400.9965 5.8330 528.8306
-209.6043 -401.1061 5.8318 529.8630
-208.5773 -401.2114 5.8307 530.8954
-207.5498 -401.3122 5.8295 531.9279
-206.5219 -401.4087 5.8284 532.9603
-205.4935 -401.5008 5.8273 533.9928
-204.4648 -401.5885 5.8261 535.0253
-203.4357 -401.6718 5.8250 536.0577
-202.4062 -401.7507 5.8239 537.0902
-201.3764 -401.8251 5.8228 538.1227
-200.3463 -401.8951 5.8216 539.1553
-199.3158 -401.9607 5.8205 540.1878
-198.2851 -402.0219 5.8193 541.2203
-197.2541 -402.0786 5.8182 542.2529
-196.2229 -402.1310 5.8171 543.2855
-195.1914 -402.1790 5.8160 544.3181
-194.1597 -402.2224 5.8149 545.3506
-193.1279 -402.2615 5.8137 546.3832
-192.0958 -402.2961 5.8126 547.4158
-191.0636 -402.3262 5.8115 548.4485
-190.0313 -402.3520 5.8104 549.4811
-188.9989 -402.3733 5.8093 550.5138
-187.9663 -402.3902 5.8082 551.5464
-186.9337 -402.4027 5.8071 552.5792
-185.9011 -402.4106 5.8060 553.6118
-184.8684 -402.4141 5.8048 554.6445
-183.8357 -402.4131 5.8037 555.6772
-182.8030 -402.4077 5.8026 556.7100
-181.7703 -402.3978 5.8015 557.7427
-180.7377 -402.3835 5.8004 558.7754
-179.7051 -402.3648 5.7993 559.8082
-178.6726 -402.3416 5.7982 560.8409
-177.6402 -402.3140 5.7971 561.8737
-176.6079 -402.2818 5.7960 562.9064
-175.5758 -402.2452 5.7949 563.9392
-174.5439 -402.2041 5.7938 564.9720
-173.5121 -402.1587 5.7927 566.0048
-172.4805 -402.1087 5.7916 567.0375
-171.4492 -402.0544 5.7905 568.0703
-170.4180 -401.9955 5.7894 569.1031
-169.3872 -401.9320 5.7883 570.1359
-168.3566 -401.8642 5.7872 571.1688
-167.3264 -401.7919 5.7861 572.2015
-166.2964 -401.7151 5.7850 573.2343
-165.2668 -401.6340 5.7839 574.2671
-164.2376 -401.5484 5.7828 575.2999
-163.2088 -401.4583 5.7817 576.3327
-162.1803 -401.3637 5.7806 577.3655
-161.1523 -401.2647 5.7795 578.3983
-160.1247 -401.1611 5.7783 579.4310
-159.0976 -401.0532 5.7772 580.4638
-158.0710 -400.9408 5.7761 581.4966
-157.0448 -400.8240 5.7750 582.5293
-156.0192 -400.7028 5.7738 583.5621
-154.9942 -400.5771 5.7727 584.5948
-153.9697 -400.4470 5.7716 585.6276
-152.9458 -400.3124 5.7704 586.6603
-151.9225 -400.1734 5.7693 587.6929
-150.8998 -400.0300 5.7681 588.7256
-149.8777 -399.8822 5.7669 589.7583
-148.8564 -399.7301 5.7658 590.7910
-147.8357 -399.5735 5.7646 591.8236
-146.8157 -399.4126 5.7635 592.8562
-145.7964 -399.2472 5.7622 593.8888
-144.7779 -399.0773 5.7610 594.9214
-143.7602 -398.9032 5.7598 595.9539
-142.7432 -398.7246 5.7586 596.9865
-141.7270 -398.5418 5.7573 598.0189
-140.7117 -398.3547 5.7561 599.0514
-139.6972 -398.1631 5.7549 600.0838
-138.6835 -397.9673 5.7537 601.1162
-137.6708 -397.7672 5.7524 602.1486
-136.6589 -397.5627 5.7511 603.1808
-135.6480 -397.3539 5.7498 604.2131
-134.6380 -397.1410 5.7486 605.2454
-133.6289 -396.9237 5.7473 606.2775
-132.6208 -396.7022 5.7460 607.3096
-131.6138 -396.4765 5.7447 608.3417
-130.6077 -396.2465 5.7434 609.3737
-129.6027 -396.0122 5.7421 610.4057
-128.5987 -395.7738 5.7408 611.4376
-127.5958 -395.5311 5.7394 612.4694
-126.5940 -395.2843 5.7381 613.5012
-125.5932 -395.0334 5.7368 614.5330
-124.5936 -394.7784 5.7354 615.5646
-123.5952 -394.5192 5.7341 616.5961
-122.5978 -394.2559 5.7327 617.6277
-121.6017 -393.9884 5.7314 618.6591
-120.6067 -393.7168 5.7300 619.6904
-119.6130 -393.4412 5.7286 620.7217
-118.6205 -393.1615 5.7272 621.7529
-117.6292 -392.8778 5.7258 622.7840
-116.6391 -392.5901 5.7245 623.8150
-115.6503 -392.2983 5.7231 624.8459
-114.6628 -392.0026 5.7217 625.8768
-113.6766 -391.7028 5.7203 626.9075
-112.6918 -391.3991 5.7189 627.9382
-111.7082 -391.0914 5.7175 628.9687
-110.7260 -390.7799 5.7161 629.9991
-109.7451 -390.4644 5.7147 631.0295
-108.7656 -390.1450 5.7133 632.0598
-107.7875 -389.8218 5.7119 633.0899
-106.8108 -389.4945 5.7104 634.1200
-105.8355 -389.1635 5.7090 635.1499
-104.8616 -388.8286 5.7075 636.1797
-103.8892 -388.4899 5.7061 637.2095
-102.9182 -388.1474 5.7046 638.2391
-101.9487 -387.8012 5.7032 639.2686
-100.9806 -387.4512 5.7018 640.2980
-100.0140 -387.0974 5.7003 641.3273
-99.0489 -386.7400 5.6989 642.3565
-98.0853 -386.3787 5.6974 643.3856
-97.1233 -386.0139 5.6959 644.4145
-96.1627 -385.6453 5.6945 645.4434
-95.2037 -385.2731 5.6930 646.4720
-94.2462 -384.8974 5.6916 647.5007
-93.2902 -384.5180 5.6901 648.5291
-92.3359 -384.1349 5.6886 649.5575
-91.3831 -383.7484 5.6871 650.5857
-90.4319 -383.3582 5.6857 651.6138
-89.4823 -382.9646 5.6842 652.6418
-88.5342 -382.5674 5.6827 653.6697
-87.5878 -382.1669 5.6812 654.6974
-86.6429 -381.7628 5.6797 655.7250
-85.6997 -381.3554 5.6783 656.7524
-84.7581 -380.9445 5.6768 657.7798
-83.8182 -380.5302 5.6753 658.8069
-82.8799 -380.1125 5.6738 659.8340
-81.9433 -379.6915 5.6723 660.8610
-81.0082 -379.2673 5.6708 661.8877
-80.0749 -378.8398 5.6693 662.9144
-79.1431 -378.4090 5.6678 663.9409
-78.2131 -377.9749 5.6663 664.9672
-77.2848 -377.5376 5.6648 665.9933
-76.3581 -377.0972 5.6633 667.0193
-75.4331 -376.6536 5.6618 668.0452
-74.5098 -376.2069 5.6603 669.0709
-73.5881 -375.7571 5.6588 670.0965
-72.6681 -375.3042 5.6573 671.1219
-71.7498 -374.8484 5.6558 672.1471
-70.8333 -374.3894 5.6543 673.1722
-69.9184 -373.9275 5.6528 674.1970
-69.0053 -373.4626 5.6513 675.2217
-68.0938 -372.9947 5.6498 676.2463
-67.1840 -372.5240 5.6482 677.2706
-66.2759 -372.0505 5.6468 678.2947
-65.3695 -371.5741 5.6453 679.3187
-64.4649 -371.0948 5.6438 680.3425
-63.5618 -370.6128 5.6423 681.3661
-62.6606 -370.1281 5.6408 682.3895
-61.7610 -369.6405 5.6393 683.4127
-60.8630 -369.1504 5.6378 684.4357
-59.9668 -368.6575 5.6363 685.4585
-59.0722 -368.1621 5.6348 686.4811
-58.1793 -367.6640 5.6334 687.5035
-57.2882 -367.1634 5.6319 688.5257
-56.3987 -366.6601 5.6304 689.5477
-55.5108 -366.1544 5.6289 690.5695
-54.6246 -365.6461 5.6274 691.5911
-53.7401 -365.1355 5.6259 692.6124
-52.8572 -364.6224 5.6244 693.6336
-51.9759 -364.1069 5.6230 694.6545
-51.0963 -363.5891 5.6215 695.6753
-50.2183 -363.0689 5.6200 696.6958
-49.3419 -362.5464 5.6185 697.7161
-48.4672 -362.0216 5.6170 698.7363
-47.5940 -361.4945 5.6155 699.7562
-46.7224 -360.9653 5.6140 700.7758
-45.8524 -360.4338 5.6125 701.7953
-44.9840 -359.9002 5.6110 702.8145
-44.1172 -359.3645 5.6095 703.8336
-43.2519 -358.8266 5.6080 704.8524
-42.3882 -358.2867 5.6065 705.8710
-41.5260 -357.7446 5.6050 706.8894
-40.6653 -357.2006 5.6035 707.9076
-39.8062 -356.6546 5.6020 708.9256
-38.9485 -356.1067 5.6004 709.9433
-38.0924 -355.5568 5.5989 710.9609
-37.2377 -355.0050 5.5974 711.9782
-36.3845 -354.4513 5.5958 712.9953
-35.5328 -353.8957 5.5943 714.0122
-34.6825 -353.3384 5.5927 715.0289
-33.8336 -352.7792 5.5912 716.0454
-32.9861 -352.2183 5.5896 717.0616
-32.1401 -351.6557 5.5881 718.0777
-31.2954 -351.0913 5.5865 719.0936
-30.4522 -350.5253 5.5849 720.1092
-29.6103 -349.9576 5.5834 721.1246
-28.7697 -349.3882 5.5818 722.1398
-27.9305 -348.8173 5.5802 723.1548
-27.0926 -348.2448 5.5786 724.1696
-26.2560 -347.6708 5.5770 725.1842
-25.4207 -347.0953 5.5754 726.1986
-24.5867 -346.5183 5.5738 727.2128
-23.7540 -345.9397 5.5722 728.2267
-22.9225 -345.3598 5.5706 729.2405
-22.0922 -344.7784 5.5690 730.2541
-21.2632 -344.1956 5.5674 731.2674
-20.4354 -343.6115 5.5657 732.2806
-19.6087 -343.0261 5.5641 733.2936
-18.7833 -342.4393 5.5625 734.3063
-17.9589 -341.8513 5.5608 735.3189
-17.1358 -341.2620 5.5592 736.3312
-16.3138 -340.6714 5.5576 737.3434
-15.4929 -340.0796 5.5559 738.3554
-14.6730 -339.4866 5.5543 739.3672
-13.8543 -338.8925 5.5526 740.3788
-13.0366 -338.2971 5.5510 741.3903
-12.2200 -337.7007 5.5493 742.4015
-11.4044 -337.1031 5.5476 743.4125
-10.5899 -336.5045 5.5460 744.4234
-9.7764 -335.9048 5.5443 745.4341
-8.9638 -335.3040 5.5426 746.4446
-8.1522 -334.7022 5.5410 747.4550
-7.3416 -334.0994 5.5393 748.4651
-6.5320 -333.4956 5.5376 749.4752
-5.7232 -332.8909 5.5360 750.4850
-4.9154 -332.2852 5.5343 751.4947
-4.1086 -331.6785 5.5326 752.5042
-3.3026 -331.0709 5.5309 753.5135
-2.4975 -330.4625 5.5293 754.5227
-1.6932 -329.8531 5.5276 755.5317
-0.8898 -329.2429 5.5259 756.5406
-0.0873 -328.6319 5.5242 757.5493
0.7145 -328.0200 5.5226 758.5578
1.5154 -327.4073 5.5209 759.5662
2.3155 -326.7938 5.5192 760.5745
3.1148 -326.1795 5.5175 761.5825
3.9133 -325.5645 5.5159 762.5905
4.7111 -324.9487 5.5142 763.5983
5.5081 -324.3322 5.5125 764.6059
6.3044 -323.7149 5.5109 765.6134
7.0999 -323.0970 5.5092 766.6207
7.8947 -322.4783 5.5075 767.6279
8.6888 -321.8590 5.5058 768.6350
9.4823 -321.2390 5.5042 769.6419
10.2750 -320.6184 5.5025 770.6487
11.0671 -319.9972 5.5009 771.6553
11.8585 -319.3754 5.4992 772.6618
12.6492 -318.7529 5.4975 773.6682
13.4394 -318.1299 5.4959 774.6744
14.2289 -317.5062 5.4942 775.6805
15.0178 -316.8821 5.4926 776.6864
15.8061 -316.2574 5.4909 777.6923
16.5938 -315.6321 5.4893 778.6979
17.3809 -315.0063 5.4876 779.7036
18.1675 -314.3800 5.4860 780.7090
18.9535 -313.7532 5.4843 781.7143
19.7389 -313.1260 5.4827 782.7195
20.5239 -312.4982 5.4810 783.7246
21.3083 -311.8700 5.4794 784.7296
22.0922 -311.2414 5.4777 785.7344
22.8756 -310.6123 5.4761 786.7391
23.6586 -309.9828 5.4744 787.7438
24.4410 -309.3528 5.4728 788.7483
25.2230 -308.7225 5.4711 789.7527
26.0046 -308.0918 5.4695 790.7570
26.7857 -307.4607 5.4678 791.7612
27.5663 -306.8292 5.4662 792.7653
28.3466 -306.1973 5.4645 793.7693
29.1264 -305.5651 5.4629 794.7733
29.9059 -304.9325 5.4612 795.7771
30.6849 -304.2996 5.4596 796.7808
31.4636 -303.6664 5.4579 797.7845
32.2419 -303.0329 5.4562 798.7880
33.0198 -302.3990 5.4546 799.7915
33.7974 -301.7649 5.4529 800.7949
34.5746 -301.1304 5.4512 801.7982
35.3515 -300.4957 5.4495 802.8014
36.1281 -299.8607 5.4478 803.8045
36.9043 -299.2254 5.4462 804.8076
37.6803 -298.5899 5.4445 805.8105
38.4559 -297.9541 5.4428 806.8135
39.2312 -297.3181 5.4411 807.8163
40.0062 -296.6819 5.4393 808.8190
40.7810 -296.0454 5.4376 809.8217
41.5554 -295.4087 5.4359 810.8242
42.3296 -294.7719 5.4342 811.8267
43.1035 -294.1348 5.4325 812.8291
43.8772 -293.4975 5.4307 813.8315
44.6506 -292.8600 5.4290 814.8337
45.4238 -292.2224 5.4272 815.8359
46.1967 -291.5846 5.4255 816.8380
46.9694 -290.9466 5.4237 817.8400
47.7419 -290.3085 5.4219 818.8420
48.5141 -289.6702 5.4202 819.8439
49.2861 -289.0318 5.4184 820.8457
50.0579 -288.3932 5.4166 821.8474
50.8296 -287.7546 5.4148 822.8491
51.6010 -287.1158 5.4130 823.8506
52.3722 -286.4769 5.4111 824.8521
53.1433 -285.8379 5.4093 825.8535
53.9141 -285.1988 5.4075 826.8549
54.6848 -284.5596 5.4056 827.8561
55.4553 -283.9203 5.4038 828.8573
56.2257 -283.2810 5.4019 829.8584
56.9959 -282.6416 5.4000 830.8595
57.7660 -282.0021 5.3981 831.8605
58.5359 -281.3625 5.3962 832.8614
59.3057 -280.7229 5.3943 833.8622
60.0754 -280.0832 5.3924 834.8630
60.8449 -279.4435 5.3904 835.8637
61.6143 -278.8037 5.3885 836.8644
62.3837 -278.1639 5.3865 837.8650
63.1529 -277.5241 5.3846 838.8655
63.9220 -276.8842 5.3826 839.8660
64.6911 -276.2444 5.3806 840.8665
65.4600 -275.6044 5.3786 841.8669
66.2289 -274.9645 5.3765 842.8672
66.9977 -274.3245 5.3745 843.8676
67.7665 -273.6845 5.3724 844.8679
68.5352 -273.0446 5.3704 845.8681
69.3038 -272.4046 5.3683 846.8683
70.0724 -271.7646 5.3662 847.8685
70.8410 -271.1246 5.3641 848.8686
71.6095 -270.4846 5.3620 849.8687
72.3780 -269.8446 5.3598 850.8688
73.1465 -269.2046 5.3577 851.8688
73.9149 -268.5646 5.3555 852.8689
74.6834 -267.9246 5.3533 853.8690
75.4518 -267.2847 5.3512 854.8690
76.2202 -266.6447 5.3490 855.8690
76.9886 -266.0048 5.3467 856.8690
77.7570 -265.3649 5.3445 857.8690
78.5254 -264.7249 5.3423 858.8689
79.2938 -264.0851 5.3400 859.8689
80.0623 -263.4452 5.3378 860.8688
80.8307 -262.8054 5.3355 861.8688
81.5991 -262.1656 5.3332 862.8687
82.3676 -261.5258 5.3309 863.8686
83.1361 -260.8860 5.3286 864.8685
83.9046 -260.2463 5.3263 865.8685
84.6731 -259.6066 5.3240 866.8683
85.4416 -258.9669 5.3217 867.8683
86.2101 -258.3273 5.3193 868.8682
86.9787 -257.6877 5.3170 869.8680
87.7473 -257.0482 5.3147 870.8679
88.5159 -256.4086 5.3123 871.8678
89.2845 -255.7691 5.3100 872.8677
90.0531 -255.1297 5.3076 873.8675
90.8218 -254.4903 5.3053 874.8673
91.5904 -253.8510 5.3029 875.8671
92.3591 -253.2116 5.3005 876.8669
93.1278 -252.5724 5.2981 877.8667
93.8965 -251.9331 5.2957 878.8665
94.6653 -251.2939 5.2934 879.8663
95.4340 -250.6548 5.2910 880.8660
96.2028 -250.0157 5.2886 881.8657
96.9715 -249.3767 5.2862 882.8654
97.7403 -248.7377 5.2838 883.8651
98.5091 -248.0987 5.2813 884.8647
99.2778 -247.4598 5.2789 885.8643
100.0466 -246.8209 5.2765 886.8640
100.8154 -246.1821 5.2741 887.8635
101.5843 -245.5433 5.2716 888.8630
102.3531 -244.9046 5.2692 889.8626
103.1219 -244.2659 5.2667 890.8621
103.8907 -243.6273 5.2643 891.8616
104.6595 -242.9887 5.2618 892.8610
105.4284 -242.3501 5.2594 893.8605
106.1972 -241.7116 5.2569 894.8599
106.9661 -241.0731 5.2544 895.8593
107.7349 -240.4347 5.2519 896.8586
108.5038 -239.7963 5.2495 897.8580
109.2727 -239.1580 5.2470 898.8573
110.0415 -238.5196 5.2445 899.8566
110.8104 -237.8813 5.2420 900.8560
111.5793 -237.2431 5.2395 901.8552
112.3482 -236.6049 5.2370 902.8545
113.1171 -235.9667 5.2344 903.8538
113.8861 -235.3285 5.2319 904.8530
114.6550 -234.6904 5.2294 905.8522
115.4240 -234.0523 5.2269 906.8515
116.1929 -233.4142 5.2243 907.8507
116.9619 -232.7762 5.2218 908.8500
117.7309 -232.1381 5.2193 909.8492
118.5000 -231.5001 5.2167 910.8484
119.2690 -230.8621 5.2142 911.8477
120.0381 -230.2242 5.2116 912.8469
120.8072 -229.5862 5.2091 913.8461
121.5763 -228.9483 5.2066 914.8454
122.3454 -228.3104 5.2040 915.8447
123.1146 -227.6725 5.2015 916.8439
123.8838 -227.0346 5.1989 917.8432
124.6530 -226.3967 5.1964 918.8425
125.4222 -225.7589 5.1938 919.8417
126.1915 -225.1210 5.1913 920.8411
126.9608 -224.4832 5.1888 921.8404
127.7301 -223.8454 5.1862 922.8397
128.4995 -223.2077 5.1837 923.8391
129.2688 -222.5699 5.1812 924.8384
130.0382 -221.9321 5.1787 925.8377
130.8077 -221.2944 5.1762 926.8371
131.5771 -220.6567 5.1737 927.8365
132.3466 -220.0190 5.1712 928.8359
133.1161 -219.3813 5.1688 929.8353
133.8857 -218.7436 5.1663 930.8347
134.6553 -218.1059 5.1639 931.8342
135.4249 -217.4683 5.1614 932.8336
136.1945 -216.8307 5.1590 933.8330
136.9641 -216.1931 5.1566 934.8325
137.7338 -215.5555 5.1542 935.8319
138.5035 -214.9179 5.1519 936.8314
139.2732 -214.2803 5.1495 937.8309
140.0429 -213.6428 5.1472 938.8303
140.8127 -213.0053 5.1449 939.8298
141.5824 -212.3678 5.1426 940.8293
142.3522 -211.7303 5.1403 941.8288
143.1220 -211.0928 5.1381 942.8282
143.8918 -210.4553 5.1358 943.8278
144.6616 -209.8178 5.1336 944.8272
145.4314 -209.1804 5.1314 945.8267
146.2013 -208.5430 5.1293 946.8262
146.9711 -207.9056 5.1272 947.8257
147.7409 -207.2682 5.1251 948.8251
148.5108 -206.6308 5.1230 949.8246
149.2806 -205.9934 5.1209 950.8240
150.0504 -205.3560 5.1189 951.8235
150.8203 -204.7187 5.1169 952.8229
151.5901 -204.0813 5.1149 953.8223
152.3599 -203.4440 5.1129 954.8218
153.1297 -202.8066 5.1110 955.8212
153.8995 -202.1693 5.1091 956.8206
154.6693 -201.5320 5.1072 957.8199
155.4391 -200.8947 5.1054 958.8193
156.2088 -200.2573 5.1036 959.8187
156.9786 -199.6200 5.1018 960.8180
157.7483 -198.9827 5.1000 961.8173
158.5180 -198.3454 5.0983 962.8167
159.2877 -197.7081 5.0966 963.8159
160.0574 -197.0708 5.0949 964.8152
160.8271 -196.4335 5.0933 965.8145
161.5967 -195.7962 5.0916 966.8137
162.3664 -195.1589 5.0900 967.8130
163.1360 -194.5217 5.0885 968.8122
163.9056 -193.8844 5.0869 969.8114
164.6752 -193.2471 5.0854 970.8106
165.4448 -192.6098 5.0839 971.8098
166.2143 -191.9725 5.0825 972.8090
166.9839 -191.3352 5.0811 973.8082
167.7534 -190.6979 5.0797 974.8074
168.5230 -190.0606 5.0783 975.8065
169.2925 -189.4233 5.0769 976.8057
170.0621 -188.7859 5.0756 977.8049
170.8316 -188.1486 5.0743 978.8041
171.6011 -187.5113 5.0730 979.8032
172.3706 -186.8740 5.0718 980.8024
173.1402 -186.2366 5.0706 981.8016
173.9097 -185.5993 5.0694 982.8008
174.6792 -184.9619 5.0682 983.8000
175.4488 -184.3246 5.0671 984.7993
176.2183 -183.6872 5.0660 985.7985
176.9879 -183.0498 5.0649 986.7977
177.7574 -182.4124 5.0639 987.7970
178.5270 -181.7749 5.0628 988.7963
179.2966 -181.1375 5.0618 989.7956
180.0662 -180.5000 5.0608 990.7949
180.8359 -179.8626 5.0599 991.7943
181.6055 -179.2251 5.0589 992.7936
182.3752 -178.5876 5.0580 993.7930
183.1449 -177.9500 5.0571 994.7925
183.9146 -177.3125 5.0563 995.7919
184.6843 -176.6749 5.0554 996.7914
185.4541 -176.0373 5.0546 997.7910
186.2238 -175.3997 5.0538 998.7905
186.9936 -174.7621 5.0531 999.7900
187.7634 -174.1244 5.0523 1000.7897
188.5332 -173.4867 5.0516 1001.7893
189.3031 -172.8490 5.0509 1002.7889
190.0730 -172.2113 5.0502 1003.7886
190.8428 -171.5736 5.0495 1004.7884
191.6127 -170.9358 5.0489 1005.7881
192.3827 -170.2980 5.0483 1006.7879
193.1526 -169.6603 5.0476 1007.7877
193.9226 -169.0225 5.0471 1008.7875
194.6926 -168.3846 5.0465 1009.7874
195.4626 -167.7468 5.0459 1010.7872
196.2326 -167.1090 5.0454 1011.7870
197.0026 -166.4711 5.0449 1012.7870
197.7726 -165.8333 5.0444 1013.7869
198.5426 -165.1954 5.0439 1014.7868
199.3127 -164.5575 5.0434 1015.7867
200.0828 -163.9196 5.0430 1016.7867
200.8529 -163.2818 5.0425 1017.7866
201.6229 -162.6439 5.0421 1018.7866
202.3930 -162.0060 5.0417 1019.7866
203.1631 -161.3682 5.0412 1020.7865
203.9333 -160.7303 5.0408 1021.7865
204.7034 -160.0925 5.0404 1022.7864
205.4735 -159.4547 5.0401 1023.7864
206.2437 -158.8168 5.0397 1024.7864
207.0138 -158.1790 5.0393 1025.7863
207.7840 -157.5413 5.0389 1026.7863
208.5541 -156.9035 5.0386 1027.7863
209.3243 -156.2658 5.0382 1028.7861
210.0945 -155.6281 5.0379 1029.7860
210.8647 -154.9904 5.0375 1030.7860
211.6349 -154.3528 5.0372 1031.7859
212.4051 -153.7152 5.0368 1032.7858
213.1753 -153.0776 5.0365 1033.7856
213.9456 -152.4400 5.0361 1034.7855
214.7158 -151.8025 5.0358 1035.7854
215.4861 -151.1650 5.0354 1036.7853
216.2564 -150.5276 5.0351 1037.7850
217.0267 -149.8902 5.0347 1038.7849
217.7970 -149.2528 5.0344 1039.7848
218.5674 -148.6154 5.0340 1040.7845
219.3377 -147.9781 5.0337 1041.7844
220.1081 -147.3409 5.0333 1042.7842
220.8785 -146.7036 5.0330 1043.7839
221.6489 -146.0665 5.0326 1044.7837
222.4194 -145.4293 5.0322 1045.7836
223.1898 -144.7922 5.0318 1046.7833
223.9604 -144.1551 5.0315 1047.7831
224.7309 -143.5180 5.0311 1048.7828
225.5014 -142.8810 5.0307 1049.7826
226.2720 -142.2440 5.0303 1050.7823
227.0426 -141.6071 5.0299 1051.7822
227.8132 -140.9701 5.0294 1052.7820
228.5839 -140.3332 5.0290 1053.7817
229.3546 -139.6964 5.0286 1054.7815
230.1253 -139.0595 5.0281 1055.7812
230.8960 -138.4227 5.0277 1056.7811
231.6668 -137.7858 5.0272 1057.7809
232.4376 -137.1490 5.0268 1058.7808
233.2084 -136.5123 5.0263 1059.7805
233.9792 -135.8755 5.0258 1060.7804
234.7501 -135.2388 5.0253 1061.7802
235.5210 -134.6020 5.0248 1062.7800
236.2919 -133.9653 5.0243 1063.7799
237.0628 -133.3285 5.0238 1064.7798
237.8338 -132.6918 5.0233 1065.7797
238.6048 -132.0551 5.0228 1066.7797
239.3757 -131.4183 5.0222 1067.7795
240.1467 -130.7816 5.0217 1068.7795
240.9178 -130.1448 5.0211 1069.7794
241.6888 -129.5081 5.0205 1070.7794
242.4598 -128.8713 5.0200 1071.7794
243.2309 -128.2345 5.0194 1072.7794
244.0020 -127.5977 5.0188 1073.7794
244.7730 -126.9609 5.0181 1074.7795
245.5441 -126.3240 5.0175 1075.7797
246.3152 -125.6871 5.0169 1076.7797
247.0863 -125.0502 5.0162 1077.7798
247.8573 -124.4132 5.0156 1078.7800
248.6284 -123.7762 5.0149 1079.7802
249.3995 -123.1391 5.0142 1080.7804
250.1706 -122.5020 5.0135 1081.7806
250.9417 -121.8648 5.0128 1082.7809
251.7127 -121.2276 5.0121 1083.7812
252.4838 -120.5903 5.0114 1084.7815
253.2548 -119.9529 5.0107 1085.7820
254.0259 -119.3154 5.0099 1086.7823
254.7969 -118.6779 5.0092 1087.7828
255.5679 -118.0402 5.0084 1088.7833
256.3389 -117.4025 5.0077 1089.7839
257.1098 -116.7647 5.0069 1090.7845
257.8808 -116.1267 5.0061 1091.7852
258.6517 -115.4886 5.0053 1092.7859
259.4225 -114.8504 5.0045 1093.7867
260.1934 -114.2120 5.0037 1094.7875
260.9642 -113.5735 5.0029 1095.7885
261.7350 -112.9349 5.0021 1096.7894
262.5057 -112.2961 5.0012 1097.7904
263.2763 -111.6571 5.0004 1098.7916
264.0469 -111.0179 4.9996 1099.7927
264.8175 -110.3785 4.9987 1100.7941
265.5880 -109.7390 4.9979 1101.7954
266.3584 -109.0992 4.9970 1102.7969
267.1288 -108.4592 4.9962 1103.7983
267.8990 -107.8189 4.9953 1104.7999
268.6692 -107.1784 4.9945 1105.8016
269.4393 -106.5377 4.9936 1106.8035
270.2093 -105.8967 4.9928 1107.8053
270.9792 -105.2554 4.9919 1108.8074
271.7489 -104.6138 4.9911 1109.8094
272.5186 -103.9720 4.9902 1110.8115
273.2881 -103.3298 4.9894 1111.8138
274.0575 -102.6873 4.9886 1112.8162
274.8267 -102.0445 4.9877 1113.8186
275.5958 -101.4014 4.9869 1114.8212
276.3647 -100.7579 4.9861 1115.8239
277.1335 -100.1140 4.9853 1116.8267
277.9020 -99.4698 4.9845 1117.8295
278.6704 -98.8251 4.9837 1118.8325
279.4386 -98.1801 4.9829 1119.8356
280.2066 -97.5347 4.9821 1120.8387
280.9743 -96.8889 4.9813 1121.8420
281.7419 -96.2426 4.9806 1122.8453
282.5092 -95.5959 4.9798 1123.8489
283.2762 -94.9488 4.9790 1124.8524
284.0430 -94.3012 4.9783 1125.8561
284.8095 -93.6531 4.9776 1126.8599
285.5758 -93.0046 4.9769 1127.8636
286.3417 -92.3555 4.9761 1128.8677
287.1074 -91.7060 4.9754 1129.8717
287.8728 -91.0559 4.9747 1130.8760
288.6378 -90.4053 4.9740 1131.8801
289.4025 -89.7542 4.9733 1132.8845
290.1669 -89.1025 4.9727 1133.8890
290.9309 -88.4503 4.9720 1134.8936
291.6945 -87.7974 4.9713 1135.8982
292.4578 -87.1440 4.9706 1136.9030
293.2207 -86.4900 4.9700 1137.9078
293.9832 -85.8354 4.9693 1138.9128
294.7453 -85.1801 4.9687 1139.9180
295.5070 -84.5242 4.9680 1140.9231
296.2683 -83.8676 4.9674 1141.9285
297.0291 -83.2104 4.9667 1142.9338
297.7895 -82.5524 4.9660 1143.9393
298.5494 -81.8938 4.9654 1144.9449
299.3089 -81.2344 4.9647 1145.9507
300.0679 -80.5744 4.9641 1146.9565
300.8264 -79.9135 4.9634 1147.9625
301.5844 -79.2520 4.9627 1148.9688
302.3419 -78.5896 4.9621 1149.9750
303.0988 -77.9264 4.9614 1150.9813
303.8553 -77.2624 4.9607 1151.9878
304.6111 -76.5976 4.9600 1152.9944
305.3665 -75.9320 4.9593 1154.0012
306.1212 -75.2655 4.9586 1155.0082
306.8754 -74.5981 4.9579 1156.0151
307.6290 -73.9299 4.9572 1157.0223
308.3820 -73.2607 4.9565 1158.0298
309.1343 -72.5906 4.9557 1159.0372
309.8860 -71.9195 4.9550 1160.0449
310.6371 -71.2475 4.9542 1161.0527
311.3875 -70.5745 4.9535 1162.0607
312.1372 -69.9005 4.9527 1163.0688
312.8863 -69.2255 4.9519 1164.0771
313.6346 -68.5495 4.9511 1165.0856
314.3822 -67.8725 4.9503 1166.0942
315.1292 -67.1944 4.9495 1167.1031
315.8753 -66.5152 4.9487 1168.1121
316.6207 -65.8349 4.9478 1169.1212
317.3653 -65.1535 4.9470 1170.1306
318.1092 -64.4710 4.9461 1171.1401
318.8522 -63.7873 4.9453 1172.1498
319.5944 -63.1025 4.9444 1173.1597
320.3358 -62.4165 4.9435 1174.1697
321.0763 -61.7293 4.9426 1175.1799
321.8159 -61.0409 4.9417 1176.1904
322.5547 -60.3513 4.9408 1177.2010
323.2926 -59.6605 4.9399 1178.2118
324.0296 -58.9683 4.9390 1179.2229
324.7656 -58.2750 4.9380 1180.2340
325.5006 -57.5803 4.9371 1181.2454
326.2347 -56.8843 4.9361 1182.2570
326.9679 -56.1870 4.9352 1183.2688
327.7000 -55.4883 4.9342 1184.2808
328.4311 -54.7883 4.9332 1185.2930
329.1611 -54.0870 4.9323 1186.3053
329.8901 -53.3842 4.9313 1187.3179
330.6180 -52.6801 4.9303 1188.3307
331.3448 -51.9745 4.9293 1189.3436
332.0705 -51.2675 4.9283 1190.3567
332.7951 -50.5591 4.9273 1191.3701
333.5186 -49.8492 4.9263 1192.3837
334.2408 -49.1379 4.9253 1193.3973
334.9619 -48.4250 4.9243 1194.4113
335.6817 -47.7107 4.9233 1195.4254
336.4003 -46.9948 4.9223 1196.4397
337.1176 -46.2774 4.9213 1197.4542
337.8337 -45.5585 4.9203 1198.4690
338.5485 -44.8380 4.9193 1199.4839
339.2620 -44.1159 4.9183 1200.4990
339.9742 -43.3923 4.9173 1201.5143
340.6849 -42.6671 4.9163 1202.5297
341.3943 -41.9403 4.9153 1203.5454
342.1023 -41.2118 4.9143 1204.5612
342.8089 -40.4817 4.9133 1205.5773
343.5141 -39.7500 4.9123 1206.5935
344.2177 -39.0166 4.9113 1207.6099
344.9200 -38.2815 4.9103 1208.6263
345.6207 -37.5448 4.9093 1209.6431
346.3198 -36.8064 4.9084 1210.6600
347.0174 -36.0663 4.9074 1211.6770
347.7134 -35.3244 4.9064 1212.6943
348.4079 -34.5809 4.9054 1213.7117
349.1007 -33.8356 4.9044 1214.7292
349.7919 -33.0886 4.9035 1215.7471
350.4814 -32.3398 4.9025 1216.7649
351.1693 -31.5893 4.9016 1217.7830
351.8554 -30.8370 4.9006 1218.8011
352.5398 -30.0828 4.8996 1219.8196
353.2224 -29.3269 4.8987 1220.8381
353.9033 -28.5692 4.8977 1221.8568
354.5824 -27.8097 4.8968 1222.8756
355.2597 -27.0484 4.8958 1223.8947
355.9352 -26.2852 4.8949 1224.9138
356.6087 -25.5202 4.8940 1225.9331
357.2804 -24.7533 4.8930 1226.9525
357.9502 -23.9846 4.8921 1227.9720
358.6180 -23.2140 4.8911 1228.9918
359.2840 -22.4415 4.8902 1230.0117
359.9479 -21.6671 4.8893 1231.0317
360.6099 -20.8909 4.8883 1232.0519
361.2698 -20.1127 4.8874 1233.0723
361.9278 -19.3327 4.8865 1234.0928
362.5836 -18.5506 4.8855 1235.1134
363.2374 -17.7667 4.8845 1236.1342
363.8890 -16.9808 4.8836 1237.1550
364.5385 -16.1929 4.8826 1238.1761
365.1859 -15.4031 4.8817 1239.1974
365.8312 -14.6114 4.8807 1240.2188
366.4743 -13.8176 4.8798 1241.2404
367.1151 -13.0219 4.8788 1242.2621
367.7538 -12.2242 4.8779 1243.2838
368.3901 -11.4245 4.8769 1244.3059
369.0242 -10.6227 4.8759 1245.3280
369.6560 -9.8190 4.8749 1246.3503
370.2855 -9.0133 4.8740 1247.3728
370.9127 -8.2056 4.8730 1248.3955
371.5375 -7.3958 4.8721 1249.4183
372.1599 -6.5839 4.8711 1250.4413
372.7798 -5.7700 4.8701 1251.4644
373.3974 -4.9541 4.8691 1252.4877
374.0125 -4.1361 4.8681 1253.5111
374.6251 -3.3160 4.8671 1254.5348
375.2353 -2.4939 4.8661 1255.5586
375.8429 -1.6698 4.8651 1256.5825
376.4481 -0.8435 4.8641 1257.6067
377.0506 -0.0152 4.8631 1258.6310
377.6505 0.8153 4.8621 1259.6554
378.2478 1.6478 4.8611 1260.6801
378.8425 2.4824 4.8601 1261.7048
379.4345 3.3191 4.8592 1262.7299
380.0239 4.1579 4.8582 1263.7550
380.6105 4.9987 4.8572 1264.7803
381.1944 5.8418 4.8562 1265.8057
381.7755 6.6869 4.8552 1266.8313
382.3539 7.5341 4.8542 1267.8572
382.9294 8.3834 4.8532 1268.8831
383.5021 9.2349 4.8522 1269.9093
384.0719 10.0884 4.8512 1270.9355
384.6389 10.9440 4.8503 1271.9619
385.2030 11.8018 4.8493 1272.9885
385.7641 12.6617 4.8483 1274.0154
386.3222 13.5237 4.8473 1275.0422
386.8773 14.3878 4.8463 1276.0693
387.4294 15.2540 4.8453 1277.0966
387.9785 16.1224 4.8444 1278.1239
388.5246 16.9928 4.8434 1279.1515
389.0676 17.8653 4.8424 1280.1791
389.6074 18.7400 4.8414 1281.2069
390.1441 19.6167 4.8405 1282.2349
390.6776 20.4955 4.8395 1283.2631
391.2079 21.3765 4.8385 1284.2913
391.7350 22.2595 4.8376 1285.3196
392.2589 23.1446 4.8366 1286.3481
392.7794 24.0317 4.8357 1287.3767
393.2968 24.9209 4.8347 1288.4055
393.8108 25.8123 4.8338 1289.4344
394.3214 26.7057 4.8328 1290.4635
394.8286 27.6011 4.8318 1291.4926
395.3325 28.4986 4.8308 1292.5219
395.8329 29.3982 4.8299 1293.5513
396.3300 30.2997 4.8289 1294.5807
396.8235 31.2033 4.8280 1295.6104
397.3136 32.1089 4.8270 1296.6400
397.8002 33.0165 4.8261 1297.6698
398.2832 33.9262 4.8251 1298.6998
398.7626 34.8378 4.8241 1299.7299
399.2385 35.7514 4.8232 1300.7599
399.7108 36.6670 4.8222 1301.7902
400.1794 37.5846 4.8213 1302.8204
400.6445 38.5041 4.8203 1303.8510
401.1058 39.4256 4.8194 1304.8815
401.5634 40.3490 4.8184 1305.9120
402.0173 41.2744 4.8175 1306.9427
402.4674 42.2017 4.8165 1307.9735
402.9138 43.1309 4.8155 1309.0044
403.3565 44.0620 4.8146 1310.0353
403.7953 44.9949 4.8136 1311.0663
404.2304 45.9298 4.8127 1312.0974
404.6616 46.8665 4.8117 1313.1287
405.0888 47.8051 4.8108 1314.1599
405.5121 48.7456 4.8098 1315.1913
405.9316 49.6878 4.8088 1316.2227
406.3471 50.6319 4.8079 1317.2542
406.7588 51.5778 4.8069 1318.2856
407.1664 52.5254 4.8060 1319.3174
407.5701 53.4749 4.8050 1320.3490
407.9697 54.4261 4.8040 1321.3807
408.3653 55.3791 4.8031 1322.4126
408.7568 56.3338 4.8021 1323.4445
409.1443 57.2902 4.8011 1324.4764
409.5278 58.2483 4.8002 1325.5084
409.9072 59.2081 4.7992 1326.5405
410.2825 60.1696 4.7983 1327.5726
410.6537 61.1328 4.7974 1328.6049
411.0205 62.0976 4.7964 1329.6371
411.3833 63.0640 4.7954 1330.6693
411.7419 64.0321 4.7944 1331.7017
412.0963 65.0018 4.7935 1332.7341
412.4466 65.9730 4.7925 1333.7665
412.7926 66.9457 4.7916 1334.7991
413.1344 67.9201 4.7907 1335.8315
413.4720 68.8959 4.7897 1336.8641
413.8054 69.8733 4.7888 1337.8969
414.1343 70.8522 4.7878 1338.9296
414.4591 71.8326 4.7869 1339.9623
414.7796 72.8144 4.7859 1340.9951
415.0958 73.7976 4.7850 1342.0280
415.4077 74.7823 4.7841 1343.0608
415.7154 75.7683 4.7832 1344.0938
416.0186 76.7558 4.7823 1345.1267
416.3174 77.7446 4.7813 1346.1597
416.6120 78.7348 4.7804 1347.1927
416.9021 79.7263 4.7795 1348.2258
417.1879 80.7192 4.7786 1349.2590
417.4694 81.7133 4.7777 1350.2922
417.7465 82.7087 4.7768 1351.3254
418.0192 83.7053 4.7759 1352.3588
418.2875 84.7032 4.7750 1353.3921
418.5512 85.7024 4.7741 1354.4254
418.8106 86.7027 4.7732 1355.4589
419.0656 87.7042 4.7724 1356.4923
419.3161 88.7069 4.7715 1357.5258
419.5622 89.7107 4.7706 1358.5593
419.8040 90.7156 4.7698 1359.5929
420.0411 91.7216 4.7689 1360.6266
420.2738 92.7287 4.7680 1361.6602
420.5020 93.7369 4.7672 1362.6938
420.7257 94.7461 4.7663 1363.7275
420.9449 95.7564 4.7655 1364.7614
421.1597 96.7676 4.7646 1365.7952
421.3700 97.7798 4.7638 1366.8290
421.5757 98.7930 4.7630 1367.8628
421.7770 99.8071 4.7622 1368.8967
421.9736 100.8221 4.7613 1369.9305
422.1656 101.8381 4.7605 1370.9645
422.3532 102.8549 4.7596 1371.9984
422.5361 103.8725 4.7588 1373.0325
422.7146 104.8910 4.7580 1374.0664
422.8886 105.9102 4.7572 1375.1005
423.0579 106.9303 4.7564 1376.1344
423.2227 107.9511 4.7556 1377.1685
423.3829 108.9726 4.7548 1378.2025
423.5384 109.9949 4.7540 1379.2365
423.6895 111.0178 4.7532 1380.2705
423.8359 112.0414 4.7524 1381.3046
423.9778 113.0657 4.7516 1382.3386
424.1151 114.0905 4.7509 1383.3726
424.2478 115.1160 4.7501 1384.4066
424.3758 116.1420 4.7493 1385.4406
424.4993 117.1686 4.7486 1386.4746
424.6181 118.1957 4.7478 1387.5085
424.7324 119.2233 4.7471 1388.5425
424.8420 120.2514 4.7463 1389.5764
424.9472 121.2799 4.7456 1390.6102
425.0477 122.3088 4.7449 1391.6442
425.1436 123.3382 4.7442 1392.6780
425.2349 124.3680 4.7435 1393.7118
425.3215 125.3981 4.7428 1394.7455
425.4036 126.4286 4.7421 1395.7793
425.4811 127.4594 4.7414 1396.8130
425.5541 128.4905 4.7408 1397.8467
425.6225 129.5218 4.7401 1398.8802
425.6863 130.5534 4.7395 1399.9138
425.7455 131.5853 4.7389 1400.9474
425.8001 132.6173 4.7383 1401.9808
425.8502 133.6496 4.7377 1403.0144
425.8956 134.6820 4.7371 1404.0477
425.9366 135.7146 4.7366 1405.0812
425.9730 136.7473 4.7360 1406.1145
426.0049 137.7801 4.7355 1407.1478
426.0323 138.8130 4.7350 1408.1810
426.0550 139.8460 4.7345 1409.2142
426.0732 140.8790 4.7340 1410.2474
426.0868 141.9120 4.7335 1411.2806
426.0959 142.9451 4.7331 1412.3137
426.1005 143.9781 4.7326 1413.3468
426.1007 145.0111 4.7322 1414.3798
426.0964 146.0441 4.7317 1415.4127
426.0875 147.0770 4.7313 1416.4457
426.0741 148.1098 4.7309 1417.4786
426.0562 149.1425 4.7305 1418.5115
426.0338 150.1751 4.7301 1419.5443
426.0070 151.2076 4.7297 1420.5770
425.9756 152.2398 4.7293 1421.6099
425.9398 153.2719 4.7289 1422.6426
425.8997 154.3038 4.7286 1423.6753
425.8549 155.3356 4.7282 1424.7079
425.8057 156.3670 4.7278 1425.7406
425.7520 157.3982 4.7275 1426.7732
425.6938 158.4292 4.7271 1427.8058
425.6313 159.4598 4.7268 1428.8383
425.5643 160.4902 4.7264 1429.8708
425.4929 161.5202 4.7261 1430.9033
425.4170 162.5499 4.7258 1431.9358
425.3367 163.5793 4.7255 1432.9683
425.2519 164.6082 4.7251 1434.0007
425.1626 165.6368 4.7248 1435.0332
425.0690 166.6649 4.7245 1436.0656
424.9709 167.6927 4.7242 1437.0980
424.8684 168.7200 4.7239 1438.1304
424.7616 169.7468 4.7236 1439.1627
424.6503 170.7732 4.7234 1440.1952
424.5346 171.7990 4.7231 1441.2275
424.4145 172.8244 4.7228 1442.2599
424.2899 173.8492 4.7226 1443.2922
424.1609 174.8734 4.7223 1444.3246
424.0276 175.8971 4.7221 1445.3569
423.8898 176.9203 4.7218 1446.3893
423.7477 177.9428 4.7216 1447.4216
423.6012 178.9647 4.7214 1448.4540
423.4502 179.9860 4.7212 1449.4863
423.2948 181.0066 4.7209 1450.5187
423.1350 182.0265 4.7207 1451.5511
422.9709 183.0458 4.7205 1452.5835
422.8023 184.0643 4.7203 1453.6158
422.6295 185.0821 4.7201 1454.6483
422.4522 186.0992 4.7199 1455.6807
422.2706 187.1155 4.7197 1456.7131
422.0846 188.1310 4.7195 1457.7455
421.8941 189.1458 4.7193 1458.7780
421.6993 190.1597 4.7191 1459.8104
421.5002 191.1728 4.7189 1460.8429
421.2968 192.1850 4.7187 1461.8754
421.0890 193.1964 4.7185 1462.9078
420.8770 194.2068 4.7183 1463.9403
420.6604 195.2164 4.7181 1464.9729
420.4395 196.2250 4.7179 1466.0054
420.2144 197.2327 4.7176 1467.0378
419.9848 198.2393 4.7174 1468.0704
419.7510 199.2451 4.7172 1469.1030
419.5129 200.2498 4.7170 1470.1355
419.2705 201.2535 4.7167 1471.1681
419.0238 202.2561 4.7165 1472.2007
418.7729 203.2577 4.7163 1473.2332
418.5175 204.2582 4.7160 1474.2657
418.2579 205.2576 4.7157 1475.2983
417.9940 206.2559 4.7154 1476.3309
417.7260 207.2531 4.7151 1477.3634
417.4536 208.2491 4.7148 1478.3960
417.1771 209.2439 4.7145 1479.4286
416.8962 210.2375 4.7142 1480.4611
416.6111 211.2299 4.7139 1481.4937
416.3219 212.2211 4.7135 1482.5262
416.0283 213.2110 4.7131 1483.5587
415.7306 214.1997 4.7128 1484.5912
415.4287 215.1871 4.7124 1485.6238
415.1227 216.1732 4.7120 1486.6562
414.8124 217.1579 4.7116 1487.6887
414.4981 218.1414 4.7112 1488.7212
414.1794 219.1234 4.7107 1489.7537
413.8566 220.1040 4.7102 1490.7860
413.5296 221.0833 4.7098 1491.8185
413.1985 222.0612 4.7093 1492.8508
412.8633 223.0376 4.7088 1493.8832
412.5241 224.0126 4.7082 1494.9155
412.1806 224.9862 4.7077 1495.9479
411.8331 225.9582 4.7071 1496.9802
411.4814 226.9288 4.7066 1498.0126
411.1256 227.8978 4.7059 1499.0448
410.7657 228.8653 4.7053 1500.0770
410.4019 229.8312 4.7047 1501.1093
410.0339 230.7956 4.7040 1502.1415
409.6618 231.7584 4.7034 1503.1737
409.2858 232.7197 4.7027 1504.2058
408.9055 233.6792 4.7019 1505.2380
408.5212 234.6371 4.7012 1506.2701
408.1329 235.5934 4.7004 1507.3022
407.7405 236.5480 4.6996 1508.3344
407.3442 237.5010 4.6988 1509.3665
406.9438 238.4522 4.6980 1510.3986
406.5394 239.4017 4.6971 1511.4305
406.1310 240.3495 4.6963 1512.4626
405.7186 241.2956 4.6954 1513.4946
405.3021 242.2399 4.6944 1514.5267
404.8816 243.1823 4.6934 1515.5587
404.4571 244.1230 4.6925 1516.5908
404.0287 245.0619 4.6915 1517.6228
403.5963 245.9990 4.6904 1518.6548
403.1599 246.9342 4.6894 1519.6869
402.7194 247.8676 4.6883 1520.7189
402.2750 248.7990 4.6872 1521.7510
401.8267 249.7286 4.6861 1522.7830
401.3743 250.6562 4.6849 1523.8151
400.9180 251.5820 4.6837 1524.8472
400.4578 252.5058 4.6825 1525.8793
399.9936 253.4276 4.6813 1526.9114
399.5255 254.3475 4.6800 1527.9435
399.0533 255.2654 4.6787 1528.9757
398.5772 256.1812 4.6774 1530.0078
398.0972 257.0949 4.6760 1531.0400
397.6132 258.0067 4.6746 1532.0723
397.1253 258.9163 4.6732 1533.1045
396.6335 259.8239 4.6718 1534.1368
396.1378 260.7295 4.6704 1535.1691
395.6382 261.6328 4.6689 1536.2014
395.1346 262.5340 4.6674 1537.2338
394.6272 263.4331 4.6658 1538.2661
394.1158 264.3299 4.6642 1539.2986
393.6006 265.2246 4.6626 1540.3311
393.0815 266.1171 4.6610 1541.3635
392.5585 267.0074 4.6594 1542.3960
392.0318 267.8954 4.6578 1543.4285
391.5011 268.7811 4.6561 1544.4611
390.9665 269.6645 4.6543 1545.4935
390.4282 270.5456 4.6526 1546.5261
389.8860 271.4244 4.6508 1547.5587
389.3399 272.3008 4.6490 1548.5913
388.7902 273.1749 4.6472 1549.6239
388.2367 274.0467 4.6453 1550.6566
387.6793 274.9160 4.6434 1551.6892
387.1183 275.7830 4.6416 1552.7219
386.5534 276.6474 4.6396 1553.7545
385.9847 277.5095 4.6377 1554.7872
385.4124 278.3690 4.6357 1555.8199
384.8364 279.2261 4.6337 1556.8525
384.2567 280.0807 4.6317 1557.8853
383.6734 280.9329 4.6297 1558.9180
383.0864 281.7825 4.6277 1559.9507
382.4956 282.6295 4.6256 1560.9833
381.9012 283.4740 4.6235 1562.0160
381.3033 284.3159 4.6213 1563.0487
380.7016 285.1552 4.6192 1564.0814
380.0964 285.9920 4.6170 1565.1140
379.4877 286.8261 4.6148 1566.1467
378.8754 287.6577 4.6126 1567.1793
378.2595 288.4866 4.6104 1568.2120
377.6401 289.3127 4.6082 1569.2446
377.0170 290.1362 4.6059 1570.2772
376.3905 290.9571 4.6036 1571.3098
375.7605 291.7752 4.6012 1572.3424
375.1270 292.5906 4.5989 1573.3750
374.4901 293.4033 4.5965 1574.4076
373.8496 294.2133 4.5942 1575.4402
373.2057 295.0205 4.5918 1576.4728
372.5584 295.8249 4.5894 1577.5052
371.9076 296.6266 4.5869 1578.5378
371.2534 297.4254 4.5844 1579.5703
370.5958 298.2214 4.5820 1580.6029
369.9349 299.0146 4.5795 1581.6354
369.2705 299.8050 4.5770 1582.6678
368.6029 300.5926 4.5745 1583.7003
367.9318 301.3772 4.5719 1584.7328
367.2573 302.1589 4.5693 1585.7653
366.5795 302.9377 4.5667 1586.7977
365.8984 303.7136 4.5641 1587.8302
365.2140 304.4865 4.5614 1588.8625
364.5263 305.2566 4.5588 1589.8950
363.8354 306.0237 4.5562 1590.9275
363.1411 306.7878 4.5535 1591.9598
362.4436 307.5490 4.5508 1592.9923
361.7428 308.3071 4.5481 1594.0247
361.0388 309.0622 4.5453 1595.0570
360.3315 309.8142 4.5426 1596.0895
359.6211 310.5633 4.5399 1597.1218
358.9074 311.3093 4.5371 1598.1542
358.1906 312.0522 4.5343 1599.1865
357.4706 312.7920 4.5315 1600.2189
356.7473 313.5287 4.5287 1601.2512
356.0210 314.2622 4.5259 1602.2836
355.2914 314.9927 4.5231 1603.3160
354.5588 315.7199 4.5202 1604.3483
353.8230 316.4441 4.5174 1605.3807
353.0842 317.1651 4.5146 1606.4130
352.3422 317.8829 4.5117 1607.4453
351.5972 318.5975 4.5089 1608.4777
350.8491 319.3089 4.5060 1609.5100
350.0978 320.0169 4.5031 1610.5424
349.3436 320.7218 4.5002 1611.5747
348.5863 321.4234 4.4973 1612.6071
347.8260 322.1218 4.4944 1613.6394
347.0628 322.8169 4.4915 1614.6719
346.2965 323.5087 4.4886 1615.7042
345.5272 324.1972 4.4857 1616.7366
344.7550 324.8823 4.4828 1617.7689
343.9798 325.5641 4.4799 1618.8013
343.2016 326.2425 4.4770 1619.8336
342.4206 326.9176 4.4741 1620.8660
341.6366 327.5894 4.4711 1621.8984
340.8498 328.2578 4.4682 1622.9308
340.0601 328.9228 4.4653 1623.9633
339.2674 329.5842 4.4624 1624.9956
338.4719 330.2422 4.4594 1626.0281
337.6736 330.8969 4.4565 1627.0604
336.8724 331.5480 4.4536 1628.0929
336.0684 332.1957 4.4506 1629.1254
335.2617 332.8400 4.4477 1630.1577
334.4521 333.4808 4.4448 1631.1902
333.6398 334.1180 4.4419 1632.2227
332.8247 334.7518 4.4389 1633.2551
332.0069 335.3820 4.4360 1634.2876
331.1863 336.0086 4.4330 1635.3201
330.3630 336.6317 4.4301 1636.3525
329.5371 337.2513 4.4272 1637.3850
328.7085 337.8672 4.4243 1638.4176
327.8772 338.4797 4.4213 1639.4501
327.0433 339.0884 4.4184 1640.4825
326.2067 339.6936 4.4154 1641.5151
325.3675 340.2951 4.4125 1642.5476
324.5257 340.8929 4.4095 1643.5802
323.6813 341.4872 4.4066 1644.6127
322.8343 342.0778 4.4037 1645.6453
321.9848 342.6648 4.4007 1646.6777
321.1328 343.2480 4.3978 1647.7103
320.2783 343.8276 4.3949 1648.7429
319.4211 344.4034 4.3919 1649.7755
318.5615 344.9755 4.3889 1650.8080
317.6995 345.5439 4.3859 1651.8406
316.8349 346.1085 4.3830 1652.8732
315.9680 346.6694 4.3800 1653.9058
315.0986 347.2266 4.3771 1654.9384
314.2268 347.7800 4.3741 1655.9709
313.3526 348.3296 4.3711 1657.0037
312.4760 348.8754 4.3682 1658.0363
311.5971 349.4173 4.3652 1659.0688
310.7158 349.9555 4.3622 1660.1014
309.8322 350.4899 4.3592 1661.1342
308.9462 351.0204 4.3562 1662.1667
308.0580 351.5471 4.3533 1663.1995
307.1675 352.0701 4.3503 1664.2322
306.2747 352.5890 4.3473 1665.2648
305.3796 353.1040 4.3442 1666.2975
304.4823 353.6152 4.3412 1667.3302
303.5828 354.1225 4.3382 1668.3629
302.6811 354.6259 4.3352 1669.3956
301.7773 355.1254 4.3321 1670.4283
300.8712 355.6210 4.3291 1671.4611
299.9630 356.1127 4.3261 1672.4938
299.0526 356.6004 4.3230 1673.5266
298.1402 357.0841 4.3199 1674.5593
297.2256 357.5639 4.3169 1675.5922
296.3090 358.0397 4.3138 1676.6249
295.3903 358.5116 4.3107 1677.6577
294.4695 358.9795 4.3076 1678.6906
293.5468 359.4434 4.3046 1679.7233
292.6219 359.9032 4.3015 1680.7561
291.6951 360.3590 4.2983 1681.7889
290.7663 360.8108 4.2952 1682.8219
289.8356 361.2585 4.2921 1683.8547
288.9029 361.7022 4.2890 1684.8876
287.9683 362.1419 4.2859 1685.9204
287.0318 362.5775 4.2827 1686.9532
286.0934 363.0091 4.2796 1687.9862
285.1531 363.4365 4.2765 1689.0190
284.2109 363.8598 4.2733 1690.0519
283.2669 364.2790 4.2701 1691.0848
282.3211 364.6941 4.2670 1692.1177
281.3735 365.1050 4.2638 1693.1506
280.4241 365.5119 4.2606 1694.1835
279.4730 365.9146 4.2575 1695.2164
278.5201 366.3131 4.2543 1696.2493
277.5654 366.7075 4.2511 1697.2822
276.6091 367.0977 4.2479 1698.3151
275.6510 367.4837 4.2447 1699.3480
274.6913 367.8656 4.2415 1700.3809
