VERSION 0.7
FIELDS x y z lapdistance
SIZE 4 4 4 4
TYPE F F F F
COUNT 1 1 1 1
WIDTH 1359
HEIGHT 1
VIEWPOINT 0.000 0.000 0.000 1.000 0.000 0.000 0.000
POINTS 1359
DATA ascii
-413.6595 -154.4554 1.6195 166.7905
-413.6832 -155.4418 1.6138 167.7772
-413.7033 -156.4281 1.6083 168.7637
-413.7196 -157.4143 1.6031 169.7501
-413.7322 -158.4005 1.5981 170.7364
-413.7410 -159.3866 1.5933 171.7225
-413.7460 -160.3726 1.5887 172.7086
-413.7472 -161.3585 1.5843 173.6945
-413.7446 -162.3443 1.5802 174.6803
-413.7382 -163.3299 1.5762 175.6659
-413.7279 -164.3154 1.5724 176.6515
-413.7137 -165.3008 1.5689 177.6370
-413.6957 -166.2860 1.5655 178.6224
-413.6738 -167.2711 1.5624 179.6077
-413.6480 -168.2559 1.5594 180.5929
-413.6183 -169.2406 1.5566 181.5780
-413.5847 -170.2250 1.5540 182.5630
-413.5471 -171.2093 1.5516 183.5480
-413.5055 -172.1933 1.5494 184.5328
-413.4600 -173.1770 1.5474 185.5177
-413.4105 -174.1605 1.5455 186.5024
-413.3569 -175.1438 1.5438 187.4871
-413.2994 -176.1267 1.5423 188.4717
-413.2379 -177.1093 1.5409 189.4563
-413.1722 -178.0917 1.5397 190.4408
-413.1026 -179.0737 1.5386 191.4253
-413.0289 -180.0554 1.5376 192.4097
-412.9510 -181.0367 1.5368 193.3941
-412.8692 -182.0176 1.5362 194.3785
-412.7832 -182.9982 1.5357 195.3628
-412.6931 -183.9783 1.5353 196.3471
-412.5989 -184.9581 1.5350 197.3314
-412.5005 -185.9374 1.5348 198.3156
-412.3980 -186.9163 1.5347 199.2999
-412.2914 -187.8947 1.5348 200.2841
-412.1806 -188.8727 1.5349 201.2683
-412.0657 -189.8501 1.5352 202.2525
-411.9465 -190.8271 1.5355 203.2367
-411.8232 -191.8035 1.5359 204.2208
-411.6958 -192.7794 1.5364 205.2050
-411.5641 -193.7547 1.5370 206.1892
-411.4283 -194.7294 1.5376 207.1734
-411.2882 -195.7036 1.5384 208.1575
-411.1440 -196.6772 1.5391 209.1417
-410.9956 -197.6501 1.5400 210.1259
-410.8430 -198.6224 1.5409 211.1101
-410.6862 -199.5941 1.5419 212.0943
-410.5252 -200.5650 1.5429 213.0786
-410.3600 -201.5353 1.5440 214.0628
-410.1906 -202.5049 1.5452 215.0471
-410.0171 -203.4737 1.5464 216.0313
-409.8394 -204.4418 1.5476 217.0156
-409.6575 -205.4092 1.5489 217.9999
-409.4714 -206.3758 1.5502 218.9843
-409.2811 -207.3416 1.5515 219.9686
-409.0867 -208.3066 1.5529 220.9530
-408.8881 -209.2707 1.5544 221.9374
-408.6853 -210.2340 1.5558 222.9218
-408.4783 -211.1965 1.5573 223.9063
-408.2672 -212.1581 1.5589 224.8908
-408.0520 -213.1188 1.5604 225.8753
-407.8326 -214.0785 1.5620 226.8598
-407.6090 -215.0374 1.5636 227.8444
-407.3813 -215.9952 1.5652 228.8289
-407.1495 -216.9522 1.5668 229.8136
-406.9135 -217.9081 1.5685 230.7982
-406.6735 -218.8630 1.5701 231.7828
-406.4292 -219.8169 1.5718 232.7675
-406.1809 -220.7698 1.5735 233.7522
-405.9284 -221.7216 1.5752 234.7369
-405.6719 -222.6723 1.5769 235.7217
-405.4112 -223.6220 1.5787 236.7064
-405.1465 -224.5705 1.5804 237.6912
-404.8776 -225.5179 1.5821 238.6760
-404.6046 -226.4642 1.5839 239.6609
-404.3276 -227.4092 1.5857 240.6457
-404.0465 -228.3531 1.5874 241.6306
-403.7613 -229.2958 1.5892 242.6155
-403.4720 -230.2373 1.5910 243.6004
-403.1787 -231.1776 1.5927 244.5853
-402.8813 -232.1165 1.5945 245.5703
-402.5799 -233.0542 1.5963 246.5553
-402.2744 -233.9907 1.5981 247.5402
-401.9649 -234.9258 1.5999 248.5252
-401.6514 -235.8595 1.6017 249.5103
-401.3338 -236.7920 1.6035 250.4953
-401.0122 -237.7230 1.6053 251.4803
-400.6866 -238.6527 1.6071 252.4654
-400.3570 -239.5810 1.6089 253.4505
-400.0233 -240.5079 1.6107 254.4356
-399.6857 -241.4333 1.6126 255.4207
-399.3441 -242.3573 1.6144 256.4058
-398.9984 -243.2799 1.6162 257.3910
-398.6489 -244.2009 1.6181 258.3761
-398.2953 -245.1205 1.6199 259.3613
-397.9377 -246.0385 1.6217 260.3465
-397.5763 -246.9550 1.6236 261.3317
-397.2108 -247.8699 1.6254 262.3169
-396.8414 -248.7833 1.6273 263.3022
-396.4680 -249.6951 1.6292 264.2874
-396.0908 -250.6053 1.6310 265.2727
-395.7096 -251.5138 1.6329 266.2580
-395.3244 -252.4208 1.6348 267.2433
-394.9354 -253.3260 1.6367 268.2287
-394.5424 -254.2297 1.6385 269.2141
-394.1456 -255.1316 1.6404 270.1995
-393.7448 -256.0318 1.6423 271.1849
-393.3402 -256.9304 1.6442 272.1703
-392.9317 -257.8271 1.6461 273.1558
-392.5193 -258.7222 1.6479 274.1412
-392.1030 -259.6154 1.6498 275.1267
-391.6829 -260.5070 1.6517 276.1122
-391.2589 -261.3966 1.6536 277.0978
-390.8311 -262.2845 1.6555 278.0834
-390.3995 -263.1706 1.6573 279.0690
-389.9641 -264.0548 1.6592 280.0546
-389.5248 -264.9371 1.6611 281.0403
-389.0817 -265.8176 1.6629 282.0259
-388.6348 -266.6962 1.6647 283.0116
-388.1841 -267.5728 1.6666 283.9973
-387.7296 -268.4475 1.6684 284.9831
-387.2714 -269.3203 1.6702 285.9688
-386.8094 -270.1911 1.6720 286.9546
-386.3436 -271.0600 1.6738 287.9405
-385.8741 -271.9268 1.6755 288.9263
-385.4008 -272.7917 1.6773 289.9122
-384.9239 -273.6545 1.6790 290.8980
-384.4431 -274.5153 1.6807 291.8839
-383.9587 -275.3740 1.6824 292.8699
-383.4706 -276.2306 1.6840 293.8558
-382.9788 -277.0852 1.6857 294.8418
-382.4833 -277.9376 1.6873 295.8278
-381.9841 -278.7879 1.6889 296.8138
-381.4813 -279.6361 1.6904 297.7998
-380.9748 -280.4821 1.6920 298.7859
-380.4647 -281.3260 1.6935 299.7719
-379.9509 -282.1676 1.6949 300.7580
-379.4335 -283.0071 1.6964 301.7441
-378.9125 -283.8443 1.6978 302.7302
-378.3879 -284.6793 1.6992 303.7163
-377.8597 -285.5120 1.7006 304.7025
-377.3279 -286.3425 1.7019 305.6886
-376.7925 -287.1707 1.7032 306.6747
-376.2536 -287.9965 1.7045 307.6609
-375.7111 -288.8201 1.7057 308.6471
-375.1651 -289.6413 1.7069 309.6333
-374.6156 -290.4602 1.7081 310.6194
-374.0625 -291.2767 1.7092 311.6057
-373.5059 -292.0908 1.7103 312.5918
-372.9458 -292.9026 1.7114 313.5780
-372.3822 -293.7119 1.7124 314.5642
-371.8152 -294.5187 1.7134 315.5504
-371.2447 -295.3232 1.7144 316.5367
-370.6707 -296.1252 1.7153 317.5229
-370.0932 -296.9247 1.7162 318.5091
-369.5124 -297.7217 1.7171 319.4954
-368.9281 -298.5162 1.7179 320.4816
-368.3404 -299.3082 1.7187 321.4678
-367.7493 -300.0977 1.7195 322.4541
-367.1548 -300.8846 1.7203 323.4403
-366.5569 -301.6690 1.7210 324.4266
-365.9556 -302.4507 1.7217 325.4128
-365.3510 -303.2299 1.7224 326.3990
-364.7431 -304.0065 1.7230 327.3853
-364.1318 -304.7804 1.7236 328.3715
-363.5172 -305.5518 1.7242 329.3578
-362.8992 -306.3204 1.7247 330.3440
-362.2780 -307.0864 1.7252 331.3303
-361.6535 -307.8497 1.7257 332.3165
-361.0257 -308.6103 1.7262 333.3027
-360.3946 -309.3682 1.7266 334.2890
-359.7603 -310.1234 1.7271 335.2752
-359.1227 -310.8759 1.7274 336.2615
-358.4819 -311.6255 1.7278 337.2477
-357.8379 -312.3725 1.7281 338.2340
-357.1906 -313.1166 1.7285 339.2202
-356.5402 -313.8580 1.7287 340.2064
-355.8866 -314.5965 1.7290 341.1927
-355.2298 -315.3322 1.7292 342.1789
-354.5699 -316.0652 1.7294 343.1651
-353.9068 -316.7952 1.7296 344.1514
-353.2406 -317.5224 1.7298 345.1376
-352.5713 -318.2467 1.7299 346.1238
-351.8988 -318.9681 1.7300 347.1100
-351.2233 -319.6866 1.7301 348.0962
-350.5446 -320.4022 1.7302 349.0824
-349.8629 -321.1148 1.7302 350.0686
-349.1782 -321.8246 1.7302 351.0548
-348.4904 -322.5313 1.7302 352.0410
-347.7996 -323.2351 1.7302 353.0272
-347.1057 -323.9359 1.7302 354.0134
-346.4089 -324.6337 1.7301 354.9995
-345.7090 -325.3285 1.7300 355.9857
-345.0062 -326.0203 1.7299 356.9719
-344.3004 -326.7090 1.7297 357.9580
-343.5917 -327.3947 1.7295 358.9442
-342.8800 -328.0774 1.7294 359.9303
-342.1654 -328.7569 1.7291 360.9164
-341.4479 -329.4334 1.7289 361.9026
-340.7275 -330.1068 1.7287 362.8887
-340.0042 -330.7770 1.7284 363.8748
-339.2780 -331.4442 1.7281 364.8609
-338.5490 -332.1082 1.7278 365.8470
-337.8172 -332.7690 1.7275 366.8330
-337.0825 -333.4267 1.7271 367.8191
-336.3450 -334.0812 1.7267 368.8051
-335.6047 -334.7325 1.7263 369.7912
-334.8616 -335.3806 1.7259 370.7772
-334.1157 -336.0255 1.7255 371.7632
-333.3671 -336.6672 1.7251 372.7492
-332.6157 -337.3056 1.7246 373.7352
-331.8616 -337.9408 1.7242 374.7212
-331.1048 -338.5727 1.7237 375.7071
-330.3453 -339.2014 1.7232 376.6931
-329.5831 -339.8268 1.7227 377.6790
-328.8182 -340.4488 1.7222 378.6649
-328.0506 -341.0676 1.7217 379.6508
-327.2804 -341.6830 1.7211 380.6367
-326.5076 -342.2951 1.7206 381.6226
-325.7321 -342.9039 1.7200 382.6084
-324.9541 -343.5093 1.7195 383.5943
-324.1735 -344.1114 1.7189 384.5801
-323.3902 -344.7101 1.7183 385.5659
-322.6045 -345.3054 1.7177 386.5517
-321.8161 -345.8973 1.7171 387.5375
-321.0253 -346.4857 1.7166 388.5233
-320.2319 -347.0708 1.7160 389.5091
-319.4360 -347.6525 1.7154 390.4949
-318.6376 -348.2307 1.7148 391.4807
-317.8368 -348.8054 1.7142 392.4664
-317.0334 -349.3767 1.7136 393.4521
-316.2277 -349.9445 1.7130 394.4379
-315.4195 -350.5089 1.7124 395.4236
-314.6089 -351.0697 1.7118 396.4093
-313.7958 -351.6271 1.7112 397.3951
-312.9804 -352.1809 1.7106 398.3808
-312.1626 -352.7312 1.7100 399.3665
-311.3425 -353.2780 1.7094 400.3522
-310.5200 -353.8212 1.7088 401.3379
-309.6951 -354.3609 1.7082 402.3236
-308.8680 -354.8971 1.7076 403.3093
-308.0385 -355.4296 1.7070 404.2951
-307.2068 -355.9586 1.7064 405.2808
-306.3728 -356.4840 1.7058 406.2665
-305.5365 -357.0058 1.7052 407.2522
-304.6980 -357.5240 1.7046 408.2379
-303.8572 -358.0386 1.7040 409.2236
-303.0143 -358.5495 1.7034 410.2093
-302.1692 -359.0569 1.7028 411.1950
-301.3218 -359.5605 1.7022 412.1808
-300.4724 -360.0605 1.7016 413.1665
-299.6207 -360.5569 1.7010 414.1522
-298.7670 -361.0496 1.7004 415.1379
-297.9111 -361.5386 1.6997 416.1236
-297.0531 -362.0239 1.6991 417.1094
-296.1931 -362.5056 1.6985 418.0951
-295.3309 -362.9835 1.6978 419.0808
-294.4668 -363.4576 1.6972 420.0666
-293.6006 -363.9281 1.6965 421.0523
-292.7324 -364.3949 1.6958 422.0380
-291.8621 -364.8578 1.6952 423.0237
-290.9899 -365.3171 1.6945 424.0094
-290.1158 -365.7726 1.6938 424.9951
-289.2397 -366.2243 1.6931 425.9809
-288.3616 -366.6722 1.6924 426.9666
-287.4816 -367.1164 1.6917 427.9523
-286.5998 -367.5567 1.6909 428.9380
-285.7160 -367.9933 1.6902 429.9236
-284.8304 -368.4260 1.6895 430.9093
-283.9430 -368.8549 1.6887 431.8950
-283.0536 -369.2800 1.6880 432.8807
-282.1626 -369.7013 1.6872 433.8663
-281.2697 -370.1187 1.6864 434.8520
-280.3750 -370.5323 1.6857 435.8376
-279.4785 -370.9420 1.6849 436.8233
-278.5803 -371.3478 1.6841 437.8089
-277.6804 -371.7498 1.6833 438.7945
-276.7788 -372.1478 1.6825 439.7801
-275.8755 -372.5420 1.6817 440.7657
-274.9704 -372.9323 1.6809 441.7513
-274.0638 -373.3187 1.6801 442.7368
-273.1555 -373.7011 1.6793 443.7224
-272.2455 -374.0797 1.6785 444.7079
-271.3340 -374.4543 1.6776 445.6935
-270.4208 -374.8250 1.6768 446.6790
-269.5060 -375.1917 1.6760 447.6645
-268.5898 -375.5545 1.6752 448.6500
-267.6719 -375.9133 1.6744 449.6355
-266.7525 -376.2682 1.6736 450.6210
-265.8317 -376.6191 1.6728 451.6065
-264.9093 -376.9660 1.6720 452.5919
-263.9854 -377.3090 1.6712 453.5774
-263.0601 -377.6479 1.6704 454.5629
-262.1333 -377.9829 1.6696 455.5483
-261.2051 -378.3139 1.6689 456.5338
-260.2755 -378.6408 1.6681 457.5192
-259.3445 -378.9638 1.6673 458.5046
-258.4121 -379.2827 1.6665 459.4900
-257.4784 -379.5976 1.6658 460.4754
-256.5433 -379.9085 1.6650 461.4609
-255.6069 -380.2154 1.6642 462.4463
-254.6691 -380.5182 1.6635 463.4317
-253.7301 -380.8169 1.6627 464.4171
-252.7898 -381.1116 1.6620 465.4025
-251.8482 -381.4023 1.6612 466.3879
-250.9054 -381.6889 1.6605 467.3734
-249.9613 -381.9714 1.6597 468.3588
-249.0161 -382.2498 1.6590 469.3442
-248.0697 -382.5242 1.6582 470.3296
-247.1220 -382.7945 1.6575 471.3150
-246.1733 -383.0607 1.6567 472.3004
-245.2233 -383.3228 1.6559 473.2859
-244.2723 -383.5808 1.6552 474.2713
-243.3202 -383.8348 1.6544 475.2567
-242.3669 -384.0846 1.6536 476.2421
-241.4126 -384.3303 1.6529 477.2275
-240.4573 -384.5719 1.6521 478.2130
-239.5009 -384.8094 1.6513 479.1984
-238.5435 -385.0427 1.6505 480.1838
-237.5851 -385.2719 1.6497 481.1693
-236.6257 -385.4970 1.6488 482.1547
-235.6654 -385.7180 1.6480 483.1401
-234.7041 -385.9348 1.6472 484.1255
-233.7419 -386.1474 1.6464 485.1110
-232.7788 -386.3560 1.6455 486.0964
-231.8148 -386.5603 1.6446 487.0818
-230.8499 -386.7605 1.6438 488.0673
-229.8842 -386.9566 1.6429 489.0527
-228.9176 -387.1485 1.6420 490.0381
-227.9502 -387.3362 1.6411 491.0235
-226.9821 -387.5197 1.6402 492.0089
-226.0131 -387.6991 1.6393 492.9943
-225.0434 -387.8743 1.6383 493.9797
-224.0730 -388.0453 1.6374 494.9651
-223.1018 -388.2121 1.6365 495.9505
-222.1300 -388.3747 1.6355 496.9359
-221.1574 -388.5331 1.6345 497.9213
-220.1842 -388.6874 1.6336 498.9066
-219.2103 -388.8374 1.6326 499.8920
-218.2358 -388.9832 1.6316 500.8773
-217.2607 -389.1249 1.6306 501.8627
-216.2850 -389.2623 1.6296 502.8480
-215.3088 -389.3955 1.6287 503.8333
-214.3319 -389.5245 1.6277 504.8186
-213.3546 -389.6492 1.6267 505.8039
-212.3767 -389.7698 1.6256 506.7892
-211.3983 -389.8861 1.6246 507.7745
-210.4194 -389.9982 1.6236 508.7598
-209.4401 -390.1060 1.6226 509.7450
-208.4603 -390.2097 1.6216 510.7302
-207.4801 -390.3091 1.6206 511.7155
-206.4995 -390.4043 1.6196 512.7007
-205.5185 -390.4952 1.6186 513.6859
-204.5372 -390.5819 1.6176 514.6711
-203.5555 -390.6643 1.6166 515.6562
-202.5734 -390.7426 1.6156 516.6414
-201.5910 -390.8165 1.6146 517.6265
-200.6084 -390.8862 1.6137 518.6117
-199.6254 -390.9517 1.6127 519.5968
-198.6422 -391.0129 1.6117 520.5819
-197.6588 -391.0699 1.6108 521.5670
-196.6751 -391.1226 1.6098 522.5521
-195.6913 -391.1711 1.6089 523.5372
-194.7072 -391.2153 1.6080 524.5222
-193.7230 -391.2552 1.6070 525.5073
-192.7386 -391.2909 1.6061 526.4922
-191.7541 -391.3224 1.6052 527.4773
-190.7694 -391.3496 1.6043 528.4623
-189.7847 -391.3725 1.6035 529.4473
-188.7999 -391.3912 1.6026 530.4323
-187.8150 -391.4056 1.6018 531.4172
-186.8301 -391.4158 1.6009 532.4022
-185.8452 -391.4217 1.6001 533.3871
-184.8603 -391.4234 1.5993 534.3721
-183.8754 -391.4208 1.5986 535.3570
-182.8905 -391.4139 1.5978 536.3419
-181.9056 -391.4028 1.5971 537.3268
-180.9208 -391.3875 1.5963 538.3118
-179.9361 -391.3679 1.5956 539.2966
-178.9516 -391.3440 1.5949 540.2815
-177.9671 -391.3159 1.5943 541.2664
-176.9827 -391.2836 1.5936 542.2513
-175.9986 -391.2471 1.5930 543.2361
-175.0145 -391.2063 1.5924 544.2210
-174.0307 -391.1613 1.5919 545.2058
-173.0471 -391.1120 1.5913 546.1907
-172.0637 -391.0585 1.5908 547.1755
-171.0806 -391.0009 1.5903 548.1603
-170.0977 -390.9390 1.5899 549.1452
-169.1151 -390.8729 1.5895 550.1300
-168.1327 -390.8026 1.5891 551.1149
-167.1507 -390.7282 1.5888 552.0997
-166.1690 -390.6496 1.5885 553.0845
-165.1877 -390.5668 1.5883 554.0694
-164.2067 -390.4799 1.5881 555.0542
-163.2261 -390.3888 1.5879 556.0391
-162.2458 -390.2936 1.5879 557.0239
-161.2660 -390.1943 1.5878 558.0088
-160.2866 -390.0909 1.5879 558.9937
-159.3076 -389.9834 1.5880 559.9785
-158.3291 -389.8719 1.5882 560.9634
-157.3510 -389.7562 1.5884 561.9482
-156.3734 -389.6366 1.5888 562.9331
-155.3963 -389.5129 1.5892 563.9180
-154.4197 -389.3851 1.5897 564.9030
-153.4436 -389.2534 1.5903 565.8879
-152.4680 -389.1177 1.5910 566.8729
-151.4930 -388.9780 1.5917 567.8578
-150.5186 -388.8344 1.5926 568.8428
-149.5446 -388.6868 1.5936 569.8279
-148.5713 -388.5352 1.5947 570.8129
-147.5986 -388.3798 1.5958 571.7980
-146.6265 -388.2204 1.5971 572.7831
-145.6550 -388.0572 1.5986 573.7682
-144.6841 -387.8900 1.6001 574.7534
-143.7138 -387.7191 1.6018 575.7386
-142.7442 -387.5443 1.6035 576.7238
-141.7753 -387.3656 1.6055 577.7091
-140.8070 -387.1832 1.6075 578.6945
-139.8394 -386.9969 1.6097 579.6798
-138.8724 -386.8069 1.6120 580.6652
-137.9062 -386.6131 1.6144 581.6507
-136.9407 -386.4155 1.6170 582.6363
-135.9759 -386.2143 1.6198 583.6218
-135.0118 -386.0092 1.6226 584.6075
-134.0484 -385.8005 1.6257 585.5932
-133.0858 -385.5881 1.6288 586.5790
-132.1239 -385.3721 1.6322 587.5648
-131.1628 -385.1523 1.6356 588.5508
-130.2024 -384.9290 1.6393 589.5367
-129.2428 -384.7020 1.6431 590.5228
-128.2840 -384.4713 1.6470 591.5090
-127.3260 -384.2372 1.6512 592.4952
-126.3688 -383.9994 1.6554 593.4816
-125.4124 -383.7580 1.6599 594.4680
-124.4567 -383.5131 1.6645 595.4545
-123.5019 -383.2647 1.6692 596.4412
-122.5479 -383.0128 1.6742 597.4279
-121.5948 -382.7573 1.6793 598.4147
-120.6424 -382.4984 1.6845 599.4016
-119.6910 -382.2360 1.6900 600.3886
-118.7403 -381.9702 1.6956 601.3757
-117.7905 -381.7009 1.7014 602.3630
-116.8416 -381.4282 1.7073 603.3503
-115.8935 -381.1521 1.7134 604.3378
-114.9463 -380.8726 1.7197 605.3254
-114.0000 -380.5898 1.7261 606.3131
-113.0546 -380.3036 1.7328 607.3010
-112.1100 -380.0140 1.7396 608.2889
-111.1663 -379.7211 1.7465 609.2770
-110.2236 -379.4249 1.7537 610.2653
-109.2817 -379.1255 1.7610 611.2536
-108.3407 -378.8227 1.7684 612.2421
-107.4007 -378.5167 1.7761 613.2307
-106.4615 -378.2075 1.7839 614.2195
-105.5233 -377.8950 1.7919 615.2084
-104.5860 -377.5793 1.8001 616.1974
-103.6497 -377.2604 1.8084 617.1866
-102.7143 -376.9384 1.8169 618.1760
-101.7798 -376.6131 1.8256 619.1655
-100.8462 -376.2848 1.8344 620.1552
-99.9137 -375.9533 1.8434 621.1450
-98.9820 -375.6187 1.8526 622.1349
-98.0513 -375.2809 1.8619 623.1250
-97.1216 -374.9402 1.8714 624.1152
-96.1928 -374.5963 1.8811 625.1057
-95.2650 -374.2494 1.8909 626.0963
-94.3382 -373.8995 1.9009 627.0870
-93.4123 -373.5465 1.9111 628.0779
-92.4875 -373.1906 1.9215 629.0690
-91.5636 -372.8316 1.9320 630.0602
-90.6406 -372.4697 1.9426 631.0516
-89.7187 -372.1049 1.9535 632.0432
-88.7977 -371.7371 1.9645 633.0349
-87.8778 -371.3664 1.9756 634.0269
-86.9588 -370.9928 1.9870 635.0189
-86.0408 -370.6162 1.9984 636.0112
-85.1239 -370.2369 2.0101 637.0036
-84.2079 -369.8546 2.0219 637.9962
-83.2929 -369.4695 2.0339 638.9890
-82.3789 -369.0816 2.0460 639.9819
-81.4659 -368.6909 2.0583 640.9751
-80.5540 -368.2974 2.0707 641.9684
-79.6430 -367.9011 2.0833 642.9619
-78.7331 -367.5021 2.0960 643.9556
-77.8241 -367.1003 2.1089 644.9495
-76.9162 -366.6958 2.1219 645.9435
-76.0093 -366.2885 2.1351 646.9377
-75.1034 -365.8786 2.1485 647.9321
-74.1985 -365.4660 2.1619 648.9268
-73.2947 -365.0508 2.1756 649.9216
-72.3918 -364.6328 2.1893 650.9165
-71.4900 -364.2123 2.2032 651.9117
-70.5892 -363.7892 2.2172 652.9070
-69.6894 -363.3634 2.2314 653.9025
-68.7907 -362.9351 2.2457 654.8982
-67.8930 -362.5042 2.2601 655.8941
-66.9963 -362.0707 2.2746 656.8901
-66.1006 -361.6347 2.2893 657.8864
-65.2060 -361.1963 2.3040 658.8828
-64.3124 -360.7553 2.3189 659.8795
-63.4198 -360.3118 2.3339 660.8762
-62.5283 -359.8659 2.3490 661.8732
-61.6377 -359.4175 2.3643 662.8703
-60.7483 -358.9667 2.3796 663.8676
-59.8598 -358.5135 2.3950 664.8651
-58.9724 -358.0580 2.4105 665.8627
-58.0860 -357.6000 2.4261 666.8605
-57.2007 -357.1396 2.4418 667.8585
-56.3164 -356.6770 2.4576 668.8567
-55.4332 -356.2120 2.4734 669.8550
-54.5509 -355.7447 2.4893 670.8535
-53.6698 -355.2751 2.5053 671.8521
-52.7896 -354.8033 2.5214 672.8508
-51.9105 -354.3292 2.5375 673.8497
-51.0325 -353.8528 2.5537 674.8488
-50.1554 -353.3742 2.5700 675.8481
-49.2795 -352.8935 2.5863 676.8474
-48.4045 -352.4105 2.6026 677.8470
-47.5306 -351.9254 2.6190 678.8466
-46.6578 -351.4382 2.6355 679.8464
-45.7859 -350.9488 2.6520 680.8463
-44.9152 -350.4573 2.6685 681.8464
-44.0454 -349.9637 2.6850 682.8465
-43.1767 -349.4680 2.7016 683.8469
-42.3091 -348.9703 2.7182 684.8472
-41.4425 -348.4705 2.7348 685.8478
-40.5769 -347.9687 2.7514 686.8484
-39.7123 -347.4649 2.7681 687.8492
-38.8488 -346.9591 2.7847 688.8501
-37.9864 -346.4513 2.8014 689.8511
-37.1249 -345.9416 2.8180 690.8522
-36.2645 -345.4299 2.8347 691.8533
-35.4052 -344.9163 2.8513 692.8546
-34.5468 -344.4008 2.8679 693.8560
-33.6895 -343.8835 2.8845 694.8575
-32.8332 -343.3642 2.9011 695.8590
-31.9780 -342.8431 2.9177 696.8607
-31.1237 -342.3202 2.9342 697.8624
-30.2705 -341.7954 2.9507 698.8642
-29.4183 -341.2689 2.9672 699.8660
-28.5672 -340.7406 2.9836 700.8680
-27.7170 -340.2105 3.0000 701.8700
-26.8679 -339.6787 3.0163 702.8721
-26.0198 -339.1451 3.0326 703.8741
-25.1726 -338.6099 3.0488 704.8763
-24.3265 -338.0729 3.0649 705.8786
-23.4814 -337.5343 3.0810 706.8809
-22.6373 -336.9940 3.0971 707.8832
-21.7942 -336.4520 3.1130 708.8856
-20.9521 -335.9084 3.1289 709.8881
-20.1110 -335.3633 3.1447 710.8906
-19.2709 -334.8165 3.1604 711.8931
-18.4317 -334.2681 3.1760 712.8956
-17.5936 -333.7182 3.1915 713.8982
-16.7564 -333.1667 3.2070 714.9008
-15.9202 -332.6138 3.2223 715.9034
-15.0849 -332.0593 3.2376 716.9061
-14.2506 -331.5033 3.2527 717.9088
-13.4173 -330.9458 3.2678 718.9114
-12.5850 -330.3868 3.2827 719.9142
-11.7536 -329.8265 3.2975 720.9169
-10.9231 -329.2646 3.3122 721.9197
-10.0936 -328.7014 3.3268 722.9224
-9.2651 -328.1368 3.3412 723.9252
-8.4375 -327.5708 3.3556 724.9280
-7.6108 -327.0034 3.3698 725.9307
-6.7850 -326.4347 3.3839 726.9335
-5.9601 -325.8646 3.3978 727.9363
-5.1362 -325.2932 3.4117 728.9390
-4.3132 -324.7205 3.4254 729.9418
-3.4911 -324.1465 3.4389 730.9446
-2.6698 -323.5712 3.4523 731.9473
-1.8495 -322.9947 3.4656 732.9501
-1.0301 -322.4169 3.4787 733.9528
-0.2115 -321.8379 3.4917 734.9555
0.6061 -321.2577 3.5046 735.9583
1.4229 -320.6762 3.5172 736.9609
2.2389 -320.0936 3.5298 737.9636
3.0539 -319.5098 3.5422 738.9662
3.8681 -318.9248 3.5544 739.9689
4.6815 -318.3387 3.5665 740.9715
5.4940 -317.7515 3.5784 741.9741
6.3057 -317.1631 3.5902 742.9766
7.1166 -316.5737 3.6018 743.9792
7.9266 -315.9832 3.6133 744.9817
8.7358 -315.3915 3.6246 745.9842
9.5443 -314.7989 3.6357 746.9866
10.3519 -314.2052 3.6466 747.9890
11.1587 -313.6104 3.6574 748.9915
11.9647 -313.0146 3.6681 749.9938
12.7699 -312.4179 3.6785 750.9961
13.5744 -311.8201 3.6888 751.9984
14.3781 -311.2214 3.6989 753.0007
15.1810 -310.6217 3.7089 754.0029
15.9832 -310.0210 3.7187 755.0051
16.7846 -309.4194 3.7283 756.0072
17.5853 -308.8169 3.7377 757.0093
18.3853 -308.2134 3.7469 758.0114
19.1845 -307.6091 3.7560 759.0134
19.9830 -307.0039 3.7649 760.0154
20.7808 -306.3978 3.7737 761.0174
21.5780 -305.7908 3.7822 762.0193
22.3744 -305.1830 3.7906 763.0212
23.1701 -304.5744 3.7988 764.0231
23.9652 -303.9649 3.8068 765.0249
24.7596 -303.3546 3.8147 766.0267
25.5533 -302.7436 3.8224 767.0284
26.3464 -302.1317 3.8299 768.0302
27.1388 -301.5191 3.8372 769.0318
27.9306 -300.9056 3.8444 770.0334
28.7218 -300.2915 3.8513 771.0350
29.5124 -299.6766 3.8581 772.0366
30.3023 -299.0610 3.8648 773.0381
31.0917 -298.4446 3.8712 774.0397
31.8804 -297.8276 3.8775 775.0411
32.6686 -297.2098 3.8836 776.0425
33.4562 -296.5914 3.8895 777.0439
34.2432 -295.9723 3.8953 778.0452
35.0297 -295.3526 3.9009 779.0466
35.8156 -294.7322 3.9064 780.0479
36.6009 -294.1111 3.9116 781.0491
37.3857 -293.4895 3.9167 782.0503
38.1700 -292.8672 3.9217 783.0515
38.9538 -292.2444 3.9264 784.0526
39.7371 -291.6209 3.9310 785.0537
40.5198 -290.9969 3.9355 786.0548
41.3021 -290.3723 3.9398 787.0558
42.0839 -289.7471 3.9439 788.0568
42.8652 -289.1215 3.9479 789.0578
43.6460 -288.4952 3.9517 790.0587
44.4263 -287.8685 3.9554 791.0596
45.2062 -287.2413 3.9589 792.0604
45.9857 -286.6135 3.9622 793.0613
46.7647 -285.9853 3.9654 794.0620
47.5433 -285.3566 3.9685 795.0627
48.3215 -284.7274 3.9714 796.0635
49.0992 -284.0978 3.9742 797.0641
49.8766 -283.4678 3.9768 798.0648
50.6535 -282.8373 3.9792 799.0653
51.4301 -282.2064 3.9816 800.0659
52.2063 -281.5751 3.9838 801.0664
52.9821 -280.9434 3.9858 802.0669
53.7576 -280.3113 3.9877 803.0673
54.5327 -279.6788 3.9895 804.0677
55.3075 -279.0460 3.9911 805.0681
56.0819 -278.4128 3.9926 806.0684
56.8560 -277.7793 3.9940 807.0687
57.6298 -277.1454 3.9953 808.0690
58.4033 -276.5113 3.9964 809.0692
59.1765 -275.8767 3.9974 810.0695
59.9494 -275.2419 3.9983 811.0696
60.7220 -274.6068 3.9990 812.0698
61.4944 -273.9715 3.9997 813.0699
62.2665 -273.3358 4.0002 814.0700
63.0383 -272.6999 4.0006 815.0701
63.8099 -272.0637 4.0009 816.0701
64.5813 -271.4273 4.0011 817.0702
65.3525 -270.7906 4.0012 818.0702
66.1234 -270.1537 4.0011 819.0701
66.8942 -269.5166 4.0010 820.0701
67.6647 -268.8793 4.0008 821.0701
68.4351 -268.2418 4.0005 822.0700
69.2053 -267.6041 4.0001 823.0699
69.9753 -266.9662 3.9996 824.0699
70.7452 -266.3282 3.9990 825.0698
71.5149 -265.6900 3.9984 826.0697
72.2845 -265.0516 3.9976 827.0696
73.0539 -264.4131 3.9968 828.0695
73.8233 -263.7744 3.9959 829.0693
74.5925 -263.1357 3.9950 830.0692
75.3616 -262.4968 3.9940 831.0690
76.1306 -261.8578 3.9929 832.0689
76.8995 -261.2187 3.9918 833.0687
77.6684 -260.5795 3.9906 834.0685
78.4371 -259.9402 3.9894 835.0684
79.2058 -259.3009 3.9881 836.0682
79.9745 -258.6614 3.9868 837.0681
80.7431 -258.0219 3.9854 838.0679
81.5116 -257.3824 3.9840 839.0677
82.2801 -256.7429 3.9826 840.0676
83.0485 -256.1032 3.9812 841.0674
83.8170 -255.4636 3.9797 842.0672
84.5854 -254.8239 3.9782 843.0670
85.3537 -254.1842 3.9767 844.0668
86.1221 -253.5445 3.9752 845.0666
86.8905 -252.9048 3.9736 846.0664
87.6588 -252.2651 3.9721 847.0662
88.4271 -251.6254 3.9705 848.0660
89.1955 -250.9857 3.9689 849.0657
89.9638 -250.3460 3.9673 850.0655
90.7321 -249.7063 3.9657 851.0653
91.5004 -249.0666 3.9641 852.0650
92.2688 -248.4270 3.9625 853.0648
93.0371 -247.7873 3.9609 854.0645
93.8054 -247.1477 3.9593 855.0642
94.5738 -246.5081 3.9576 856.0640
95.3421 -245.8685 3.9560 857.0637
96.1105 -245.2290 3.9544 858.0634
96.8788 -244.5895 3.9527 859.0630
97.6472 -243.9500 3.9511 860.0627
98.4156 -243.3105 3.9494 861.0624
99.1839 -242.6711 3.9478 862.0620
99.9523 -242.0317 3.9461 863.0616
100.7207 -241.3923 3.9444 864.0612
101.4891 -240.7530 3.9427 865.0609
102.2576 -240.1137 3.9410 866.0604
103.0260 -239.4744 3.9393 867.0601
103.7944 -238.8352 3.9376 868.0596
104.5629 -238.1959 3.9359 869.0591
105.3314 -237.5568 3.9342 870.0587
106.0998 -236.9176 3.9325 871.0583
106.8683 -236.2785 3.9308 872.0578
107.6369 -235.6394 3.9290 873.0573
108.4054 -235.0003 3.9273 874.0568
109.1739 -234.3613 3.9255 875.0563
109.9425 -233.7223 3.9237 876.0558
110.7111 -233.0833 3.9220 877.0554
111.4797 -232.4444 3.9202 878.0549
112.2483 -231.8055 3.9184 879.0543
113.0169 -231.1666 3.9166 880.0538
113.7856 -230.5277 3.9148 881.0533
114.5543 -229.8889 3.9130 882.0528
115.3230 -229.2501 3.9112 883.0523
116.0917 -228.6113 3.9094 884.0518
116.8604 -227.9726 3.9075 885.0513
117.6292 -227.3338 3.9057 886.0508
118.3980 -226.6951 3.9038 887.0502
119.1668 -226.0564 3.9020 888.0497
119.9356 -225.4178 3.9001 889.0493
120.7044 -224.7791 3.8983 890.0487
121.4733 -224.1405 3.8964 891.0482
122.2422 -223.5019 3.8946 892.0477
123.0112 -222.8634 3.8927 893.0472
123.7801 -222.2248 3.8908 894.0468
124.5491 -221.5863 3.8890 895.0463
125.3181 -220.9478 3.8871 896.0458
126.0871 -220.3093 3.8852 897.0453
126.8561 -219.6708 3.8833 898.0449
127.6252 -219.0323 3.8815 899.0444
128.3943 -218.3939 3.8796 900.0440
129.1634 -217.7555 3.8777 901.0436
129.9326 -217.1171 3.8759 902.0432
130.7017 -216.4787 3.8740 903.0427
131.4709 -215.8403 3.8722 904.0423
132.2401 -215.2020 3.8703 905.0419
133.0093 -214.5637 3.8685 906.0414
133.7786 -213.9254 3.8667 907.0410
134.5478 -213.2871 3.8649 908.0406
135.3171 -212.6488 3.8631 909.0402
136.0864 -212.0105 3.8613 910.0398
136.8557 -211.3723 3.8595 911.0394
137.6251 -210.7341 3.8577 912.0390
138.3944 -210.0959 3.8560 913.0386
139.1638 -209.4577 3.8542 914.0383
139.9332 -208.8195 3.8525 915.0378
140.7026 -208.1814 3.8508 916.0375
141.4720 -207.5432 3.8491 917.0370
142.2415 -206.9051 3.8474 918.0367
143.0109 -206.2670 3.8457 919.0363
143.7804 -205.6290 3.8441 920.0359
144.5498 -204.9909 3.8425 921.0355
145.3193 -204.3529 3.8408 922.0351
146.0888 -203.7148 3.8392 923.0347
146.8583 -203.0768 3.8377 924.0343
147.6278 -202.4389 3.8361 925.0339
148.3974 -201.8009 3.8346 926.0334
149.1669 -201.1629 3.8331 927.0331
149.9364 -200.5250 3.8316 928.0327
150.7060 -199.8871 3.8301 929.0322
151.4756 -199.2492 3.8286 930.0317
152.2451 -198.6114 3.8272 931.0313
153.0147 -197.9735 3.8258 932.0309
153.7843 -197.3357 3.8244 933.0304
154.5539 -196.6979 3.8230 934.0300
155.3235 -196.0601 3.8217 935.0295
156.0931 -195.4224 3.8204 936.0290
156.8627 -194.7846 3.8190 937.0285
157.6324 -194.1469 3.8178 938.0280
158.4020 -193.5092 3.8165 939.0275
159.1717 -192.8715 3.8152 940.0270
159.9413 -192.2338 3.8140 941.0265
160.7110 -191.5962 3.8128 942.0260
161.4806 -190.9586 3.8116 943.0255
162.2503 -190.3210 3.8104 944.0250
163.0200 -189.6834 3.8093 945.0244
163.7897 -189.0458 3.8081 946.0239
164.5594 -188.4083 3.8070 947.0234
165.3291 -187.7707 3.8059 948.0228
166.0988 -187.1332 3.8048 949.0223
166.8686 -186.4957 3.8037 950.0217
167.6384 -185.8582 3.8027 951.0212
168.4081 -185.2207 3.8016 952.0206
169.1779 -184.5833 3.8006 953.0201
169.9477 -183.9459 3.7996 954.0195
170.7175 -183.3084 3.7986 955.0190
171.4873 -182.6710 3.7977 956.0185
172.2572 -182.0336 3.7967 957.0179
173.0271 -181.3962 3.7958 958.0175
173.7969 -180.7589 3.7948 959.0169
174.5668 -180.1215 3.7939 960.0164
175.3367 -179.4841 3.7931 961.0159
176.1067 -178.8468 3.7922 962.0154
176.8766 -178.2094 3.7913 963.0150
177.6466 -177.5721 3.7905 964.0145
178.4166 -176.9348 3.7897 965.0140
179.1867 -176.2974 3.7889 966.0136
179.9567 -175.6601 3.7881 967.0132
180.7268 -175.0228 3.7873 968.0128
181.4969 -174.3855 3.7865 969.0123
182.2670 -173.7482 3.7858 970.0120
183.0371 -173.1109 3.7851 971.0116
183.8073 -172.4736 3.7844 972.0112
184.5775 -171.8363 3.7837 973.0109
185.3477 -171.1991 3.7831 974.0106
186.1179 -170.5618 3.7825 975.0103
186.8881 -169.9245 3.7819 976.0099
187.6584 -169.2872 3.7813 977.0096
188.4287 -168.6500 3.7807 978.0094
189.1990 -168.0127 3.7802 979.0091
189.9693 -167.3754 3.7796 980.0089
190.7397 -166.7382 3.7791 981.0086
191.5100 -166.1010 3.7787 982.0084
192.2804 -165.4637 3.7782 983.0082
193.0508 -164.8265 3.7778 984.0080
193.8213 -164.1892 3.7773 985.0078
194.5917 -163.5520 3.7769 986.0076
195.3622 -162.9148 3.7766 987.0074
196.1326 -162.2776 3.7762 988.0073
196.9031 -161.6404 3.7759 989.0071
197.6736 -161.0032 3.7756 990.0070
198.4441 -160.3660 3.7753 991.0068
199.2146 -159.7289 3.7750 992.0066
199.9852 -159.0917 3.7747 993.0065
200.7557 -158.4546 3.7745 994.0063
201.5263 -157.8174 3.7743 995.0062
202.2968 -157.1803 3.7741 996.0060
203.0674 -156.5432 3.7739 997.0059
203.8380 -155.9061 3.7737 998.0057
204.6086 -155.2690 3.7735 999.0056
205.3792 -154.6320 3.7733 1000.0054
206.1498 -153.9949 3.7732 1001.0052
206.9204 -153.3579 3.7731 1002.0051
207.6911 -152.7209 3.7729 1003.0049
208.4617 -152.0839 3.7728 1004.0047
209.2323 -151.4469 3.7727 1005.0045
210.0030 -150.8099 3.7726 1006.0043
210.7737 -150.1729 3.7725 1007.0042
211.5443 -149.5360 3.7724 1008.0040
212.3150 -148.8991 3.7722 1009.0038
213.0856 -148.2622 3.7721 1010.0035
213.8563 -147.6253 3.7720 1011.0034
214.6270 -146.9884 3.7719 1012.0031
215.3977 -146.3515 3.7718 1013.0029
216.1684 -145.7147 3.7717 1014.0027
216.9391 -145.0779 3.7716 1015.0024
217.7098 -144.4410 3.7715 1016.0022
218.4805 -143.8042 3.7714 1017.0020
219.2512 -143.1674 3.7713 1018.0018
220.0219 -142.5306 3.7711 1019.0015
220.7926 -141.8938 3.7710 1020.0013
221.5633 -141.2570 3.7708 1021.0010
222.3341 -140.6202 3.7706 1022.0008
223.1048 -139.9834 3.7705 1023.0005
223.8755 -139.3466 3.7703 1024.0002
224.6462 -138.7098 3.7701 1025.0000
225.4169 -138.0730 3.7699 1025.9998
226.1876 -137.4361 3.7696 1026.9995
226.9582 -136.7993 3.7694 1027.9993
227.7289 -136.1624 3.7691 1028.9990
228.4995 -135.5255 3.7688 1029.9989
229.2701 -134.8885 3.7685 1030.9987
230.0407 -134.2515 3.7681 1031.9984
230.8113 -133.6145 3.7678 1032.9982
231.5818 -132.9774 3.7674 1033.9979
232.3522 -132.3402 3.7669 1034.9977
233.1226 -131.7030 3.7664 1035.9976
233.8930 -131.0657 3.7659 1036.9973
234.6633 -130.4283 3.7653 1037.9972
235.4335 -129.7908 3.7647 1038.9969
236.2036 -129.1532 3.7641 1039.9968
236.9736 -128.5154 3.7633 1040.9966
237.7436 -127.8776 3.7626 1041.9965
238.5134 -127.2396 3.7617 1042.9963
239.2832 -126.6015 3.7608 1043.9961
240.0528 -125.9632 3.7599 1044.9960
240.8223 -125.3247 3.7588 1045.9958
241.5916 -124.6861 3.7577 1046.9957
242.3609 -124.0473 3.7566 1047.9957
243.1300 -123.4083 3.7553 1048.9956
243.8989 -122.7691 3.7540 1049.9955
244.6676 -122.1296 3.7525 1050.9955
245.4362 -121.4900 3.7510 1051.9954
246.2046 -120.8501 3.7494 1052.9954
246.9729 -120.2100 3.7477 1053.9954
247.7409 -119.5696 3.7459 1054.9954
248.5087 -118.9289 3.7440 1055.9954
249.2764 -118.2879 3.7420 1056.9954
250.0437 -117.6467 3.7399 1057.9954
250.8109 -117.0052 3.7377 1058.9955
251.5779 -116.3633 3.7354 1059.9955
252.3446 -115.7212 3.7329 1060.9956
253.1110 -115.0787 3.7304 1061.9957
253.8772 -114.4358 3.7277 1062.9960
254.6431 -113.7926 3.7249 1063.9961
255.4088 -113.1490 3.7220 1064.9963
256.1742 -112.5051 3.7190 1065.9966
256.9392 -111.8607 3.7158 1066.9968
257.7040 -111.2160 3.7125 1067.9972
258.4685 -110.5708 3.7091 1068.9974
259.2326 -109.9252 3.7056 1069.9978
259.9965 -109.2792 3.7019 1070.9983
260.7600 -108.6327 3.6981 1071.9987
261.5232 -107.9857 3.6942 1072.9991
262.2859 -107.3383 3.6901 1073.9998
263.0484 -106.6904 3.6860 1075.0002
263.8105 -106.0420 3.6816 1076.0009
264.5722 -105.3932 3.6772 1077.0015
265.3336 -104.7437 3.6726 1078.0022
266.0945 -104.0938 3.6679 1079.0029
266.8550 -103.4433 3.6631 1080.0037
267.6151 -102.7923 3.6581 1081.0045
268.3748 -102.1407 3.6530 1082.0054
269.1341 -101.4885 3.6477 1083.0063
269.8929 -100.8358 3.6423 1084.0073
270.6513 -100.1824 3.6368 1085.0083
271.4092 -99.5285 3.6312 1086.0094
272.1666 -98.8739 3.6254 1087.0105
272.9236 -98.2187 3.6195 1088.0116
273.6801 -97.5629 3.6135 1089.0128
274.4360 -96.9064 3.6073 1090.0140
275.1915 -96.2493 3.6010 1091.0154
275.9464 -95.5915 3.5945 1092.0167
276.7008 -94.9330 3.5880 1093.0181
277.4547 -94.2738 3.5813 1094.0194
278.2079 -93.6139 3.5744 1095.0209
278.9607 -92.9534 3.5675 1096.0225
279.7128 -92.2921 3.5604 1097.0239
280.4644 -91.6300 3.5532 1098.0255
281.2154 -90.9673 3.5458 1099.0272
281.9657 -90.3037 3.5383 1100.0289
282.7155 -89.6395 3.5307 1101.0306
283.4646 -88.9744 3.5229 1102.0323
284.2130 -88.3086 3.5151 1103.0342
284.9608 -87.6420 3.5070 1104.0360
285.7080 -86.9745 3.4989 1105.0378
286.4545 -86.3063 3.4906 1106.0398
287.2003 -85.6373 3.4822 1107.0417
287.9454 -84.9674 3.4736 1108.0437
288.6898 -84.2967 3.4649 1109.0458
289.4334 -83.6252 3.4561 1110.0477
290.1764 -82.9528 3.4471 1111.0498
290.9186 -82.2795 3.4380 1112.0520
291.6601 -81.6053 3.4288 1113.0541
292.4008 -80.9303 3.4194 1114.0564
293.1407 -80.2544 3.4099 1115.0586
293.8799 -79.5775 3.4002 1116.0608
294.6182 -78.8998 3.3904 1117.0631
295.3557 -78.2211 3.3805 1118.0654
296.0925 -77.5415 3.3705 1119.0679
296.8284 -76.8609 3.3602 1120.0702
297.5634 -76.1794 3.3499 1121.0726
298.2977 -75.4970 3.3394 1122.0752
299.0310 -74.8135 3.3288 1123.0776
299.7635 -74.1291 3.3181 1124.0802
300.4951 -73.4437 3.3072 1125.0828
301.2258 -72.7573 3.2961 1126.0853
301.9556 -72.0699 3.2850 1127.0880
302.6844 -71.3814 3.2737 1128.0906
303.4124 -70.6920 3.2622 1129.0933
304.1393 -70.0014 3.2507 1130.0961
304.8654 -69.3099 3.2390 1131.0988
305.5904 -68.6173 3.2271 1132.1016
306.3145 -67.9236 3.2152 1133.1044
307.0376 -67.2289 3.2031 1134.1072
307.7596 -66.5330 3.1909 1135.1100
308.4807 -65.8361 3.1785 1136.1129
309.2007 -65.1381 3.1661 1137.1158
309.9197 -64.4390 3.1535 1138.1187
310.6376 -63.7388 3.1408 1139.1217
311.3544 -63.0374 3.1280 1140.1246
312.0702 -62.3349 3.1150 1141.1276
312.7848 -61.6313 3.1020 1142.1305
313.4983 -60.9265 3.0888 1143.1335
314.2107 -60.2206 3.0755 1144.1366
314.9220 -59.5135 3.0621 1145.1395
315.6320 -58.8052 3.0487 1146.1426
316.3409 -58.0958 3.0351 1147.1455
317.0487 -57.3852 3.0214 1148.1486
317.7552 -56.6734 3.0076 1149.1516
318.4605 -55.9604 2.9937 1150.1547
319.1646 -55.2461 2.9797 1151.1576
319.8674 -54.5307 2.9657 1152.1606
320.5690 -53.8140 2.9515 1153.1636
321.2692 -53.0962 2.9373 1154.1666
321.9682 -52.3770 2.9230 1155.1696
322.6659 -51.6567 2.9086 1156.1725
323.3622 -50.9351 2.8942 1157.1754
324.0573 -50.2122 2.8796 1158.1782
324.7509 -49.4881 2.8651 1159.1812
325.4432 -48.7627 2.8504 1160.1840
326.1341 -48.0361 2.8357 1161.1868
326.8236 -47.3081 2.8209 1162.1895
327.5117 -46.5789 2.8061 1163.1921
328.1983 -45.8484 2.7913 1164.1948
328.8835 -45.1166 2.7763 1165.1975
329.5673 -44.3835 2.7614 1166.2001
330.2495 -43.6491 2.7464 1167.2025
330.9302 -42.9134 2.7314 1168.2051
331.6095 -42.1763 2.7163 1169.2074
332.2871 -41.4380 2.7012 1170.2097
332.9633 -40.6983 2.6861 1171.2120
333.6379 -39.9572 2.6710 1172.2142
334.3109 -39.2149 2.6559 1173.2164
334.9823 -38.4712 2.6407 1174.2184
335.6521 -37.7261 2.6255 1175.2205
336.3202 -36.9797 2.6104 1176.2223
336.9867 -36.2319 2.5952 1177.2241
337.6516 -35.4828 2.5800 1178.2258
338.3148 -34.7323 2.5648 1179.2275
338.9762 -33.9804 2.5496 1180.2290
339.6360 -33.2271 2.5345 1181.2305
340.2940 -32.4725 2.5193 1182.2318
340.9503 -31.7165 2.5042 1183.2330
341.6048 -30.9591 2.4891 1184.2343
342.2576 -30.2003 2.4739 1185.2354
342.9085 -29.4401 2.4589 1186.2362
343.5577 -28.6784 2.4438 1187.2371
344.2050 -27.9154 2.4288 1188.2378
344.8505 -27.1510 2.4138 1189.2384
345.4941 -26.3852 2.3988 1190.2389
346.1359 -25.6179 2.3839 1191.2393
346.7757 -24.8492 2.3690 1192.2395
347.4137 -24.0791 2.3541 1193.2396
348.0497 -23.3076 2.3393 1194.2397
348.6838 -22.5346 2.3245 1195.2396
349.3159 -21.7602 2.3097 1196.2394
349.9461 -20.9843 2.2950 1197.2390
350.5743 -20.2070 2.2804 1198.2385
351.2005 -19.4283 2.2658 1199.2379
351.8246 -18.6481 2.2512 1200.2372
352.4467 -17.8664 2.2367 1201.2362
353.0668 -17.0833 2.2223 1202.2352
353.6848 -16.2987 2.2079 1203.2340
354.3007 -15.5127 2.1936 1204.2328
354.9146 -14.7252 2.1793 1205.2313
355.5262 -13.9363 2.1651 1206.2297
356.1358 -13.1458 2.1509 1207.2280
356.7432 -12.3539 2.1368 1208.2262
357.3485 -11.5605 2.1228 1209.2241
357.9515 -10.7657 2.1088 1210.2219
358.5524 -9.9694 2.0949 1211.2197
359.1511 -9.1715 2.0811 1212.2172
359.7475 -8.3722 2.0674 1213.2146
360.3416 -7.5715 2.0537 1214.2118
360.9336 -6.7692 2.0401 1215.2089
361.5232 -5.9654 2.0266 1216.2058
362.1105 -5.1602 2.0131 1217.2026
362.6955 -4.3535 1.9998 1218.1992
363.2782 -3.5452 1.9865 1219.1957
363.8585 -2.7355 1.9733 1220.1919
364.4364 -1.9243 1.9602 1221.1880
365.0120 -1.1116 1.9472 1222.1840
365.5851 -0.2974 1.9343 1223.1798
366.1559 0.5183 1.9215 1224.1754
366.7242 1.3355 1.9087 1225.1709
367.2900 2.1542 1.8961 1226.1661
367.8534 2.9744 1.8836 1227.1613
368.4143 3.7961 1.8712 1228.1562
368.9726 4.6193 1.8589 1229.1510
369.5285 5.4440 1.8467 1230.1456
370.0818 6.2702 1.8347 1231.1400
370.6326 7.0979 1.8227 1232.1343
371.1808 7.9270 1.8109 1233.1284
371.7263 8.7577 1.7992 1234.1223
372.2693 9.5899 1.7876 1235.1161
372.8097 10.4236 1.7761 1236.1096
373.3474 11.2588 1.7648 1237.1030
373.8824 12.0955 1.7536 1238.0962
374.4148 12.9337 1.7425 1239.0892
374.9445 13.7734 1.7316 1240.0820
375.4714 14.6146 1.7208 1241.0747
375.9956 15.4573 1.7102 1242.0673
376.5171 16.3015 1.6997 1243.0596
377.0359 17.1472 1.6894 1244.0518
377.5518 17.9944 1.6792 1245.0437
378.0649 18.8430 1.6692 1246.0355
378.5753 19.6932 1.6593 1247.0271
379.0828 20.5449 1.6496 1248.0187
379.5874 21.3981 1.6400 1249.0099
380.0892 22.2527 1.6306 1250.0011
380.5881 23.1089 1.6214 1250.9921
381.0841 23.9666 1.6123 1251.9828
381.5772 24.8257 1.6034 1252.9734
382.0674 25.6864 1.5946 1253.9639
382.5546 26.5485 1.5860 1254.9542
383.0388 27.4121 1.5776 1255.9443
383.5201 28.2772 1.5693 1256.9344
383.9984 29.1438 1.5613 1257.9242
384.4737 30.0119 1.5533 1258.9139
384.9459 30.8814 1.5456 1259.9034
385.4151 31.7525 1.5380 1260.8928
385.8812 32.6250 1.5306 1261.8821
386.3443 33.4990 1.5234 1262.8712
386.8042 34.3745 1.5163 1263.8602
387.2611 35.2514 1.5094 1264.8490
387.7148 36.1298 1.5026 1265.8378
388.1654 37.0097 1.4961 1266.8263
388.6128 37.8911 1.4896 1267.8148
389.0571 38.7739 1.4834 1268.8031
389.4982 39.6582 1.4773 1269.7913
389.9360 40.5439 1.4714 1270.7794
390.3707 41.4311 1.4656 1271.7673
390.8021 42.3197 1.4600 1272.7551
391.2302 43.2098 1.4546 1273.7429
391.6551 44.1014 1.4493 1274.7305
392.0767 44.9944 1.4442 1275.7180
392.4949 45.8888 1.4392 1276.7054
392.9099 46.7846 1.4344 1277.6927
393.3215 47.6819 1.4297 1278.6799
393.7298 48.5806 1.4252 1279.6670
394.1347 49.4807 1.4208 1280.6541
394.5363 50.3822 1.4165 1281.6410
394.9344 51.2852 1.4124 1282.6278
395.3291 52.1895 1.4084 1283.6145
395.7203 53.0953 1.4046 1284.6012
396.1082 54.0024 1.4009 1285.5878
396.4925 54.9109 1.3973 1286.5742
396.8734 55.8209 1.3939 1287.5607
397.2508 56.7321 1.3906 1288.5470
397.6246 57.6448 1.3874 1289.5332
397.9949 58.5588 1.3843 1290.5194
398.3617 59.4742 1.3813 1291.5056
398.7249 60.3909 1.3785 1292.4916
399.0846 61.3090 1.3757 1293.4777
399.4406 62.2284 1.3731 1294.4636
399.7930 63.1492 1.3706 1295.4495
400.1418 64.0712 1.3682 1296.4353
400.4869 64.9946 1.3659 1297.4210
400.8284 65.9193 1.3636 1298.4067
401.1661 66.8453 1.3615 1299.3925
401.5002 67.7725 1.3595 1300.3781
401.8306 68.7011 1.3576 1301.3636
402.1572 69.6309 1.3557 1302.3491
402.4801 70.5620 1.3539 1303.3346
402.7992 71.4943 1.3523 1304.3201
403.1145 72.4279 1.3507 1305.3054
403.4261 73.3627 1.3491 1306.2908
403.7338 74.2987 1.3477 1307.2761
404.0376 75.2359 1.3463 1308.2614
404.3376 76.1744 1.3450 1309.2466
404.6338 77.1140 1.3437 1310.2318
404.9261 78.0548 1.3426 1311.2169
405.2145 78.9968 1.3414 1312.2021
405.4989 79.9399 1.3404 1313.1873
405.7794 80.8842 1.3394 1314.1722
406.0560 81.8296 1.3384 1315.1573
406.3286 82.7762 1.3375 1316.1423
406.5973 83.7238 1.3367 1317.1273
406.8619 84.6725 1.3359 1318.1123
407.1225 85.6224 1.3352 1319.0972
407.3791 86.5732 1.3345 1320.0820
407.6317 87.5252 1.3338 1321.0670
407.8802 88.4782 1.3332 1322.0519
408.1246 89.4322 1.3326 1323.0366
408.3650 90.3872 1.3321 1324.0215
408.6012 91.3432 1.3316 1325.0062
408.8334 92.3003 1.3311 1325.9910
409.0614 93.2582 1.3307 1326.9757
409.2853 94.2172 1.3303 1327.9604
409.5051 95.1770 1.3299 1328.9452
409.7207 96.1378 1.3296 1329.9299
409.9322 97.0995 1.3293 1330.9146
410.1395 98.0621 1.3291 1331.8992
410.3426 99.0256 1.3289 1332.8839
410.5415 99.9899 1.3287 1333.8685
410.7363 100.9551 1.3285 1334.8531
410.9269 101.9211 1.3284 1335.8378
411.1133 102.8878 1.3283 1336.8223
411.2954 103.8554 1.3283 1337.8069
411.4734 104.8238 1.3283 1338.7915
411.6472 105.7929 1.3283 1339.7761
411.8167 106.7628 1.3284 1340.7606
411.9821 107.7334 1.3285 1341.7452
412.1432 108.7047 1.3287 1342.7299
412.3001 109.6767 1.3288 1343.7144
412.4528 110.6494 1.3291 1344.6990
412.6012 111.6227 1.3293 1345.6836
412.7454 112.5967 1.3296 1346.6682
412.8854 113.5713 1.3299 1347.6528
413.0211 114.5465 1.3303 1348.6375
413.1526 115.5223 1.3307 1349.6221
413.2798 116.4987 1.3311 1350.6067
413.4029 117.4757 1.3316 1351.5913
413.5216 118.4531 1.3321 1352.5760
413.6361 119.4312 1.3326 1353.5607
413.7464 120.4097 1.3332 1354.5454
413.8524 121.3887 1.3338 1355.5302
413.9541 122.3682 1.3344 1356.5149
414.0516 123.3481 1.3351 1357.4998
414.1449 124.3285 1.3358 1358.4845
414.2339 125.3093 1.3365 1359.4694
414.3186 126.2906 1.3372 1360.4542
414.3990 127.2722 1.3380 1361.4391
414.4752 128.2542 1.3387 1362.4241
414.5472 129.2365 1.3395 1363.4091
414.6148 130.2191 1.3403 1364.3940
414.6783 131.2021 1.3412 1365.3790
414.7374 132.1854 1.3420 1366.3641
414.7923 133.1690 1.3429 1367.3492
414.8429 134.1528 1.3437 1368.3344
414.8893 135.1368 1.3446 1369.3195
414.9313 136.1211 1.3455 1370.3047
414.9691 137.1056 1.3464 1371.2899
415.0027 138.0903 1.3473 1372.2751
415.0320 139.0752 1.3482 1373.2605
415.0570 140.0602 1.3491 1374.2457
415.0778 141.0453 1.3500 1375.2311
415.0942 142.0306 1.3509 1376.2166
415.1064 143.0159 1.3518 1377.2019
415.1144 144.0014 1.3528 1378.1874
415.1181 144.9868 1.3537 1379.1729
415.1175 145.9724 1.3546 1380.1584
415.1126 146.9579 1.3555 1381.1440
415.1035 147.9435 1.3563 1382.1296
415.0901 148.9290 1.3572 1383.1152
415.0725 149.9145 1.3581 1384.1008
415.0506 150.8999 1.3590 1385.0865
415.0244 151.8853 1.3598 1386.0723
414.9939 152.8706 1.3607 1387.0580
414.9592 153.8557 1.3615 1388.0438
414.9203 154.8407 1.3623 1389.0295
414.8770 155.8256 1.3631 1390.0154
414.8295 156.8103 1.3639 1391.0012
414.7778 157.7948 1.3647 1391.9871
414.7218 158.7791 1.3655 1392.9730
414.6615 159.7632 1.3662 1393.9589
414.5970 160.7470 1.3669 1394.9448
414.5283 161.7306 1.3676 1395.9308
414.4552 162.7139 1.3683 1396.9167
414.3780 163.6968 1.3690 1397.9028
414.2965 164.6795 1.3696 1398.8888
414.2107 165.6618 1.3702 1399.8749
414.1207 166.6437 1.3708 1400.8608
414.0265 167.6252 1.3714 1401.8469
413.9280 168.6064 1.3719 1402.8330
413.8253 169.5871 1.3725 1403.8191
413.7183 170.5674 1.3730 1404.8052
413.6071 171.5472 1.3734 1405.7913
413.4917 172.5266 1.3739 1406.7775
413.3721 173.5054 1.3743 1407.7635
413.2482 174.4837 1.3747 1408.7498
413.1201 175.4615 1.3751 1409.7358
412.9878 176.4387 1.3755 1410.7220
412.8512 177.4154 1.3758 1411.7081
412.7105 178.3914 1.3761 1412.6943
412.5655 179.3669 1.3764 1413.6804
412.4164 180.3417 1.3767 1414.6666
412.2630 181.3159 1.3769 1415.6528
412.1054 182.2894 1.3771 1416.6389
411.9436 183.2622 1.3774 1417.6251
411.7776 184.2343 1.3775 1418.6113
411.6074 185.2056 1.3777 1419.5974
411.4330 186.1762 1.3779 1420.5836
411.2544 187.1461 1.3780 1421.5698
411.0717 188.1152 1.3781 1422.5559
410.8847 189.0835 1.3782 1423.5421
410.6936 190.0509 1.3783 1424.5283
410.4983 191.0175 1.3784 1425.5144
410.2988 191.9833 1.3785 1426.5006
410.0952 192.9482 1.3785 1427.4867
409.8874 193.9122 1.3786 1428.4729
409.6754 194.8753 1.3786 1429.4590
409.4593 195.8374 1.3787 1430.4452
409.2390 196.7987 1.3787 1431.4313
409.0146 197.7589 1.3787 1432.4175
408.7860 198.7182 1.3787 1433.4036
408.5533 199.6765 1.3787 1434.3896
408.3164 200.6338 1.3787 1435.3759
408.0754 201.5900 1.3787 1436.3619
407.8302 202.5452 1.3787 1437.3481
407.5810 203.4993 1.3787 1438.3342
407.3276 204.4523 1.3787 1439.3204
407.0701 205.4043 1.3787 1440.3065
406.8085 206.3551 1.3787 1441.2927
406.5428 207.3047 1.3787 1442.2788
406.2729 208.2533 1.3786 1443.2650
405.9990 209.2006 1.3786 1444.2512
405.7210 210.1468 1.3786 1445.2373
405.4389 211.0917 1.3786 1446.2235
405.1527 212.0355 1.3786 1447.2097
404.8624 212.9780 1.3786 1448.1958
404.5681 213.9192 1.3785 1449.1820
404.2697 214.8592 1.3785 1450.1682
403.9672 215.7979 1.3785 1451.1544
403.6607 216.7352 1.3785 1452.1406
403.3501 217.6713 1.3784 1453.1268
403.0355 218.6060 1.3784 1454.1130
402.7168 219.5393 1.3784 1455.0994
402.3941 220.4713 1.3783 1456.0856
402.0674 221.4018 1.3783 1457.0719
401.7367 222.3310 1.3782 1458.0581
401.4019 223.2587 1.3782 1459.0444
401.0632 224.1850 1.3781 1460.0306
400.7204 225.1098 1.3780 1461.0170
400.3736 226.0332 1.3779 1462.0033
400.0229 226.9550 1.3778 1462.9896
399.6682 227.8754 1.3777 1463.9760
399.3095 228.7942 1.3776 1464.9623
398.9468 229.7115 1.3774 1465.9487
398.5802 230.6271 1.3773 1466.9351
398.2096 231.5412 1.3771 1467.9214
397.8351 232.4538 1.3769 1468.9077
397.4566 233.3646 1.3767 1469.8942
397.0742 234.2739 1.3764 1470.8805
396.6880 235.1815 1.3762 1471.8669
396.2977 236.0874 1.3759 1472.8533
395.9036 236.9916 1.3756 1473.8397
395.5056 237.8942 1.3753 1474.8260
395.1037 238.7950 1.3750 1475.8125
394.6978 239.6940 1.3746 1476.7990
394.2882 240.5913 1.3742 1477.7853
393.8747 241.4869 1.3738 1478.7717
393.4573 242.3806 1.3734 1479.7581
393.0360 243.2725 1.3729 1480.7445
392.6109 244.1626 1.3724 1481.7308
392.1820 245.0508 1.3719 1482.7173
391.7493 245.9372 1.3714 1483.7036
391.3127 246.8217 1.3708 1484.6899
390.8724 247.7043 1.3703 1485.6763
390.4282 248.5850 1.3697 1486.6627
389.9803 249.4637 1.3690 1487.6490
389.5286 250.3405 1.3684 1488.6353
389.0731 251.2153 1.3677 1489.6216
388.6138 252.0882 1.3670 1490.6079
388.1508 252.9590 1.3663 1491.5941
387.6841 253.8278 1.3656 1492.5804
387.2136 254.6946 1.3648 1493.5667
386.7393 255.5594 1.3641 1494.5529
386.2614 256.4220 1.3633 1495.5392
385.7798 257.2826 1.3625 1496.5253
385.2944 258.1411 1.3617 1497.5115
384.8054 258.9974 1.3609 1498.4977
384.3127 259.8517 1.3601 1499.4838
383.8163 260.7038 1.3592 1500.4700
383.3162 261.5537 1.3584 1501.4561
382.8125 262.4014 1.3575 1502.4421
382.3051 263.2469 1.3567 1503.4282
381.7942 264.0903 1.3558 1504.4143
381.2795 264.9314 1.3550 1505.4004
380.7613 265.7703 1.3541 1506.3864
380.2394 266.6069 1.3532 1507.3724
379.7140 267.4412 1.3524 1508.3584
379.1849 268.2733 1.3515 1509.3445
378.6523 269.1030 1.3506 1510.3304
378.1161 269.9305 1.3498 1511.3164
377.5763 270.7556 1.3489 1512.3024
377.0330 271.5783 1.3481 1513.2883
376.4861 272.3987 1.3472 1514.2744
