VERSION 0.7
FIELDS x y z arclength speed lapdistance
SIZE 4 4 4 4 4 4
TYPE F F F F F F
COUNT 1 1 1 1 1 1
WIDTH 875
HEIGHT 1
VIEWPOINT 0.000 0.000 0.000 1.000 0.000 0.000 0.000
POINTS 875
DATA ascii
-498.9631 2.2748 -380.1053 1020.3062 43.1798 1020.3065
-499.3622 2.2807 -381.5517 1021.8066 43.6986 1021.8070
-499.7615 2.2876 -382.9980 1023.3071 44.2058 1023.3075
-500.1611 2.2955 -384.4443 1024.8075 44.7019 1024.8079
-500.5607 2.3043 -385.8905 1026.3080 45.1875 1026.3083
-500.9602 2.3139 -387.3368 1027.8083 45.6630 1027.8087
-501.3592 2.3241 -388.7832 1029.3088 46.1287 1029.3092
-501.7570 2.3347 -390.2299 1030.8093 46.5852 1030.8097
-502.1539 2.3452 -391.6769 1032.3098 47.0327 1032.3102
-502.5494 2.3555 -393.1243 1033.8102 47.4715 1033.8107
-502.9431 2.3653 -394.5721 1035.3107 47.9021 1035.3112
-503.3346 2.3745 -396.0206 1036.8112 48.3247 1036.8116
-503.7237 2.3833 -397.4696 1038.3115 48.7396 1038.3120
-504.1103 2.3917 -398.9194 1039.8120 49.1470 1039.8124
-504.4952 2.3999 -400.3696 1041.3125 49.5473 1041.3129
-504.8789 2.4080 -401.8201 1042.8129 49.9406 1042.8132
-505.2620 2.4162 -403.2708 1044.3134 50.3272 1044.3137
-505.6447 2.4244 -404.7216 1045.8138 50.7073 1045.8142
-506.0271 2.4328 -406.1725 1047.3142 51.0811 1047.3146
-506.4092 2.4412 -407.6234 1048.8147 51.4488 1048.8151
-506.7912 2.4497 -409.0744 1050.3152 51.8105 1050.3156
-507.1733 2.4581 -410.5253 1051.8156 52.1666 1051.8159
-507.5558 2.4666 -411.9762 1053.3160 52.5170 1053.3164
-507.9389 2.4750 -413.4269 1054.8165 52.8621 1054.8169
-508.3227 2.4835 -414.8774 1056.3170 53.2018 1056.3174
-508.7071 2.4921 -416.3277 1057.8174 53.5365 1057.8177
-509.0923 2.5011 -417.7778 1059.3179 53.8662 1059.3181
-509.4778 2.5106 -419.2279 1060.8184 54.1910 1060.8186
-509.8631 2.5206 -420.6779 1062.3187 54.5112 1062.3190
-510.2478 2.5312 -422.1282 1063.8192 54.8267 1063.8195
-510.6314 2.5418 -423.5787 1065.3197 55.1377 1065.3199
-511.0140 2.5522 -425.0294 1066.8201 55.4444 1066.8203
-511.3954 2.5621 -426.4806 1068.3206 55.7469 1068.3208
-511.7748 2.5713 -427.9323 1069.8210 56.0452 1069.8213
-512.1509 2.5797 -429.3848 1071.3214 56.3394 1071.3217
-512.5224 2.5878 -430.8384 1072.8219 56.6297 1072.8220
-512.8874 2.5958 -432.2939 1074.3224 56.9162 1074.3225
-513.2438 2.6040 -433.7514 1075.8228 57.1988 1075.8230
-513.5898 2.6123 -435.2114 1077.3232 57.4778 1077.3235
-513.9236 2.6206 -436.6742 1078.8237 57.7532 1078.8240
-514.2444 2.6286 -438.1400 1080.3242 58.0251 1080.3245
-514.5521 2.6362 -439.6086 1081.8246 58.2935 1081.8250
-514.8476 2.6435 -441.0796 1083.3251 58.5586 1083.3254
-515.1324 2.6505 -442.5527 1084.8256 58.8203 1084.8258
-515.4086 2.6575 -444.0275 1086.3259 59.0788 1086.3263
-515.6782 2.6647 -445.5035 1087.8264 59.3342 1087.8267
-515.9425 2.6722 -446.9804 1089.3269 59.5865 1089.3271
-516.2018 2.6803 -448.4583 1090.8273 59.8358 1090.8275
-516.4557 2.6891 -449.9371 1092.3278 60.0820 1092.3280
-516.7034 2.6985 -451.4169 1093.8282 60.3254 1093.8285
-516.9440 2.7083 -452.8979 1095.3286 60.5659 1095.3289
-517.1769 2.7184 -454.3800 1096.8291 60.8037 1096.8292
-517.4021 2.7284 -455.8635 1098.3296 61.0386 1098.3297
-517.6199 2.7379 -457.3480 1099.8300 61.2709 1099.8301
-517.8312 2.7468 -458.8334 1101.3304 61.5006 1101.3306
-518.0367 2.7548 -460.3197 1102.8309 61.7276 1102.8311
-518.2374 2.7619 -461.8067 1104.3314 61.9522 1104.3315
-518.4327 2.7683 -463.2943 1105.8318 62.1742 1105.8319
-518.6219 2.7741 -464.7828 1107.3323 62.3938 1107.3324
-518.8033 2.7795 -466.2722 1108.8328 62.6110 1108.8328
-518.9760 2.7850 -467.7627 1110.3331 62.8258 1110.3333
-519.1399 2.7906 -469.2542 1111.8336 63.0383 1111.8337
-519.2960 2.7968 -470.7464 1113.3341 63.2485 1113.3342
-519.4457 2.8035 -472.2394 1114.8345 63.4564 1114.8346
-519.5895 2.8108 -473.7329 1116.3350 63.6622 1116.3351
-519.7275 2.8186 -475.2270 1117.8354 63.8658 1117.8356
-519.8590 2.8269 -476.7216 1119.3358 64.0673 1119.3359
-519.9838 2.8355 -478.2168 1120.8363 64.2666 1120.8363
-520.1016 2.8444 -479.7126 1122.3368 64.4640 1122.3369
-520.2122 2.8534 -481.2090 1123.8372 64.6593 1123.8373
-520.3156 2.8625 -482.7059 1125.3376 64.8526 1125.3378
-520.4118 2.8717 -484.2033 1126.8381 65.0439 1126.8384
-520.5009 2.8810 -485.7010 1128.3386 65.2333 1128.3389
-520.5829 2.8904 -487.1992 1129.8390 65.4208 1129.8392
-520.6580 2.8998 -488.6978 1131.3395 65.6065 1131.3397
-520.7261 2.9092 -490.1967 1132.8400 65.7903 1132.8402
-520.7875 2.9187 -491.6959 1134.3403 65.9723 1134.3407
-520.8420 2.9282 -493.1954 1135.8408 66.1525 1135.8412
-520.8897 2.9376 -494.6950 1137.3413 66.3309 1137.3417
-520.9305 2.9471 -496.1949 1138.8417 66.5076 1138.8420
-520.9641 2.9564 -497.6950 1140.3422 66.6827 1140.3425
-520.9899 2.9657 -499.1952 1141.8427 66.8560 1141.8430
-521.0075 2.9747 -500.6955 1143.3430 67.0277 1143.3434
-521.0165 2.9835 -502.1959 1144.8435 67.1977 1144.8439
-521.0164 2.9920 -503.6964 1146.3440 67.3662 1146.3445
-521.0065 3.0001 -505.1967 1147.8445 67.5331 1147.8450
-520.9864 3.0078 -506.6970 1149.3448 67.6984 1149.3453
-520.9551 3.0152 -508.1971 1150.8453 67.8621 1150.8457
-520.9120 3.0221 -509.6969 1152.3458 68.0244 1152.3462
-520.8568 3.0288 -511.1963 1153.8462 68.1851 1153.8466
-520.7889 3.0353 -512.6952 1155.3467 68.3444 1155.3470
-520.7085 3.0417 -514.1935 1156.8472 68.5022 1156.8475
-520.6155 3.0478 -515.6910 1158.3475 68.6586 1158.3478
-520.5101 3.0536 -517.1877 1159.8480 68.8136 1159.8484
-520.3932 3.0592 -518.6836 1161.3485 68.9672 1161.3489
-520.2668 3.0645 -520.1787 1162.8489 69.1194 1162.8492
-520.1337 3.0699 -521.6732 1164.3494 69.2702 1164.3497
-519.9973 3.0755 -523.1674 1165.8499 69.4197 1165.8502
-519.8598 3.0813 -524.6616 1167.3502 69.5679 1167.3506
-519.7223 3.0872 -526.1557 1168.8507 69.7147 1168.8511
-519.5850 3.0930 -527.6499 1170.3512 69.8603 1170.3516
-519.4482 3.0986 -529.1441 1171.8517 70.0046 1171.8521
-519.3120 3.1039 -530.6384 1173.3521 70.1477 1173.3524
-519.1764 3.1091 -532.1327 1174.8525 70.2895 1174.8529
-519.0418 3.1142 -533.6270 1176.3530 70.4301 1176.3534
-518.9082 3.1193 -535.1215 1177.8534 70.5695 1177.8538
-518.7754 3.1243 -536.6161 1179.3539 70.7076 1179.3542
-518.6434 3.1292 -538.1107 1180.8544 70.8446 1180.8547
-518.5118 3.1341 -539.6053 1182.3547 70.9805 1182.3551
-518.3806 3.1390 -541.1000 1183.8552 71.1152 1183.8556
-518.2493 3.1439 -542.5947 1185.3557 71.2487 1185.3561
-518.1180 3.1487 -544.0894 1186.8561 71.3812 1186.8564
-517.9866 3.1536 -545.5842 1188.3566 71.5125 1188.3571
-517.8554 3.1584 -547.0789 1189.8571 71.6427 1189.8574
-517.7248 3.1634 -548.5735 1191.3574 71.7719 1191.3578
-517.5950 3.1684 -550.0683 1192.8579 71.8999 1192.8583
-517.4664 3.1736 -551.5632 1194.3584 72.0269 1194.3588
-517.3397 3.1789 -553.0583 1195.8589 72.1529 1195.8593
-517.2148 3.1843 -554.5536 1197.3593 72.2779 1197.3596
-517.0919 3.1899 -556.0490 1198.8597 72.4018 1198.8601
-516.9702 3.1955 -557.5445 1200.3602 72.5247 1200.3606
-516.8495 3.2013 -559.0401 1201.8606 72.6466 1201.8611
-516.7295 3.2071 -560.5358 1203.3611 72.7675 1203.3616
-516.6103 3.2130 -562.0314 1204.8616 72.8875 1204.8621
-516.4918 3.2190 -563.5272 1206.3619 73.0065 1206.3623
-516.3738 3.2250 -565.0229 1207.8624 73.1245 1207.8628
-516.2563 3.2311 -566.5187 1209.3629 73.2416 1209.3633
-516.1392 3.2372 -568.0146 1210.8633 73.3578 1210.8636
-516.0222 3.2432 -569.5104 1212.3638 73.4730 1212.3641
-515.9052 3.2491 -571.0063 1213.8643 73.5874 1213.8646
-515.7883 3.2548 -572.5023 1215.3646 73.7008 1215.3651
-515.6713 3.2604 -573.9982 1216.8651 73.8133 1216.8656
-515.5542 3.2658 -575.4940 1218.3656 73.9250 1218.3660
-515.4371 3.2711 -576.9898 1219.8661 74.0358 1219.8665
-515.3203 3.2762 -578.4857 1221.3665 74.1457 1221.3668
-515.2039 3.2812 -579.9816 1222.8669 74.2548 1222.8672
-515.0886 3.2861 -581.4775 1224.3674 74.3630 1224.3677
-514.9746 3.2908 -582.9737 1225.8678 74.4704 1225.8680
-514.8624 3.2955 -584.4699 1227.3683 74.5770 1227.3685
-514.7516 3.3000 -585.9662 1228.8688 74.6827 1228.8690
-514.6415 3.3046 -587.4626 1230.3691 74.7877 1230.3694
-514.5310 3.3090 -588.9589 1231.8696 74.8918 1231.8699
-514.4188 3.3134 -590.4552 1233.3701 74.9952 1233.3704
-514.3041 3.3178 -591.9513 1234.8705 75.0977 1234.8707
-514.1870 3.3222 -593.4471 1236.3710 75.1995 1236.3712
-514.0676 3.3267 -594.9429 1237.8715 75.3005 1237.8717
-513.9464 3.3313 -596.4384 1239.3718 75.4008 1239.3722
-513.8241 3.3360 -597.9339 1240.8723 75.5003 1240.8727
-513.7013 3.3409 -599.4293 1242.3728 75.5991 1242.3730
-513.5783 3.3460 -600.9246 1243.8733 75.6971 1243.8735
-513.4553 3.3511 -602.4200 1245.3737 75.7944 1245.3739
-513.3323 3.3564 -603.9153 1246.8741 75.8910 1246.8744
-513.2094 3.3619 -605.4107 1248.3746 75.9868 1248.3748
-513.0866 3.3674 -606.9061 1249.8750 76.0820 1249.8751
-512.9639 3.3729 -608.4014 1251.3755 76.1764 1251.3756
-512.8411 3.3785 -609.8969 1252.8760 76.2702 1252.8760
-512.7183 3.3841 -611.3922 1254.3763 76.3632 1254.3763
-512.5954 3.3897 -612.8876 1255.8768 76.4556 1255.8768
-512.4721 3.3953 -614.3829 1257.3773 76.5473 1257.3773
-512.3484 3.4007 -615.8783 1258.8777 76.6384 1258.8777
-512.2238 3.4061 -617.3736 1260.3782 76.7288 1260.3783
-512.0978 3.4114 -618.8687 1261.8787 76.8185 1261.8787
-511.9701 3.4166 -620.3636 1263.3792 76.9076 1263.3792
-511.8404 3.4216 -621.8585 1264.8795 76.9960 1264.8795
-511.7088 3.4266 -623.3531 1266.3800 77.0838 1266.3800
-511.5756 3.4316 -624.8477 1267.8805 77.1710 1267.8805
-511.4414 3.4367 -626.3421 1269.3809 77.2575 1269.3809
-511.3069 3.4419 -627.8364 1270.8813 77.3434 1270.8813
-511.1726 3.4474 -629.3308 1272.3818 77.4287 1272.3817
-511.0387 3.4532 -630.8253 1273.8822 77.5135 1273.8821
-510.9053 3.4590 -632.3198 1275.3827 77.5976 1275.3826
-510.7725 3.4649 -633.8143 1276.8832 77.6811 1276.8831
-510.6403 3.4708 -635.3090 1278.3835 77.7640 1278.3834
-510.5085 3.4764 -636.8036 1279.8840 77.8463 1279.8839
-510.3771 3.4816 -638.2982 1281.3845 77.9281 1281.3844
-510.2458 3.4864 -639.7929 1282.8849 78.0092 1282.8848
-510.1141 3.4908 -641.2877 1284.3854 78.0899 1284.3854
-509.9813 3.4946 -642.7822 1285.8859 77.7158 1285.8857
-509.8465 3.4979 -644.2766 1287.3864 76.9793 1287.3862
-509.7090 3.5007 -645.7707 1288.8867 76.2381 1288.8866
-509.5682 3.5029 -647.2645 1290.3872 75.4920 1290.3871
-509.4235 3.5045 -648.7580 1291.8877 74.7409 1291.8876
-509.2737 3.5054 -650.2510 1293.3881 73.9847 1293.3881
-509.1175 3.5056 -651.7432 1294.8885 73.2233 1294.8885
-508.9537 3.5052 -653.2348 1296.3890 72.4564 1296.3890
-508.7812 3.5040 -654.7253 1297.8894 71.6840 1297.8894
-508.5991 3.5024 -656.2146 1299.3899 70.9059 1299.3899
-508.4062 3.5004 -657.7026 1300.8904 70.1218 1300.8904
-508.2016 3.4982 -659.1890 1302.3907 69.3317 1302.3907
-507.9839 3.4960 -660.6736 1303.8912 68.5353 1303.8912
-507.7522 3.4940 -662.1561 1305.3917 67.7325 1305.3917
-507.5053 3.4923 -663.6361 1306.8921 66.9229 1306.8921
-507.2426 3.4909 -665.1135 1308.3926 67.0940 1308.3927
-506.9645 3.4898 -666.5879 1309.8931 67.2634 1309.8932
-506.6721 3.4888 -668.0596 1311.3936 67.4312 1311.3937
-506.3673 3.4878 -669.5287 1312.8939 67.5975 1312.8940
-506.0524 3.4871 -670.9958 1314.3944 67.7622 1314.3947
-505.7291 3.4868 -672.4611 1315.8949 67.9254 1315.8951
-505.3986 3.4868 -673.9247 1317.3953 68.0870 1317.3955
-505.0622 3.4874 -675.3869 1318.8958 68.2472 1318.8960
-504.7212 3.4886 -676.8481 1320.3962 68.4059 1320.3965
-504.3766 3.4904 -678.3083 1321.8966 68.5632 1321.8969
-504.0281 3.4929 -679.7678 1323.3971 68.7190 1323.3972
-503.6750 3.4959 -681.2261 1324.8976 68.8734 1324.8977
-503.3159 3.4992 -682.6830 1326.3979 69.0265 1326.3982
-502.9495 3.5025 -684.1380 1327.8984 69.1782 1327.8987
-502.5752 3.5057 -685.5910 1329.3989 69.3285 1329.3990
-502.1933 3.5087 -687.0421 1330.8993 69.4775 1330.8995
-501.8043 3.5116 -688.4912 1332.3998 69.6251 1332.3999
-501.4085 3.5145 -689.9384 1333.9003 69.7715 1333.9004
-501.0056 3.5172 -691.3838 1335.4008 69.9166 1335.4009
-500.5949 3.5198 -692.8269 1336.9011 70.0604 1336.9012
-500.1755 3.5221 -694.2675 1338.4016 70.2029 1338.4017
-499.7466 3.5242 -695.7054 1339.9021 70.3443 1339.9022
-499.3075 3.5259 -697.1401 1341.4025 70.4844 1341.4026
-498.8576 3.5273 -698.5715 1342.9030 70.6233 1342.9031
-498.3968 3.5285 -699.9995 1344.4034 70.7610 1344.4037
-497.9256 3.5294 -701.4241 1345.9038 70.8976 1345.9041
-497.4449 3.5303 -702.8455 1347.4043 71.0330 1347.4045
-496.9558 3.5310 -704.2640 1348.9048 71.1672 1348.9050
-496.4594 3.5314 -705.6800 1350.4052 71.3003 1350.4055
-495.9560 3.5314 -707.0934 1351.9056 71.4323 1351.9060
-495.4459 3.5310 -708.5045 1353.4061 71.5632 1353.4064
-494.9291 3.5303 -709.9131 1354.9065 71.6930 1354.9067
-494.4054 3.5298 -711.3192 1356.4070 71.8218 1356.4071
-493.8751 3.5297 -712.7228 1357.9075 71.9494 1357.9076
-493.3381 3.5300 -714.1238 1359.4080 72.0760 1359.4081
-492.7947 3.5308 -715.5225 1360.9083 72.2016 1360.9086
-492.2450 3.5319 -716.9186 1362.4088 72.3261 1362.4091
-491.6890 3.5330 -718.3123 1363.9093 72.4497 1363.9095
-491.1267 3.5340 -719.7034 1365.4097 72.5722 1365.4099
-490.5580 3.5347 -721.0919 1366.9102 72.6937 1366.9104
-489.9824 3.5352 -722.4775 1368.4106 72.8143 1368.4109
-489.3996 3.5354 -723.8601 1369.9110 72.9339 1369.9113
-488.8091 3.5355 -725.2394 1371.4115 73.0525 1371.4117
-488.2110 3.5354 -726.6155 1372.9120 73.1701 1372.9121
-487.6058 3.5353 -727.9886 1374.4124 73.2869 1374.4126
-486.9944 3.5351 -729.3589 1375.9128 73.4027 1375.9131
-486.3778 3.5350 -730.7268 1377.4133 73.5176 1377.4136
-485.7565 3.5349 -732.0926 1378.9137 73.6316 1378.9139
-485.1306 3.5349 -733.4562 1380.4142 73.7446 1380.4144
-484.4997 3.5350 -734.8175 1381.9147 73.8568 1381.9149
-483.8633 3.5352 -736.1763 1383.4152 73.9682 1383.4154
-483.2205 3.5357 -737.5321 1384.9155 74.0786 1384.9158
-482.5705 3.5364 -738.8845 1386.4160 74.1882 1386.4163
-481.9129 3.5375 -740.2332 1387.9165 74.2970 1387.9167
-481.2476 3.5389 -741.5780 1389.4169 74.4049 1389.4171
-480.5748 3.5407 -742.9192 1390.9174 74.5119 1390.9176
-479.8953 3.5427 -744.2570 1392.4178 74.6182 1392.4181
-479.2096 3.5449 -745.5916 1393.9182 74.7236 1393.9185
-478.5180 3.5473 -746.9231 1395.4187 74.8282 1395.4189
-477.8207 3.5496 -748.2517 1396.9192 74.9321 1396.9194
-477.1179 3.5518 -749.5774 1398.4196 75.0351 1398.4199
-476.4094 3.5540 -750.9001 1399.9200 75.1374 1399.9204
-475.6954 3.5562 -752.2197 1401.4205 75.2389 1401.4209
-474.9757 3.5583 -753.5363 1402.9210 75.3396 1402.9214
-474.2504 3.5602 -754.8499 1404.4214 75.4396 1404.4218
-473.5195 3.5620 -756.1603 1405.9219 75.5388 1405.9222
-472.7830 3.5635 -757.4676 1407.4224 75.6373 1407.4227
-472.0410 3.5648 -758.7717 1408.9227 75.7350 1408.9231
-471.2933 3.5657 -760.0726 1410.4232 75.8320 1410.4236
-470.5399 3.5662 -761.3702 1411.9237 75.9283 1411.9241
-469.7806 3.5663 -762.6644 1413.4241 76.0239 1413.4246
-469.0149 3.5661 -763.9547 1414.9246 76.1188 1414.9250
-468.2418 3.5657 -765.2407 1416.4250 75.9825 1416.4255
-467.4604 3.5652 -766.5216 1417.9254 75.2348 1417.9259
-466.6697 3.5646 -767.7968 1419.4259 74.4819 1419.4264
-465.8688 3.5642 -769.0656 1420.9264 73.7240 1420.9268
-465.0570 3.5639 -770.3274 1422.4268 72.9607 1422.4271
-464.2339 3.5639 -771.5819 1423.9272 72.4126 1423.9276
-463.3994 3.5639 -772.8289 1425.4277 72.5354 1425.4281
-462.5536 3.5640 -774.0683 1426.9282 72.6573 1426.9286
-461.6971 3.5640 -775.3003 1428.4286 72.7781 1428.4291
-460.8308 3.5639 -776.5255 1429.9291 72.8980 1429.9296
-459.9563 3.5638 -777.7448 1431.4296 73.0169 1431.4301
-459.0755 3.5637 -778.9595 1432.9299 73.1348 1432.9304
-458.1905 3.5637 -780.1712 1434.4304 73.2519 1434.4310
-457.3029 3.5639 -781.3810 1435.9309 73.3679 1435.9315
-456.4143 3.5643 -782.5900 1437.4313 73.4831 1437.4319
-455.5253 3.5650 -783.7987 1438.9318 73.5974 1438.9324
-454.6358 3.5659 -785.0071 1440.4323 73.7107 1440.4327
-453.7450 3.5670 -786.2145 1441.9326 73.8232 1441.9332
-452.8512 3.5683 -787.4197 1443.4331 73.9348 1443.4337
-451.9522 3.5697 -788.6210 1444.9336 74.0455 1444.9342
-451.0462 3.5711 -789.8171 1446.4340 74.1553 1446.4346
-450.1319 3.5726 -791.0068 1447.9344 74.2643 1447.9352
-449.2089 3.5741 -792.1898 1449.4349 74.3725 1449.4357
-448.2773 3.5755 -793.3660 1450.9354 74.4798 1450.9360
-447.3376 3.5769 -794.5357 1452.4358 74.5863 1452.4364
-446.3904 3.5783 -795.6994 1453.9363 74.6920 1453.9369
-445.4367 3.5797 -796.8577 1455.4368 74.7969 1455.4374
-444.4773 3.5812 -798.0114 1456.9371 74.9009 1456.9377
-443.5131 3.5828 -799.1611 1458.4376 75.0042 1458.4384
-442.5446 3.5844 -800.3071 1459.9381 75.1067 1459.9388
-441.5720 3.5860 -801.4497 1461.4385 75.2084 1461.4392
-440.5953 3.5876 -802.5887 1462.9390 75.3094 1462.9397
-439.6145 3.5889 -803.7242 1464.4395 75.4096 1464.4402
-438.6293 3.5901 -804.8559 1465.9398 75.5090 1465.9406
-437.6394 3.5908 -805.9834 1467.4403 75.6077 1467.4410
-436.6443 3.5912 -807.1064 1468.9408 75.7057 1468.9414
-435.6439 3.5912 -808.2247 1470.4412 75.8029 1470.4418
-434.6379 3.5910 -809.3380 1471.9417 75.8994 1471.9424
-433.6262 3.5906 -810.4460 1473.4421 75.9952 1473.4429
-432.6085 3.5903 -811.5486 1474.9426 76.0903 1474.9432
-431.5844 3.5902 -812.6451 1476.4430 76.1847 1476.4436
-430.5534 3.5904 -813.7354 1477.9435 76.2784 1477.9441
-429.5154 3.5908 -814.8187 1479.4440 76.3714 1479.4446
-428.4702 3.5916 -815.8952 1480.9443 76.4637 1480.9449
-427.4182 3.5926 -816.9651 1482.4448 76.5554 1482.4454
-426.3600 3.5937 -818.0290 1483.9453 76.6463 1483.9459
-425.2963 3.5948 -819.0872 1485.4457 76.7367 1485.4463
-424.2275 3.5959 -820.1402 1486.9462 76.8263 1486.9468
-423.1538 3.5969 -821.1884 1488.4467 76.9154 1488.4473
-422.0756 3.5979 -822.2319 1489.9470 77.0037 1489.9476
-420.9932 3.5988 -823.2709 1491.4475 77.0915 1491.4481
-419.9069 3.5998 -824.3060 1492.9480 77.1786 1492.9486
-418.8170 3.6008 -825.3372 1494.4484 77.2651 1494.4491
-417.7232 3.6019 -826.3644 1495.9489 77.3510 1495.9496
-416.6250 3.6030 -827.3868 1497.4493 77.4362 1497.4501
-415.5211 3.6041 -828.4032 1498.9498 77.5209 1498.9506
-414.4109 3.6051 -829.4125 1500.4502 77.6049 1500.4509
-413.2938 3.6059 -830.4141 1501.9507 77.6884 1501.9513
-412.1699 3.6067 -831.4082 1503.4512 77.7712 1503.4518
-411.0396 3.6075 -832.3951 1504.9515 77.8535 1504.9523
-409.9038 3.6083 -833.3754 1506.4520 77.9352 1506.4528
-408.7629 3.6093 -834.3500 1507.9525 78.0164 1507.9531
-407.6177 3.6105 -835.3193 1509.4529 78.0969 1509.4535
-406.4685 3.6120 -836.2841 1510.9534 78.1769 1510.9540
-405.3156 3.6138 -837.2444 1512.4539 78.2563 1512.4545
-404.1594 3.6160 -838.2006 1513.9542 78.3352 1513.9548
-403.0002 3.6185 -839.1534 1515.4547 78.4136 1515.4553
-401.8386 3.6215 -840.1031 1516.9552 78.4914 1516.9558
-400.6749 3.6247 -841.0503 1518.4557 78.5686 1518.4563
-399.5098 3.6282 -841.9957 1519.9561 78.6453 1519.9567
-398.3431 3.6319 -842.9393 1521.4565 78.7215 1521.4572
-397.1748 3.6360 -843.8808 1522.9570 78.7972 1522.9578
-396.0042 3.6407 -844.8193 1524.4574 78.8723 1524.4580
-394.8304 3.6462 -845.7539 1525.9579 78.9470 1525.9585
-393.6526 3.6524 -846.6835 1527.4584 79.0211 1527.4590
-392.4702 3.6591 -847.6072 1528.9587 79.0947 1528.9594
-391.2828 3.6657 -848.5244 1530.4592 79.1678 1530.4598
-390.0900 3.6721 -849.4346 1531.9597 79.2404 1531.9602
-388.8915 3.6782 -850.3373 1533.4601 79.3125 1533.4606
-387.6873 3.6841 -851.2324 1534.9606 79.3842 1534.9611
-386.4774 3.6901 -852.1199 1536.4611 79.4553 1536.4617
-385.2622 3.6964 -852.9999 1537.9614 79.5260 1537.9620
-384.0417 3.7029 -853.8727 1539.4619 79.5962 1539.4624
-382.8161 3.7099 -854.7383 1540.9624 79.6659 1540.9630
-381.5853 3.7170 -855.5965 1542.4629 79.7351 1542.4634
-380.3491 3.7241 -856.4470 1543.9633 79.8039 1543.9640
-379.1075 3.7309 -857.2893 1545.4637 79.8722 1545.4645
-377.8603 3.7373 -858.1234 1546.9642 79.9401 1546.9648
-376.6076 3.7432 -858.9493 1548.4646 80.0075 1548.4652
-375.3498 3.7487 -859.7673 1549.9651 80.0745 1549.9657
-374.0872 3.7538 -860.5780 1551.4656 80.1410 1551.4661
-372.8203 3.7587 -861.3819 1552.9659 80.2070 1552.9664
-371.5494 3.7633 -862.1795 1554.4664 80.2727 1554.4670
-370.2748 3.7679 -862.9712 1555.9669 80.3379 1555.9675
-368.9969 3.7723 -863.7574 1557.4673 80.4026 1557.4679
-367.7160 3.7768 -864.5389 1558.9678 80.4670 1558.9684
-366.4329 3.7813 -865.3167 1560.4683 80.5309 1560.4689
-365.1480 3.7858 -866.0914 1561.9686 80.5944 1561.9692
-363.8616 3.7905 -866.8638 1563.4691 80.6575 1563.4697
-362.5740 3.7954 -867.6342 1564.9696 80.7201 1564.9702
-361.2852 3.8003 -868.4024 1566.4701 80.7824 1566.4707
-359.9949 3.8054 -869.1683 1567.9705 80.8443 1567.9711
-358.7030 3.8105 -869.9312 1569.4709 80.9057 1569.4714
-357.4086 3.8157 -870.6901 1570.9714 80.9667 1570.9719
-356.1110 3.8208 -871.4434 1572.4718 81.0274 1572.4723
-354.8091 3.8257 -872.1894 1573.9723 81.0876 1573.9728
-353.5025 3.8305 -872.9269 1575.4728 81.1475 1575.4733
-352.1913 3.8353 -873.6562 1576.9731 81.2070 1576.9736
-350.8763 3.8402 -874.3787 1578.4736 81.2661 1578.4740
-349.5587 3.8453 -875.0966 1579.9741 81.3248 1579.9745
-348.2396 3.8508 -875.8116 1581.4745 81.3831 1581.4749
-346.9197 3.8566 -876.5251 1582.9750 81.4411 1582.9753
-345.5989 3.8627 -877.2372 1584.4755 81.4986 1584.4758
-344.2770 3.8688 -877.9470 1585.9758 81.5558 1585.9762
-342.9534 3.8750 -878.6536 1587.4763 81.6127 1587.4767
-341.6273 3.8812 -879.3555 1588.9768 81.6692 1588.9772
-340.2983 3.8876 -880.0519 1590.4773 81.7253 1590.4777
-338.9663 3.8943 -880.7427 1591.9777 81.7811 1591.9780
-337.6315 3.9012 -881.4281 1593.4781 81.8364 1593.4785
-336.2940 3.9084 -882.1080 1594.9786 81.8915 1594.9790
-334.9536 3.9160 -882.7823 1596.4790 81.9462 1596.4794
-333.6102 3.9239 -883.4504 1597.9795 82.0006 1597.9799
-332.2633 3.9320 -884.1116 1599.4800 82.0546 1599.4803
-330.9127 3.9402 -884.7652 1600.9803 82.1082 1600.9807
-329.5582 3.9483 -885.4109 1602.4808 82.1616 1602.4813
-328.2001 3.9561 -886.0486 1603.9813 82.2145 1603.9817
-326.8384 3.9636 -886.6787 1605.4817 82.2672 1605.4821
-325.4735 3.9711 -887.3020 1606.9822 82.3195 1606.9825
-324.1059 3.9787 -887.9192 1608.4827 82.3715 1608.4832
-322.7360 3.9866 -888.5312 1609.9830 82.4232 1609.9835
-321.3641 3.9953 -889.1389 1611.4835 82.4745 1611.4840
-319.9904 4.0049 -889.7426 1612.9840 82.5255 1612.9845
-318.6154 4.0156 -890.3428 1614.4845 82.5762 1614.4850
-317.2389 4.0273 -890.9400 1615.9849 82.6266 1615.9854
-315.8614 4.0402 -891.5345 1617.4854 82.6767 1617.4858
-314.4828 4.0540 -892.1267 1618.9858 82.7264 1618.9863
-313.1033 4.0686 -892.7168 1620.4862 82.7759 1620.4867
-311.7230 4.0841 -893.3050 1621.9867 82.8250 1621.9872
-310.3419 4.1001 -893.8913 1623.4872 82.8739 1623.4877
-308.9600 4.1165 -894.4755 1624.9875 82.9224 1624.9880
-307.5768 4.1333 -895.0568 1626.4880 82.9706 1626.4885
-306.1916 4.1503 -895.6333 1627.9885 82.3828 1627.9890
-304.8035 4.1672 -896.2026 1629.4889 81.6743 1629.4894
-303.4115 4.1840 -896.7625 1630.9894 80.9618 1630.9899
-302.0154 4.2006 -897.3120 1632.4899 81.0224 1632.4904
-300.6155 4.2168 -897.8521 1633.9902 81.0827 1633.9908
-299.2131 4.2326 -898.3853 1635.4907 81.1426 1635.4913
-297.8092 4.2476 -898.9146 1636.9912 81.2021 1636.9918
-296.4046 4.2616 -899.4423 1638.4917 81.2612 1638.4923
-294.9999 4.2745 -899.9693 1639.9921 80.8711 1639.9927
-293.5950 4.2862 -900.4961 1641.4926 80.1539 1641.4932
-292.1900 4.2968 -901.0227 1642.9930 79.4324 1642.9937
-290.7849 4.3067 -901.5490 1644.4934 78.7066 1644.4940
-289.3796 4.3160 -902.0746 1645.9939 77.9763 1645.9945
-287.9740 4.3251 -902.5997 1647.4944 77.2414 1647.4950
-286.5681 4.3345 -903.1241 1648.9948 76.5019 1648.9954
-285.1620 4.3448 -903.6474 1650.4952 75.7576 1650.4958
-283.7553 4.3564 -904.1692 1651.9957 75.0083 1651.9963
-282.3477 4.3694 -904.6887 1653.4961 74.2539 1653.4967
-280.9389 4.3837 -905.2048 1654.9966 73.4943 1654.9971
-279.5284 4.3989 -905.7163 1656.4971 72.7294 1656.4977
-278.1157 4.4149 -906.2217 1657.9976 71.9590 1657.9982
-276.7003 4.4310 -906.7194 1659.4979 71.1829 1659.4985
-275.2816 4.4472 -907.2078 1660.9984 70.4010 1660.9990
-273.8592 4.4630 -907.6848 1662.4989 69.6130 1662.4995
-272.4323 4.4786 -908.1489 1663.9993 68.8189 1663.9999
-271.0010 4.4938 -908.5988 1665.4998 68.0183 1665.5004
-269.5651 4.5087 -909.0340 1667.0002 67.6784 1667.0009
-268.1248 4.5232 -909.4542 1668.5006 67.7538 1668.5012
-266.6802 4.5374 -909.8593 1670.0011 67.9170 1670.0016
-265.2316 4.5512 -910.2499 1671.5016 68.0788 1671.5021
-263.7794 4.5647 -910.6270 1673.0020 68.2390 1673.0026
-262.3241 4.5779 -910.9921 1674.5024 68.3978 1674.5029
-260.8665 4.5909 -911.3478 1676.0029 68.5552 1676.0034
-259.4074 4.6038 -911.6976 1677.5033 68.7111 1677.5039
-257.9477 4.6163 -912.0447 1679.0038 68.8656 1679.0044
-256.4877 4.6287 -912.3908 1680.5043 69.0187 1680.5049
-255.0278 4.6410 -912.7372 1682.0048 69.1704 1682.0054
-253.5682 4.6533 -913.0844 1683.5051 69.3208 1683.5057
-252.1088 4.6656 -913.4326 1685.0056 69.4698 1685.0061
-250.6496 4.6779 -913.7817 1686.5061 69.6176 1686.5066
-249.1907 4.6903 -914.1320 1688.0065 69.7640 1688.0070
-247.7320 4.7025 -914.4829 1689.5070 69.9092 1689.5074
-246.2731 4.7147 -914.8337 1691.0074 70.0530 1691.0079
-244.8140 4.7271 -915.1830 1692.5078 70.1957 1692.5082
-243.3539 4.7396 -915.5285 1694.0083 70.3371 1694.0087
-241.8925 4.7522 -915.8679 1695.5088 70.4772 1695.5092
-240.4291 4.7647 -916.1990 1697.0092 70.6162 1697.0095
-238.9635 4.7770 -916.5203 1698.5096 70.7540 1698.5100
-237.4957 4.7889 -916.8314 1700.0101 70.8906 1700.0105
-236.0258 4.8004 -917.1326 1701.5105 71.0261 1701.5109
-234.5543 4.8117 -917.4259 1703.0110 71.1604 1703.0114
-233.0816 4.8229 -917.7130 1704.5115 71.2935 1704.5118
-231.6080 4.8341 -917.9955 1706.0120 71.4256 1706.0123
-230.1336 4.8455 -918.2739 1707.5123 71.5565 1707.5128
-228.6585 4.8568 -918.5481 1709.0128 71.6864 1709.0133
-227.1825 4.8682 -918.8177 1710.5133 71.8152 1710.5138
-225.7056 4.8796 -919.0820 1712.0137 71.9429 1712.0142
-224.2276 4.8909 -919.3402 1713.5142 72.0696 1713.5146
-222.7485 4.9023 -919.5919 1715.0146 72.1952 1715.0150
-221.2682 4.9136 -919.8367 1716.5150 72.3198 1716.5154
-219.7867 4.9249 -920.0742 1718.0155 72.4434 1718.0159
-218.3040 4.9360 -920.3047 1719.5160 72.5659 1719.5164
-216.8204 4.9470 -920.5283 1721.0164 72.6875 1721.0167
-215.3359 4.9579 -920.7457 1722.5168 72.8081 1722.5172
-213.8506 4.9687 -920.9578 1724.0173 72.9277 1724.0177
-212.3646 4.9794 -921.1655 1725.5177 73.0464 1725.5181
-210.8781 4.9902 -921.3695 1727.0182 73.1641 1727.0186
-209.3912 5.0010 -921.5702 1728.5187 73.2809 1728.5190
-207.9039 5.0119 -921.7681 1730.0192 73.3968 1730.0194
-206.4163 5.0231 -921.9636 1731.5195 73.5117 1731.5199
-204.9284 5.0345 -922.1570 1733.0200 73.6257 1733.0204
-203.4402 5.0461 -922.3488 1734.5205 73.7389 1734.5209
-201.9519 5.0581 -922.5389 1736.0209 73.8511 1736.0212
-200.4634 5.0703 -922.7276 1737.5214 73.9625 1737.5217
-198.9747 5.0827 -922.9146 1739.0219 74.0730 1739.0222
-197.4858 5.0952 -923.0998 1740.5222 74.1826 1740.5227
-195.9967 5.1077 -923.2833 1742.0227 74.2914 1742.0231
-194.5073 5.1202 -923.4650 1743.5232 74.3993 1743.5236
-193.0177 5.1328 -923.6448 1745.0236 74.5065 1745.0240
-191.5279 5.1454 -923.8227 1746.5240 74.6128 1746.5244
-190.0379 5.1582 -923.9987 1748.0245 74.7182 1748.0250
-188.5475 5.1712 -924.1724 1749.5249 74.8229 1749.5254
-187.0569 5.1843 -924.3436 1751.0254 74.9268 1751.0259
-185.5660 5.1973 -924.5118 1752.5259 75.0299 1752.5264
-184.0746 5.2103 -924.6762 1754.0264 75.1322 1754.0269
-182.5827 5.2233 -924.8359 1755.5267 75.2337 1755.5272
-181.0903 5.2362 -924.9898 1757.0272 75.3344 1757.0277
-179.5971 5.2490 -925.1371 1758.5277 75.4345 1758.5282
-178.1033 5.2617 -925.2772 1760.0281 75.5337 1760.0286
-176.6089 5.2743 -925.4106 1761.5286 75.6322 1761.5289
-175.1139 5.2869 -925.5380 1763.0291 75.7300 1763.0294
-173.6186 5.2994 -925.6608 1764.5294 75.8271 1764.5298
-172.1230 5.3119 -925.7805 1766.0299 75.9234 1766.0303
-170.6272 5.3244 -925.8984 1767.5304 76.0190 1767.5308
-169.1314 5.3369 -926.0154 1769.0308 76.1139 1769.0311
-167.6356 5.3497 -926.1324 1770.5312 76.2081 1770.5316
-166.1397 5.3626 -926.2497 1772.0317 76.3017 1772.0321
-164.6440 5.3757 -926.3679 1773.5322 76.3945 1773.5326
-163.1483 5.3890 -926.4871 1775.0326 76.4866 1775.0331
-161.6528 5.4023 -926.6079 1776.5331 76.5781 1776.5334
-160.1575 5.4156 -926.7305 1778.0336 76.6690 1778.0339
-158.6623 5.4289 -926.8552 1779.5339 76.7591 1779.5343
-157.1673 5.4421 -926.9815 1781.0344 76.8486 1781.0348
-155.6723 5.4551 -927.1091 1782.5349 76.9375 1782.5353
-154.1774 5.4680 -927.2373 1784.0353 77.0257 1784.0356
-152.6825 5.4808 -927.3657 1785.5358 77.1133 1785.5361
-151.1876 5.4934 -927.4943 1787.0363 77.2002 1787.0366
-149.6928 5.5058 -927.6231 1788.5366 77.2866 1788.5369
-148.1980 5.5180 -927.7524 1790.0371 77.3723 1790.0374
-146.7033 5.5299 -927.8823 1791.5376 77.4574 1791.5378
-145.2086 5.5416 -928.0129 1793.0380 77.5419 1793.0382
-143.7139 5.5531 -928.1442 1794.5385 77.6258 1794.5387
-142.2193 5.5644 -928.2764 1796.0389 77.7091 1796.0392
-140.7249 5.5755 -928.4094 1797.5394 77.7918 1797.5396
-139.2305 5.5866 -928.5430 1799.0398 77.8740 1799.0399
-137.7361 5.5978 -928.6773 1800.5403 77.9555 1800.5404
-136.2418 5.6091 -928.8120 1802.0408 78.0365 1802.0409
-134.7475 5.6207 -928.9470 1803.5411 78.1169 1803.5413
-133.2532 5.6325 -929.0822 1805.0416 78.1968 1805.0416
-131.7590 5.6446 -929.2176 1806.5421 78.2761 1806.5421
-130.2647 5.6568 -929.3532 1808.0425 78.3548 1808.0425
-128.7704 5.6691 -929.4891 1809.5430 78.4330 1809.5430
-127.2762 5.6814 -929.6251 1811.0435 78.5107 1811.0436
-125.7819 5.6935 -929.7612 1812.5438 78.5878 1812.5439
-124.2877 5.7053 -929.8974 1814.0443 78.6644 1814.0444
-122.7934 5.7167 -930.0334 1815.5448 78.7405 1815.5449
-121.2991 5.7278 -930.1694 1817.0452 78.8160 1817.0455
-119.8049 5.7385 -930.3054 1818.5457 78.8910 1818.5459
-118.3106 5.7489 -930.4413 1820.0461 78.9655 1820.0465
-116.8163 5.7590 -930.5773 1821.5466 79.0395 1821.5470
-115.3221 5.7689 -930.7135 1823.0470 79.1130 1823.0474
-113.8279 5.7786 -930.8497 1824.5475 79.1860 1824.5479
-112.3336 5.7882 -930.9861 1826.0480 79.2585 1826.0483
-110.8394 5.7977 -931.1226 1827.5483 79.3305 1827.5488
-109.3452 5.8071 -931.2593 1829.0488 79.4020 1829.0493
-107.8510 5.8163 -931.3960 1830.5493 79.4730 1830.5498
-106.3568 5.8255 -931.5328 1832.0497 79.5435 1832.0502
-104.8625 5.8345 -931.6699 1833.5502 79.6136 1833.5507
-103.3684 5.8434 -931.8069 1835.0507 79.6832 1835.0513
-101.8742 5.8522 -931.9440 1836.5510 79.7523 1836.5516
-100.3801 5.8608 -932.0811 1838.0515 79.8210 1838.0521
-98.8859 5.8693 -932.2181 1839.5520 79.8892 1839.5526
-97.3918 5.8776 -932.3549 1841.0524 79.9569 1841.0530
-95.8975 5.8859 -932.4913 1842.5529 80.0242 1842.5535
-94.4033 5.8941 -932.6271 1844.0533 80.0911 1844.0540
-92.9089 5.9022 -932.7617 1845.5538 80.1575 1845.5543
-91.4144 5.9105 -932.8943 1847.0542 80.2235 1847.0547
-89.9197 5.9188 -933.0247 1848.5547 80.2890 1848.5552
-88.4247 5.9273 -933.1526 1850.0552 80.3541 1850.0557
-86.9296 5.9359 -933.2782 1851.5555 80.4187 1851.5560
-85.4343 5.9446 -933.4022 1853.0560 80.4830 1853.0564
-83.9390 5.9534 -933.5254 1854.5565 80.5468 1854.5569
-82.4437 5.9622 -933.6483 1856.0569 80.6102 1856.0573
-80.9484 5.9709 -933.7714 1857.5574 80.6732 1857.5576
-79.4530 5.9794 -933.8946 1859.0579 80.7357 1859.0581
-77.9576 5.9877 -934.0179 1860.5582 80.7979 1860.5585
-76.4622 5.9959 -934.1409 1862.0587 80.8596 1862.0591
-74.9668 6.0038 -934.2632 1863.5592 80.9210 1863.5596
-73.4712 6.0116 -934.3842 1865.0596 80.9819 1865.0599
-71.9755 6.0192 -934.5034 1866.5601 81.0425 1866.5604
-70.4796 6.0266 -934.6212 1868.0605 81.1026 1868.0610
-68.9838 6.0340 -934.7383 1869.5610 81.1624 1869.5615
-67.4879 6.0413 -934.8557 1871.0614 81.2218 1871.0619
-65.9921 6.0485 -934.9738 1872.5619 81.2808 1872.5624
-64.4964 6.0556 -935.0924 1874.0624 81.3394 1874.0629
-63.0007 6.0626 -935.2115 1875.5627 81.3976 1875.5632
-61.5050 6.0694 -935.3308 1877.0632 81.4555 1877.0637
-60.0093 6.0760 -935.4502 1878.5637 81.5130 1878.5642
-58.5136 6.0823 -935.5695 1880.0641 81.5701 1880.0646
-57.0179 6.0883 -935.6887 1881.5646 81.6268 1881.5651
-55.5222 6.0939 -935.8077 1883.0651 81.6832 1883.0656
-54.0265 6.0993 -935.9267 1884.5654 81.7392 1884.5659
-52.5308 6.1043 -936.0457 1886.0659 81.7949 1886.0664
-51.0351 6.1089 -936.1646 1887.5664 81.8502 1887.5669
-49.5394 6.1132 -936.2836 1889.0668 81.9052 1889.0673
-48.0437 6.1172 -936.4024 1890.5673 81.9598 1890.5677
-46.5479 6.1209 -936.5211 1892.0677 82.0141 1892.0682
-45.0522 6.1242 -936.6395 1893.5682 82.0680 1893.5687
-43.5564 6.1273 -936.7578 1895.0686 82.1216 1895.0691
-42.0606 6.1301 -936.8757 1896.5691 82.1748 1896.5696
-40.5647 6.1326 -936.9927 1898.0696 82.2277 1898.0701
-39.0687 6.1350 -937.1083 1899.5699 82.2803 1899.5704
-37.5725 6.1372 -937.2214 1901.0704 82.3325 1901.0709
-36.0761 6.1395 -937.3309 1902.5709 82.3844 1902.5714
-34.5793 6.1416 -937.4360 1904.0713 82.4360 1904.0718
-33.0822 6.1438 -937.5362 1905.5718 82.4873 1905.5723
-31.5849 6.1461 -937.6326 1907.0723 82.5382 1907.0728
-30.0874 6.1483 -937.7267 1908.5726 82.5888 1908.5731
-28.5898 6.1507 -937.8197 1910.0731 82.6391 1910.0735
-27.0922 6.1530 -937.9122 1911.5736 82.6891 1911.5740
-25.5946 6.1554 -938.0046 1913.0741 82.7388 1913.0745
-24.0970 6.1577 -938.0968 1914.5745 82.7882 1914.5748
-22.5994 6.1600 -938.1890 1916.0750 82.8372 1916.0753
-21.1018 6.1622 -938.2811 1917.5754 82.8860 1917.5758
-19.6042 6.1644 -938.3730 1919.0758 82.9344 1919.0762
-18.1066 6.1666 -938.4650 1920.5763 82.9826 1920.5767
-16.6090 6.1689 -938.5570 1922.0768 83.0304 1922.0770
-15.1115 6.1713 -938.6490 1923.5771 83.0780 1923.5774
-13.6139 6.1739 -938.7413 1925.0776 83.1253 1925.0779
-12.1162 6.1765 -938.8337 1926.5781 83.1722 1926.5784
-10.6186 6.1792 -938.9265 1928.0785 83.2189 1928.0787
-9.1211 6.1819 -939.0197 1929.5790 83.2653 1929.5792
-7.6235 6.1846 -939.1134 1931.0795 83.3114 1931.0798
-6.1261 6.1872 -939.2078 1932.5798 83.3573 1932.5801
-4.6287 6.1899 -939.3032 1934.0803 83.4028 1934.0806
-3.1313 6.1925 -939.3996 1935.5808 83.4481 1935.5811
-1.6341 6.1950 -939.4972 1937.0813 83.4930 1937.0815
-0.1370 6.1973 -939.5960 1938.5817 83.5378 1938.5819
1.3602 6.1994 -939.6960 1940.0822 83.5822 1940.0824
2.8572 6.2013 -939.7974 1941.5826 83.6264 1941.5829
4.3542 6.2029 -939.9000 1943.0830 83.6703 1943.0833
5.8511 6.2042 -940.0036 1944.5835 83.7139 1944.5839
7.3479 6.2056 -940.1080 1946.0840 83.7573 1946.0844
8.8448 6.2071 -940.2130 1947.5844 83.8004 1947.5847
10.3416 6.2088 -940.3179 1949.0848 83.8432 1949.0852
11.8384 6.2108 -940.4224 1950.5853 83.8858 1950.5858
13.3353 6.2129 -940.5260 1952.0857 83.9281 1952.0862
14.8323 6.2151 -940.6282 1953.5862 83.9702 1953.5867
16.3293 6.2174 -940.7283 1955.0867 84.0120 1955.0872
17.8266 6.2196 -940.8260 1956.5870 84.0535 1956.5874
19.3240 6.2219 -940.9211 1958.0875 84.0948 1958.0879
20.8215 6.2241 -941.0142 1959.5880 84.1359 1959.5884
22.3191 6.2263 -941.1063 1961.0885 84.1767 1961.0889
23.8168 6.2285 -941.1978 1962.5889 84.2173 1962.5892
25.3144 6.2307 -941.2894 1964.0894 84.2576 1964.0897
26.8120 6.2330 -941.3813 1965.5898 84.2976 1965.5902
28.3097 6.2352 -941.4734 1967.0902 84.3375 1967.0906
29.8072 6.2374 -941.5657 1968.5907 84.3771 1968.5911
31.3048 6.2396 -941.6580 1970.0912 84.4164 1970.0914
32.8024 6.2419 -941.7502 1971.5916 84.4556 1971.5918
34.3000 6.2441 -941.8426 1973.0920 84.4945 1973.0923
35.7976 6.2463 -941.9349 1974.5925 84.5331 1974.5928
37.2951 6.2486 -942.0275 1976.0929 84.5715 1976.0931
38.7927 6.2509 -942.1202 1977.5934 84.6097 1977.5936
40.2902 6.2532 -942.2131 1979.0939 84.6477 1979.0940
41.7877 6.2555 -942.3065 1980.5942 84.6854 1980.5945
43.2852 6.2578 -942.4001 1982.0947 84.7230 1982.0947
44.7827 6.2600 -942.4943 1983.5952 84.7603 1983.5952
46.2801 6.2623 -942.5888 1985.0957 84.7973 1985.0957
47.7775 6.2644 -942.6837 1986.5961 84.8342 1986.5961
49.2749 6.2666 -942.7787 1988.0966 84.8708 1988.0964
50.7723 6.2688 -942.8738 1989.5970 84.9072 1989.5969
52.2697 6.2709 -942.9689 1991.0974 84.9435 1991.0973
53.7671 6.2731 -943.0635 1992.5979 84.9794 1992.5978
55.2646 6.2753 -943.1578 1994.0984 85.0152 1994.0981
56.7621 6.2775 -943.2519 1995.5988 85.0508 1995.5985
58.2595 6.2797 -943.3456 1997.0992 85.0861 1997.0990
59.7570 6.2819 -943.4390 1998.5997 85.1213 1998.5994
61.2546 6.2842 -943.5318 2000.1001 85.1562 2000.0999
62.7523 6.2864 -943.6238 2001.6006 85.1910 2001.6003
64.2500 6.2887 -943.7148 2003.1011 85.2255 2003.1008
65.7478 6.2909 -943.8046 2004.6014 85.2598 2004.6013
67.2457 6.2932 -943.8929 2006.1019 85.2939 2006.1018
68.7437 6.2954 -943.9794 2007.6024 85.3279 2007.6023
70.2418 6.2976 -944.0635 2009.1029 85.3616 2009.1028
71.7401 6.3000 -944.1448 2010.6033 85.3951 2010.6031
73.2384 6.3026 -944.2230 2012.1038 85.4285 2012.1036
74.7370 6.3055 -944.2986 2013.6042 85.4616 2013.6041
76.2357 6.3086 -944.3723 2015.1046 85.4945 2015.1045
77.7344 6.3118 -944.4448 2016.6051 85.5273 2016.6050
79.2331 6.3151 -944.5170 2018.1056 85.5599 2018.1055
80.7318 6.3183 -944.5894 2019.6060 85.5922 2019.6060
82.2304 6.3213 -944.6623 2021.1064 85.6244 2021.1064
83.7291 6.3243 -944.7357 2022.6069 85.6564 2022.6068
85.2277 6.3271 -944.8097 2024.1073 85.6882 2024.1072
86.7263 6.3297 -944.8842 2025.6078 85.7198 2025.6077
88.2249 6.3321 -944.9592 2027.1083 85.7513 2027.1082
89.7234 6.3344 -945.0345 2028.6088 85.7825 2028.6086
91.2219 6.3366 -945.1104 2030.1091 85.8136 2030.1090
92.7205 6.3388 -945.1866 2031.6096 85.8445 2031.6095
94.2189 6.3410 -945.2630 2033.1101 85.8752 2033.1100
95.7174 6.3432 -945.3397 2034.6105 85.9058 2034.6104
97.2159 6.3453 -945.4163 2036.1110 85.8493 2036.1108
98.7144 6.3475 -945.4928 2037.6115 85.1641 2037.6113
100.2129 6.3496 -945.5695 2039.1118 84.4737 2039.1117
101.7113 6.3516 -945.6462 2040.6123 83.7779 2040.6122
103.2098 6.3536 -945.7231 2042.1128 83.0772 2042.1127
104.7083 6.3554 -945.8002 2043.6132 82.3725 2043.6130
106.2067 6.3572 -945.8776 2045.1136 81.6640 2045.1135
107.7052 6.3588 -945.9553 2046.6141 80.9513 2046.6140
109.2036 6.3602 -946.0332 2048.1145 80.2346 2048.1143
110.7020 6.3615 -946.1114 2049.6150 79.5136 2049.6147
112.2004 6.3627 -946.1899 2051.1155 78.7883 2051.1152
113.6987 6.3637 -946.2687 2052.6160 78.0585 2052.6157
115.1971 6.3647 -946.3478 2054.1165 77.3242 2054.1162
116.6954 6.3655 -946.4272 2055.6167 76.5852 2055.6165
118.1936 6.3663 -946.5070 2057.1172 75.8414 2057.1169
119.6919 6.3670 -946.5870 2058.6177 75.0926 2058.6172
121.1901 6.3675 -946.6674 2060.1182 74.3388 2060.1177
122.6884 6.3679 -946.7482 2061.6187 73.5799 2061.6182
124.1867 6.3683 -946.8291 2063.1191 72.8156 2063.1187
125.6851 6.3686 -946.9100 2064.6196 72.0458 2064.6191
127.1835 6.3688 -946.9903 2066.1199 71.2703 2066.1196
128.6818 6.3690 -947.0696 2067.6204 70.4890 2067.6201
130.1802 6.3690 -947.1472 2069.1208 69.7018 2069.1206
131.6788 6.3690 -947.2224 2070.6213 68.9083 2070.6211
133.1775 6.3688 -947.2949 2072.1218 68.1085 2072.1216
134.6763 6.3687 -947.3650 2073.6223 67.3022 2073.6221
136.1751 6.3686 -947.4334 2075.1226 66.4890 2075.1223
137.6740 6.3686 -947.5008 2076.6230 65.6688 2076.6226
139.1729 6.3688 -947.5678 2078.1235 64.8414 2078.1230
140.6718 6.3691 -947.6349 2079.6240 64.0065 2079.6235
142.1707 6.3696 -947.7025 2081.1245 63.1638 2081.1240
143.6697 6.3703 -947.7706 2082.6250 62.3130 2082.6245
145.1686 6.3711 -947.8392 2084.1252 61.4539 2084.1248
146.6675 6.3719 -947.9082 2085.6257 60.5861 2085.6255
148.1663 6.3728 -947.9775 2087.1262 59.7092 2087.1260
149.6651 6.3734 -948.0468 2088.6267 58.8230 2088.6262
151.1639 6.3738 -948.1160 2090.1272 57.9270 2090.1267
152.6628 6.3739 -948.1848 2091.6277 57.0208 2091.6272
154.1617 6.3736 -948.2531 2093.1282 56.1040 2093.1277
155.6606 6.3729 -948.3209 2094.6284 55.1760 2094.6279
157.1595 6.3720 -948.3888 2096.1289 54.2363 2096.1284
158.6584 6.3708 -948.4572 2097.6294 53.2845 2097.6289
160.1572 6.3692 -948.5266 2099.1299 52.3198 2099.1294
161.6560 6.3672 -948.5978 2100.6304 51.3416 2100.6299
163.1546 6.3647 -948.6711 2102.1309 50.3492 2102.1304
164.6531 6.3615 -948.7472 2103.6311 49.3419 2103.6306
166.1514 6.3574 -948.8259 2105.1316 48.3186 2105.1309
167.6498 6.3528 -948.9069 2106.6321 47.2786 2106.6316
169.1479 6.3476 -948.9891 2108.1326 46.2207 2108.1321
170.6461 6.3422 -949.0720 2109.6331 45.1438 2109.6326
172.1443 6.3367 -949.1547 2111.1335 44.0583 2111.1331
173.6424 6.3311 -949.2366 2112.6340 42.9665 2112.6335
175.1406 6.3256 -949.3176 2114.1343 41.8683 2114.1338
176.6389 6.3200 -949.3979 2115.6348 40.7631 2115.6340
178.1372 6.3146 -949.4777 2117.1353 39.6507 2117.1345
179.6355 6.3094 -949.5574 2118.6357 38.5304 2118.6350
181.1338 6.3045 -949.6375 2120.1362 37.4019 2120.1355
182.6321 6.2998 -949.7185 2121.6367 36.2644 2121.6360
184.1303 6.2954 -949.8013 2123.1370 35.1173 2123.1365
185.6283 6.2916 -949.8876 2124.6375 33.9600 2124.6367
187.1259 6.2885 -949.9806 2126.1379 32.7916 2126.1375
188.6227 6.2863 -950.0847 2127.6384 31.6111 2127.6379
190.1183 6.2851 -950.2056 2129.1389 30.4174 2129.1384
191.6118 6.2848 -950.3506 2130.6394 29.2095 2130.6389
193.1015 6.2851 -950.5291 2132.1396 27.9857 2132.1392
194.5853 6.2849 -950.7515 2133.6401 26.7446 2133.6396
196.0600 6.2836 -951.0284 2135.1406 25.4839 2135.1401
197.5208 6.2812 -951.3705 2136.6411 24.2016 2136.6409
198.9614 6.2773 -951.7893 2138.1416 22.8946 2138.1411
200.3739 6.2722 -952.2946 2139.6421 21.5594 2139.6416
201.7496 6.2666 -952.8928 2141.1426 20.5224 2141.1421
203.0794 6.2607 -953.5869 2142.6428 19.8647 2142.6423
204.3539 6.2540 -954.3782 2144.1433 19.2824 2144.1431
205.5621 6.2460 -955.2672 2145.6438 18.7908 2145.6436
206.6931 6.2374 -956.2526 2147.1443 18.7909 2147.1440
207.7393 6.2287 -957.3275 2148.6448 19.5228 2148.6445
208.7002 6.2199 -958.4794 2150.1453 20.8146 2150.1450
209.5807 6.2113 -959.6942 2151.6455 22.0302 2151.6453
210.3881 6.2032 -960.9586 2153.1460 23.1816 2153.1458
211.1311 6.1959 -962.2620 2154.6465 24.2780 2154.6462
211.8188 6.1890 -963.5955 2156.1470 25.3265 2156.1467
212.4591 6.1821 -964.9524 2157.6475 26.3328 2157.6472
213.0575 6.1746 -966.3282 2159.1479 27.3017 2159.1477
213.6163 6.1668 -967.7208 2160.6484 28.2370 2160.6482
214.1381 6.1591 -969.1275 2162.1487 29.1420 2162.1487
214.6312 6.1518 -970.5446 2163.6492 30.0194 2163.6489
215.1081 6.1446 -971.9672 2165.1497 30.8716 2165.1497
215.5791 6.1373 -973.3918 2166.6501 31.0655 2166.6501
216.0485 6.1296 -974.8170 2168.1506 29.8655 2168.1506
216.5161 6.1212 -976.2427 2169.6511 28.6505 2169.6511
216.9790 6.1123 -977.6700 2171.1514 27.4190 2171.1514
217.4340 6.1029 -979.0998 2172.6519 26.1691 2172.6519
217.8805 6.0931 -980.5323 2174.1523 24.8989 2174.1523
218.3225 6.0833 -981.9661 2175.6528 23.6056 2175.6528
218.7690 6.0736 -983.3986 2177.1533 22.2862 2177.1533
219.2369 6.0645 -984.8243 2178.6538 20.9367 2178.6541
219.7520 6.0560 -986.2334 2180.1543 19.5522 2180.1545
220.3470 6.0483 -987.6105 2181.6545 18.1264 2181.6548
221.0541 6.0414 -988.9332 2183.1550 16.6507 2183.1553
221.8931 6.0356 -990.1762 2184.6555 16.0462 2184.6558
222.8640 6.0315 -991.3191 2186.1560 16.4019 2186.1562
223.9509 6.0290 -992.3525 2187.6565 17.2174 2187.6567
225.1336 6.0273 -993.2751 2189.1570 18.0547 2189.1572
226.3938 6.0247 -994.0888 2190.6572 19.0307 2190.6575
227.7157 6.0201 -994.7981 2192.1577 19.8957 2192.1580
229.0866 6.0137 -995.4070 2193.6582 20.8728 2193.6584
230.4962 6.0061 -995.9200 2195.1587 22.0852 2195.1589
231.9337 5.9977 -996.3496 2196.6592 23.2338 2196.6594
233.3881 5.9887 -996.7184 2198.1597 24.3278 2198.1599
234.8518 5.9793 -997.0485 2199.6599 25.3742 2199.6602
236.3210 5.9695 -997.3524 2201.1604 26.3788 2201.1606
237.7943 5.9592 -997.6362 2202.6609 27.3460 2202.6611
239.2706 5.9489 -997.9042 2204.1614 28.2799 2204.1616
240.7491 5.9387 -998.1595 2205.6619 29.1835 2205.6621
242.2295 5.9288 -998.4039 2207.1624 30.0597 2207.1626
243.7113 5.9191 -998.6391 2208.6628 30.9107 2208.6631
245.1940 5.9097 -998.8682 2210.1631 31.7387 2210.1633
246.6772 5.9003 -999.0951 2211.6636 32.5454 2211.6636
248.1603 5.8910 -999.3230 2213.1641 33.3322 2213.1643
249.6431 5.8818 -999.5528 2214.6646 34.1007 2214.6648
251.1256 5.8725 -999.7842 2216.1650 34.8520 2216.1653
252.6078 5.8631 -1000.0172 2217.6655 35.5873 2217.6658
254.0895 5.8537 -1000.2530 2219.1658 36.3074 2219.1660
255.5704 5.8442 -1000.4940 2220.6663 37.0095 2220.6665
257.0500 5.8348 -1000.7424 2222.1667 37.6899 2222.1667
258.5283 5.8256 -1000.9993 2223.6672 38.3500 2223.6672
260.0050 5.8163 -1001.2653 2225.1677 38.9909 2225.1680
261.4799 5.8071 -1001.5414 2226.6682 39.6140 2226.6685
262.9525 5.7978 -1001.8295 2228.1687 40.2202 2228.1689
264.4222 5.7884 -1002.1306 2229.6689 40.8105 2229.6692
265.8895 5.7789 -1002.4440 2231.1694 41.3857 2231.1697
267.3548 5.7694 -1002.7670 2232.6699 41.9466 2232.6702
268.8184 5.7600 -1003.0977 2234.1704 42.4939 2234.1707
270.2801 5.7506 -1003.4357 2235.6709 43.0284 2235.6711
271.7403 5.7414 -1003.7809 2237.1714 43.5506 2237.1716
273.1989 5.7324 -1004.1329 2238.6716 44.0610 2238.6719
274.6559 5.7235 -1004.4912 2240.1721 44.5603 2240.1724
276.1115 5.7149 -1004.8553 2241.6726 45.0489 2241.6729
277.5659 5.7063 -1005.2249 2243.1731 45.5272 2243.1736
279.0189 5.6979 -1005.5989 2244.6736 45.9957 2244.6741
280.4710 5.6894 -1005.9766 2246.1741 46.4548 2246.1746
281.9225 5.6809 -1006.3572 2247.6743 46.9048 2247.6748
283.3733 5.6723 -1006.7399 2249.1748 47.3462 2249.1753
284.8236 5.6635 -1007.1245 2250.6753 47.7791 2250.6758
286.2735 5.6546 -1007.5107 2252.1758 48.2040 2252.1763
287.7230 5.6455 -1007.8987 2253.6763 48.6210 2253.6770
289.1720 5.6364 -1008.2888 2255.1768 49.0306 2255.1775
290.6201 5.6273 -1008.6815 2256.6772 49.4329 2256.6780
292.0671 5.6183 -1009.0778 2258.1775 49.8282 2258.1782
293.5129 5.6095 -1009.4792 2259.6780 50.2167 2259.6787
294.9568 5.6008 -1009.8873 2261.1785 50.5986 2261.1792
296.3984 5.5925 -1010.3032 2262.6790 50.9742 2262.6797
297.8377 5.5845 -1010.7271 2264.1794 51.3436 2264.1802
299.2748 5.5769 -1011.1580 2265.6799 51.7071 2265.6807
300.7106 5.5693 -1011.5938 2267.1802 52.0647 2267.1809
302.1456 5.5614 -1012.0322 2268.6807 52.4168 2268.6814
303.5803 5.5529 -1012.4712 2270.1812 52.7634 2270.1819
305.0153 5.5434 -1012.9095 2271.6816 53.1046 2271.6821
306.4506 5.5327 -1013.3467 2273.1821 53.4408 2273.1829
307.8862 5.5211 -1013.7834 2274.6826 53.7719 2274.6833
309.3216 5.5086 -1014.2204 2276.1831 54.0981 2276.1838
310.7565 5.4958 -1014.6588 2277.6833 54.4195 2277.6841
312.1908 5.4832 -1015.0993 2279.1838 54.7364 2279.1848
313.6245 5.4712 -1015.5421 2280.6843 55.0487 2280.6853
315.0573 5.4596 -1015.9869 2282.1848 55.3567 2282.1858
316.4895 5.4486 -1016.4338 2283.6853 55.6603 2283.6860
317.9211 5.4378 -1016.8827 2285.1858 55.9598 2285.1865
319.3521 5.4269 -1017.3343 2286.6860 56.2552 2286.6868
320.7818 5.4161 -1017.7895 2288.1865 56.5466 2288.1873
322.2101 5.4055 -1018.2491 2289.6870 56.8342 2289.6877
323.6369 5.3954 -1018.7131 2291.1875 57.1179 2291.1882
325.0626 5.3859 -1019.1809 2292.6880 57.3980 2292.6887
326.4872 5.3767 -1019.6519 2294.1885 57.6744 2294.1892
327.9108 5.3677 -1020.1260 2295.6890 57.9472 2295.6897
329.3333 5.3587 -1020.6031 2297.1892 58.2166 2297.1899
330.7550 5.3497 -1021.0827 2298.6897 58.4827 2298.6904
332.1763 5.3407 -1021.5637 2300.1902 58.7454 2300.1909
333.5975 5.3316 -1022.0446 2301.6907 59.0048 2301.6917
335.0193 5.3226 -1022.5239 2303.1912 59.2611 2303.1919
336.4419 5.3137 -1023.0010 2304.6917 59.5143 2304.6921
337.8650 5.3049 -1023.4765 2306.1919 59.7644 2306.1929
339.2883 5.2961 -1023.9513 2307.6924 60.0115 2307.6934
340.7115 5.2875 -1024.4265 2309.1929 60.2557 2309.1938
342.1343 5.2790 -1024.9028 2310.6934 60.4970 2310.6943
343.5569 5.2705 -1025.3798 2312.1938 60.7356 2312.1948
344.9794 5.2622 -1025.8569 2313.6943 60.9713 2313.6953
346.4021 5.2540 -1026.3337 2315.1946 61.2044 2315.1956
347.8249 5.2459 -1026.8101 2316.6951 61.4348 2316.6960
349.2480 5.2379 -1027.2854 2318.1956 61.6626 2318.1965
350.6716 5.2301 -1027.7598 2319.6960 61.8879 2319.6970
352.0955 5.2224 -1028.2328 2321.1965 62.1106 2321.1975
353.5199 5.2147 -1028.7045 2322.6970 62.3309 2322.6980
354.9446 5.2072 -1029.1753 2324.1975 62.5487 2324.1985
356.3695 5.1996 -1029.6453 2325.6978 62.7642 2325.6987
357.7946 5.1920 -1030.1149 2327.1982 62.9774 2327.1992
359.2199 5.1844 -1030.5841 2328.6987 63.1882 2328.7000
360.6452 5.1767 -1031.0530 2330.1992 63.3968 2330.2004
362.0706 5.1690 -1031.5217 2331.6997 63.6032 2331.7009
