VERSION 0.7
FIELDS x y z arclength speed lapdistance
SIZE 4 4 4 4 4 4
TYPE F F F F F F
COUNT 1 1 1 1 1 1
WIDTH 877
HEIGHT 1
VIEWPOINT 0.000 0.000 0.000 1.000 0.000 0.000 0.000
POINTS 877
DATA ascii
-417.4085 3.3493 -821.1307 1488.2887 64.7960 1494.0885
-416.3378 3.3504 -822.1817 1489.7889 64.1287 1495.6007
-415.2614 3.3514 -823.2268 1491.2893 63.4564 1497.1093
-414.1778 3.3522 -824.2643 1492.7896 62.7790 1498.6174
-413.0852 3.3529 -825.2924 1494.2899 62.0964 1500.1257
-411.9826 3.3535 -826.3099 1495.7902 61.4084 1501.6354
-410.8699 3.3540 -827.3161 1497.2904 61.5909 1503.1461
-409.7471 3.3545 -828.3112 1498.7908 61.7718 1504.6577
-408.6148 3.3550 -829.2956 1500.2910 61.9511 1506.1703
-407.4743 3.3555 -830.2703 1501.7914 62.1288 1507.6832
-406.3269 3.3561 -831.2369 1503.2916 62.3049 1509.1968
-405.1737 3.3568 -832.1965 1504.7919 62.4795 1510.7108
-404.0157 3.3577 -833.1504 1506.2922 62.6525 1512.2252
-402.8533 3.3587 -834.0990 1507.7925 62.8240 1513.7402
-401.6871 3.3599 -835.0429 1509.2927 62.9941 1515.2557
-400.5178 3.3613 -835.9828 1510.7931 63.1626 1516.7716
-399.3459 3.3629 -836.9196 1512.2933 63.3298 1518.2877
-398.1722 3.3647 -837.8541 1513.7937 63.4955 1519.8038
-396.9973 3.3668 -838.7871 1515.2939 63.6598 1521.3198
-395.8214 3.3692 -839.7189 1516.7942 63.8228 1522.8357
-394.6440 3.3722 -840.6487 1518.2946 63.9843 1524.3514
-393.4641 3.3762 -841.5754 1519.7948 64.1445 1525.8671
-392.2812 3.3817 -842.4982 1521.2952 64.3034 1527.3826
-391.0951 3.3886 -843.4168 1522.7954 64.4610 1528.8981
-389.9059 3.3962 -844.3316 1524.2957 64.6173 1530.4135
-388.7141 3.4039 -845.2429 1525.7960 64.7723 1531.9288
-387.5193 3.4111 -846.1503 1527.2963 64.9261 1533.4443
-386.3211 3.4181 -847.0530 1528.7965 65.0786 1534.9603
-385.1186 3.4251 -847.9501 1530.2969 65.2299 1536.4773
-383.9113 3.4326 -848.8407 1531.7971 65.3799 1537.9968
-382.6988 3.4408 -849.7242 1533.2975 65.5288 1539.5195
-381.4810 3.4494 -850.6006 1534.7977 65.6765 1541.0463
-380.2580 3.4584 -851.4694 1536.2980 65.8230 1542.5758
-379.0293 3.4674 -852.3302 1537.7983 65.9684 1544.1064
-377.7946 3.4760 -853.1825 1539.2986 66.1126 1545.6378
-376.5539 3.4839 -854.0259 1540.7990 66.2557 1547.1689
-375.3070 3.4911 -854.8603 1542.2992 66.3977 1548.7001
-374.0538 3.4975 -855.6852 1543.7994 66.5385 1550.2313
-372.7946 3.5030 -856.5007 1545.2998 66.6783 1551.7627
-371.5292 3.5078 -857.3068 1546.8000 66.8171 1553.2948
-370.2578 3.5120 -858.1031 1548.3003 66.9547 1554.8280
-368.9806 3.5157 -858.8902 1549.8007 67.0913 1556.3627
-367.6981 3.5190 -859.6687 1551.3009 67.2269 1557.8984
-366.4112 3.5221 -860.4400 1552.8013 67.3615 1559.4347
-365.1213 3.5252 -861.2061 1554.3015 67.4950 1560.9701
-363.8297 3.5283 -861.9692 1555.8018 67.6276 1562.5028
-362.5374 3.5316 -862.7314 1557.3021 67.7591 1564.0287
-361.2451 3.5351 -863.4936 1558.8024 67.8897 1565.5476
-359.9532 3.5387 -864.2564 1560.3027 68.0193 1567.0597
-358.6615 3.5425 -865.0197 1561.8030 67.8749 1568.5680
-357.3698 3.5464 -865.7828 1563.3032 67.2291 1570.0748
-356.0770 3.5503 -866.5441 1564.8036 66.5789 1571.5809
-354.7816 3.5542 -867.3008 1566.3038 65.9243 1573.0875
-353.4815 3.5578 -868.0497 1567.8041 65.2651 1574.5951
-352.1753 3.5611 -868.7877 1569.3044 64.6012 1576.1038
-350.8625 3.5640 -869.5139 1570.8047 64.7563 1577.6134
-349.5443 3.5670 -870.2303 1572.3051 64.9102 1579.1241
-348.2231 3.5705 -870.9412 1573.8053 65.0628 1580.6354
-346.9012 3.5746 -871.6506 1575.3055 65.2142 1582.1470
-345.5802 3.5795 -872.3617 1576.8059 65.3644 1583.6577
-344.2607 3.5850 -873.0757 1578.3062 65.5134 1585.1665
-342.9423 3.5912 -873.7917 1579.8065 65.6612 1586.6715
-341.6239 3.5976 -874.5078 1581.3068 65.8079 1588.1700
-340.3042 3.6043 -875.2213 1582.8070 65.9533 1589.6627
-338.9820 3.6111 -875.9304 1584.3074 66.0977 1591.1505
-337.6569 3.6180 -876.6339 1585.8076 66.2409 1592.6360
-336.3289 3.6249 -877.3320 1587.3079 66.3830 1594.1210
-334.9982 3.6317 -878.0249 1588.8082 66.5240 1595.6061
-333.6648 3.6387 -878.7125 1590.3085 66.6639 1597.0917
-332.3283 3.6458 -879.3940 1591.8088 66.8027 1598.5778
-330.9878 3.6531 -880.0679 1593.3091 66.6909 1600.0640
-329.6428 3.6606 -880.7325 1594.8093 66.0371 1601.5499
-328.2928 3.6682 -881.3868 1596.3097 65.3786 1603.0354
-326.9377 3.6757 -882.0307 1597.8099 64.7155 1604.5199
-325.5779 3.6830 -882.6645 1599.3103 64.0476 1606.0037
-324.2141 3.6905 -883.2894 1600.8105 63.3747 1607.4879
-322.8469 3.6982 -883.9072 1602.3108 62.6967 1608.9740
-321.4773 3.7066 -884.5195 1603.8112 62.0135 1610.4653
-320.1060 3.7160 -885.1281 1605.3114 61.3248 1611.9661
-318.7335 3.7269 -885.7339 1606.8116 60.6306 1613.4762
-317.3602 3.7393 -886.3381 1608.3120 59.9306 1614.9946
-315.9866 3.7534 -886.9413 1609.8123 59.2247 1616.5170
-314.6131 3.7690 -887.5447 1611.3126 58.5126 1618.0406
-313.2399 3.7861 -888.1489 1612.8129 57.7942 1619.5645
-311.8674 3.8045 -888.7545 1614.3131 57.0693 1621.0879
-310.4956 3.8242 -889.3616 1615.8135 56.3375 1622.6104
-309.1244 3.8450 -889.9700 1617.3137 55.5987 1624.1322
-307.7534 3.8667 -890.5789 1618.8141 54.8526 1625.6534
-306.3818 3.8892 -891.1864 1620.3143 54.0990 1627.1742
-305.0079 3.9120 -891.7888 1621.8146 53.3375 1628.6941
-303.6298 3.9348 -892.3811 1623.3149 52.5678 1630.2133
-302.2451 3.9570 -892.9583 1624.8152 51.7897 1631.7319
-300.8530 3.9786 -893.5170 1626.3154 52.0749 1633.2510
-299.4537 3.9995 -894.0579 1627.8158 52.3566 1634.7710
-298.0495 4.0197 -894.5856 1629.3160 52.6347 1636.2946
-296.6425 4.0390 -895.1061 1630.8164 52.9095 1637.8224
-295.2347 4.0570 -895.6248 1632.3167 53.1809 1639.3539
-293.8275 4.0734 -896.1445 1633.8169 53.4490 1640.8877
-292.4211 4.0883 -896.6666 1635.3173 53.7139 1642.4222
-291.0154 4.1016 -897.1911 1636.8175 53.9757 1643.9570
-289.6106 4.1134 -897.7177 1638.3179 54.2344 1645.4917
-288.2065 4.1240 -898.2460 1639.8181 54.4901 1647.0260
-286.8029 4.1339 -898.7758 1641.3184 54.7429 1648.5603
-285.3997 4.1437 -899.3068 1642.8187 54.9928 1650.0944
-283.9968 4.1543 -899.8383 1644.3190 55.2399 1651.6282
-282.5935 4.1665 -900.3690 1645.8192 55.4843 1653.1621
-281.1894 4.1803 -900.8973 1647.3196 55.7259 1654.6963
-279.7837 4.1957 -901.4213 1648.8198 55.9649 1656.2305
-278.3756 4.2122 -901.9389 1650.3202 56.2012 1657.7646
-276.9647 4.2294 -902.4487 1651.8204 56.4350 1659.2980
-275.5504 4.2469 -902.9490 1653.3207 56.6664 1660.8295
-274.1321 4.2644 -903.4382 1654.8210 56.8952 1662.3574
-272.7096 4.2816 -903.9147 1656.3213 57.1216 1663.8818
-271.2823 4.2985 -904.3768 1657.8217 57.3457 1665.4033
-269.8502 4.3150 -904.8235 1659.3219 57.5675 1666.9232
-268.4129 4.3312 -905.2538 1660.8221 57.1132 1668.4427
-266.9709 4.3470 -905.6674 1662.3225 57.3046 1669.9622
-265.5241 4.3622 -906.0643 1663.8228 57.5268 1671.4818
-264.0730 4.3769 -906.4448 1665.3230 57.7466 1673.0020
-262.6180 4.3912 -906.8104 1666.8234 57.9643 1674.5227
-261.1599 4.4052 -907.1633 1668.3236 58.1797 1676.0441
-259.6996 4.4190 -907.5072 1669.8240 58.3930 1677.5662
-258.2382 4.4327 -907.8464 1671.3242 58.6041 1679.0891
-256.7766 4.4460 -908.1844 1672.8245 58.8131 1680.6125
-255.3151 4.4591 -908.5234 1674.3248 59.0201 1682.1364
-253.8541 4.4720 -908.8642 1675.8251 59.2250 1683.6591
-252.3935 4.4846 -909.2068 1677.3254 59.4280 1685.1797
-250.9333 4.4967 -909.5514 1678.8257 59.6289 1686.6967
-249.4736 4.5083 -909.8976 1680.3259 59.8280 1688.2098
-248.0142 4.5195 -910.2454 1681.8263 60.0252 1689.7207
-246.5549 4.5301 -910.5941 1683.3265 60.2205 1691.2299
-245.0956 4.5404 -910.9421 1684.8268 60.4139 1692.7386
-243.6354 4.5508 -911.2869 1686.3271 60.6056 1694.2473
-242.1737 4.5615 -911.6246 1687.8274 60.7954 1695.7563
-240.7096 4.5725 -911.9521 1689.3278 60.9835 1697.2659
-239.2427 4.5834 -912.2666 1690.8280 61.1699 1698.7759
-237.7730 4.5941 -912.5676 1692.3282 61.3546 1700.2865
-236.3008 4.6046 -912.8564 1693.8286 61.5376 1701.7975
-234.8268 4.6148 -913.1364 1695.3289 61.7190 1703.3088
-233.3520 4.6250 -913.4114 1696.8292 61.8987 1704.8204
-231.8768 4.6351 -913.6849 1698.3295 62.0769 1706.3322
-230.4017 4.6453 -913.9585 1699.8297 62.2535 1707.8439
-228.9266 4.6556 -914.2321 1701.3301 62.4285 1709.3549
-227.4514 4.6661 -914.5048 1702.8303 62.6019 1710.8650
-225.9757 4.6767 -914.7751 1704.3306 62.7739 1712.3740
-224.4993 4.6874 -915.0416 1705.8309 62.9444 1713.8822
-223.0220 4.6982 -915.3027 1707.3312 63.1134 1715.3898
-221.5435 4.7091 -915.5574 1708.8315 63.2810 1716.8971
-220.0639 4.7199 -915.8049 1710.3318 63.4471 1718.4043
-218.5829 4.7307 -916.0450 1711.8320 63.6118 1719.9117
-217.1008 4.7416 -916.2778 1713.3324 63.7752 1721.4192
-215.6176 4.7525 -916.5032 1714.8326 63.9371 1722.9266
-214.1334 4.7634 -916.7216 1716.3329 64.0977 1724.4341
-212.6481 4.7744 -916.9333 1717.8333 64.2570 1725.9418
-211.1620 4.7855 -917.1388 1719.3335 64.4150 1727.4493
-209.6751 4.7969 -917.3387 1720.8339 64.5717 1728.9570
-208.1876 4.8087 -917.5340 1722.3341 64.7270 1730.4648
-206.6996 4.8209 -917.7260 1723.8344 64.8812 1731.9728
-205.2115 4.8336 -917.9160 1725.3347 65.0340 1733.4811
-203.7233 4.8466 -918.1056 1726.8350 65.1857 1734.9897
-202.2351 4.8600 -918.2952 1728.3353 65.3361 1736.4991
-200.7470 4.8740 -918.4852 1729.8356 65.4853 1738.0088
-199.2589 4.8883 -918.6755 1731.3358 65.6333 1739.5189
-197.7708 4.9029 -918.8660 1732.8362 65.7802 1741.0289
-196.2827 4.9177 -919.0566 1734.3364 65.9259 1742.5389
-194.7947 4.9325 -919.2470 1735.8367 66.0704 1744.0488
-193.3065 4.9475 -919.4372 1737.3370 66.2139 1745.5586
-191.8183 4.9627 -919.6270 1738.8373 66.3562 1747.0682
-190.3301 4.9785 -919.8160 1740.3376 66.4974 1748.5779
-188.8417 4.9947 -920.0040 1741.8379 66.6375 1750.0874
-187.3531 5.0113 -920.1899 1743.3381 66.7765 1751.5970
-185.8641 5.0281 -920.3731 1744.8385 66.9145 1753.1067
-184.3747 5.0449 -920.5526 1746.3387 67.0514 1754.6163
-182.8847 5.0617 -920.7271 1747.8391 67.1873 1756.1257
-181.3939 5.0783 -920.8950 1749.3394 67.3222 1757.6343
-179.9022 5.0946 -921.0547 1750.8396 67.4560 1759.1415
-178.4096 5.1106 -921.2052 1752.3400 67.5888 1760.6464
-176.9160 5.1263 -921.3463 1753.8402 67.7207 1762.1492
-175.4217 5.1418 -921.4792 1755.3405 67.8515 1763.6505
-173.9269 5.1572 -921.6060 1756.8408 67.9814 1765.1509
-172.4317 5.1726 -921.7294 1758.3411 68.1104 1766.6509
-170.9365 5.1881 -921.8513 1759.8414 68.2384 1768.1508
-169.4412 5.2038 -921.9728 1761.3417 68.3654 1769.6508
-167.9460 5.2197 -922.0947 1762.8419 68.4915 1771.1509
-166.4508 5.2359 -922.2172 1764.3423 68.6167 1772.6510
-164.9556 5.2523 -922.3401 1765.8425 68.7410 1774.1512
-163.4606 5.2687 -922.4637 1767.3429 68.8644 1775.6515
-161.9655 5.2852 -922.5879 1768.8431 68.9869 1777.1516
-160.4705 5.3017 -922.7125 1770.3434 69.1086 1778.6519
-158.9755 5.3179 -922.8376 1771.8438 69.2293 1780.1521
-157.4806 5.3340 -922.9631 1773.3440 69.3492 1781.6525
-155.9856 5.3498 -923.0889 1774.8442 69.4683 1783.1531
-154.4907 5.3654 -923.2149 1776.3446 69.5865 1784.6539
-152.9958 5.3808 -923.3410 1777.8448 69.7039 1786.1553
-151.5009 5.3958 -923.4671 1779.3452 69.8204 1787.6571
-150.0060 5.4106 -923.5933 1780.8455 69.9362 1789.1591
-148.5111 5.4250 -923.7195 1782.3457 70.0511 1790.6611
-147.0162 5.4391 -923.8459 1783.8461 70.1652 1792.1632
-145.5213 5.4528 -923.9725 1785.3463 70.2786 1793.6654
-144.0264 5.4662 -924.0992 1786.8467 70.3911 1795.1675
-142.5316 5.4791 -924.2263 1788.3469 70.5029 1796.6697
-141.0368 5.4918 -924.3537 1789.8472 70.6139 1798.1718
-139.5420 5.5043 -924.4816 1791.3475 70.7242 1799.6738
-138.0473 5.5167 -924.6100 1792.8478 70.8337 1801.1760
-136.5526 5.5293 -924.7389 1794.3480 70.9424 1802.6781
-135.0580 5.5421 -924.8683 1795.8484 71.0504 1804.1803
-133.5633 5.5553 -924.9981 1797.3486 71.1577 1805.6823
-132.0688 5.5687 -925.1285 1798.8490 71.2643 1807.1841
-130.5743 5.5825 -925.2594 1800.3492 71.3701 1808.6854
-129.0799 5.5963 -925.3909 1801.8495 71.4753 1810.1863
-127.5855 5.6100 -925.5228 1803.3499 71.5797 1811.6868
-126.0911 5.6233 -925.6550 1804.8501 71.6835 1813.1870
-124.5968 5.6362 -925.7874 1806.3505 71.7865 1814.6871
-123.1023 5.6485 -925.9199 1807.8507 71.8889 1816.1874
-121.6079 5.6601 -926.0527 1809.3510 71.9906 1817.6875
-120.1136 5.6710 -926.1859 1810.8513 72.0916 1819.1877
-118.6194 5.6813 -926.3195 1812.3516 72.1920 1820.6880
-117.1251 5.6910 -926.4536 1813.8518 72.2917 1822.1881
-115.6310 5.7002 -926.5883 1815.3522 72.3907 1823.6884
-114.1369 5.7092 -926.7236 1816.8524 72.4891 1825.1886
-112.6428 5.7179 -926.8596 1818.3528 72.5869 1826.6887
-111.1488 5.7264 -926.9960 1819.8530 72.6840 1828.1890
-109.6548 5.7347 -927.1331 1821.3533 72.7805 1829.6892
-108.1608 5.7428 -927.2708 1822.8536 72.8764 1831.1893
-106.6669 5.7507 -927.4091 1824.3539 72.9717 1832.6896
-105.1731 5.7584 -927.5480 1825.8542 73.0663 1834.1897
-103.6793 5.7658 -927.6875 1827.3545 73.1604 1835.6902
-102.1856 5.7730 -927.8275 1828.8547 73.2539 1837.1907
-100.6919 5.7798 -927.9678 1830.3551 73.3467 1838.6914
-99.1981 5.7862 -928.1083 1831.8553 73.4390 1840.1923
-97.7045 5.7923 -928.2491 1833.3556 73.5307 1841.6931
-96.2108 5.7981 -928.3896 1834.8560 73.6218 1843.1941
-94.7171 5.8039 -928.5296 1836.3562 73.7123 1844.6951
-93.2232 5.8099 -928.6680 1837.8566 73.8023 1846.1960
-91.7290 5.8163 -928.8036 1839.3568 73.8917 1847.6971
-90.2345 5.8234 -928.9353 1840.8571 73.9805 1849.1981
-88.7397 5.8312 -929.0626 1842.3574 74.0688 1850.6992
-87.2445 5.8398 -929.1855 1843.8577 74.1566 1852.2002
-85.7490 5.8491 -929.3051 1845.3580 74.2438 1853.7012
-84.2533 5.8592 -929.4225 1846.8583 74.3304 1855.2023
-82.7576 5.8698 -929.5394 1848.3585 74.4165 1856.7032
-81.2619 5.8808 -929.6562 1849.8589 74.5021 1858.2043
-79.7662 5.8921 -929.7732 1851.3591 74.5872 1859.7053
-78.2705 5.9036 -929.8905 1852.8594 74.6717 1861.2063
-76.7749 5.9152 -930.0079 1854.3597 74.7557 1862.7074
-75.2792 5.9270 -930.1254 1855.8600 74.8392 1864.2084
-73.7836 5.9390 -930.2431 1857.3604 74.9222 1865.7094
-72.2880 5.9510 -930.3611 1858.8606 75.0048 1867.2104
-70.7925 5.9631 -930.4799 1860.3608 75.0867 1868.7114
-69.2971 5.9752 -930.6000 1861.8612 75.1682 1870.2125
-67.8018 5.9872 -930.7217 1863.3615 75.2493 1871.7135
-66.3066 5.9991 -930.8451 1864.8618 75.3298 1873.2145
-64.8115 6.0107 -930.9699 1866.3621 75.4098 1874.7156
-63.3166 6.0220 -931.0956 1867.8623 75.4894 1876.2166
-61.8216 6.0330 -931.2221 1869.3627 75.5684 1877.7177
-60.3267 6.0436 -931.3491 1870.8629 75.6470 1879.2186
-58.8319 6.0538 -931.4762 1872.3632 75.7252 1880.7196
-57.3370 6.0635 -931.6035 1873.8635 75.8029 1882.2207
-55.8421 6.0725 -931.7309 1875.3638 75.8801 1883.7217
-54.3473 6.0809 -931.8585 1876.8641 75.9568 1885.2227
-52.8525 6.0887 -931.9866 1878.3644 76.0331 1886.7238
-51.3577 6.0958 -932.1151 1879.8646 76.1090 1888.2247
-49.8630 6.1024 -932.2441 1881.3650 76.1844 1889.7258
-48.3682 6.1084 -932.3732 1882.8652 76.2593 1891.2268
-46.8735 6.1139 -932.5027 1884.3656 76.3338 1892.7278
-45.3788 6.1189 -932.6324 1885.8658 76.4079 1894.2289
-43.8841 6.1233 -932.7626 1887.3661 76.4816 1895.7299
-42.3895 6.1272 -932.8929 1888.8665 76.5548 1897.2308
-40.8950 6.1305 -933.0228 1890.3667 76.6276 1898.7318
-39.4002 6.1333 -933.1512 1891.8669 76.7000 1900.2327
-37.9051 6.1357 -933.2764 1893.3673 76.7719 1901.7338
-36.4096 6.1379 -933.3959 1894.8676 76.8434 1903.2347
-34.9135 6.1398 -933.5079 1896.3679 76.9146 1904.7358
-33.4168 6.1418 -933.6111 1897.8682 76.9853 1906.2368
-31.9195 6.1438 -933.7065 1899.3684 77.0556 1907.7378
-30.4219 6.1459 -933.7968 1900.8688 77.1255 1909.2388
-28.9242 6.1482 -933.8849 1902.3690 77.1950 1910.7397
-27.4264 6.1505 -933.9725 1903.8694 77.2641 1912.2406
-25.9287 6.1529 -934.0604 1905.3696 77.3328 1913.7416
-24.4310 6.1553 -934.1489 1906.8699 77.4011 1915.2426
-22.9333 6.1578 -934.2378 1908.3702 77.4690 1916.7434
-21.4357 6.1602 -934.3270 1909.8705 77.5365 1918.2444
-19.9381 6.1627 -934.4164 1911.3707 77.6037 1919.7454
-18.4406 6.1652 -934.5060 1912.8711 77.6704 1921.2462
-16.9430 6.1678 -934.5958 1914.3713 77.7368 1922.7472
-15.4453 6.1707 -934.6857 1915.8717 77.8029 1924.2483
-13.9477 6.1738 -934.7759 1917.3719 77.8685 1925.7493
-12.4502 6.1771 -934.8665 1918.8722 77.9338 1927.2502
-10.9526 6.1805 -934.9576 1920.3726 77.9987 1928.7513
-9.4552 6.1840 -935.0496 1921.8728 78.0632 1930.2523
-7.9578 6.1874 -935.1427 1923.3732 78.1274 1931.7534
-6.4606 6.1909 -935.2372 1924.8734 78.1913 1933.2544
-4.9633 6.1943 -935.3332 1926.3737 78.2547 1934.7555
-3.4662 6.1976 -935.4310 1927.8740 78.3178 1936.2566
-1.9692 6.2007 -935.5306 1929.3743 78.3806 1937.7577
-0.4723 6.2035 -935.6320 1930.8745 78.4430 1939.2588
1.0244 6.2060 -935.7354 1932.3749 78.5051 1940.7599
2.5210 6.2080 -935.8406 1933.8751 78.5668 1942.2610
4.0174 6.2095 -935.9476 1935.3755 78.6282 1943.7622
5.5138 6.2104 -936.0564 1936.8757 78.6892 1945.2633
7.0100 6.2112 -936.1667 1938.3760 78.7500 1946.7644
8.5062 6.2121 -936.2780 1939.8763 78.8103 1948.2655
10.0024 6.2135 -936.3896 1941.3766 78.8704 1949.7666
11.4986 6.2155 -936.5008 1942.8770 78.9301 1951.2677
12.9948 6.2178 -936.6105 1944.3772 78.9895 1952.7688
14.4913 6.2204 -936.7180 1945.8774 79.0485 1954.2700
15.9880 6.2230 -936.8219 1947.3778 79.1073 1955.7712
17.4850 6.2256 -936.9212 1948.8781 79.1657 1957.2723
18.9824 6.2281 -937.0155 1950.3783 79.2238 1958.7736
20.4800 6.2307 -937.1053 1951.8787 79.2816 1960.2748
21.9778 6.2333 -937.1922 1953.3789 79.3391 1961.7759
23.4756 6.2358 -937.2776 1954.8793 79.3962 1963.2770
24.9735 6.2384 -937.3627 1956.3795 79.4531 1964.7781
26.4713 6.2409 -937.4481 1957.8798 79.5096 1966.2793
27.9692 6.2435 -937.5338 1959.3801 79.5658 1967.7804
29.4670 6.2460 -937.6199 1960.8804 79.6218 1969.2815
30.9647 6.2486 -937.7062 1962.3807 79.6774 1970.7826
32.4625 6.2511 -937.7925 1963.8810 79.7327 1972.2837
33.9603 6.2537 -937.8788 1965.3812 79.7878 1973.7848
35.4580 6.2563 -937.9653 1966.8816 79.8425 1975.2859
36.9558 6.2589 -938.0521 1968.3818 79.8970 1976.7871
38.4536 6.2616 -938.1393 1969.8821 79.9511 1978.2883
39.9513 6.2643 -938.2271 1971.3824 80.0050 1979.7896
41.4490 6.2669 -938.3155 1972.8827 80.0586 1981.2908
42.9467 6.2695 -938.4046 1974.3831 80.1119 1982.7920
44.4443 6.2721 -938.4945 1975.8833 80.1649 1984.2931
45.9418 6.2746 -938.5852 1977.3835 80.2176 1985.7943
47.4393 6.2770 -938.6768 1978.8839 80.2701 1987.2955
48.9368 6.2794 -938.7691 1980.3842 80.3222 1988.7968
50.4342 6.2818 -938.8621 1981.8844 80.3741 1990.2980
51.9315 6.2842 -938.9556 1983.3848 80.4258 1991.7992
53.4289 6.2867 -939.0493 1984.8850 80.4771 1993.3004
54.9263 6.2891 -939.1428 1986.3854 80.5282 1994.8016
56.4236 6.2916 -939.2361 1987.8856 80.5790 1996.3029
57.9210 6.2941 -939.3291 1989.3859 80.6295 1997.8040
59.4185 6.2967 -939.4216 1990.8862 80.6798 1999.3052
60.9159 6.2992 -939.5138 1992.3865 80.7298 2000.8064
62.4133 6.3018 -939.6056 1993.8868 80.7796 2002.3076
63.9109 6.3043 -939.6969 1995.3871 80.8291 2003.8090
65.4084 6.3068 -939.7877 1996.8873 80.8783 2005.3103
66.9060 6.3093 -939.8777 1998.3877 80.9273 2006.8115
68.4037 6.3118 -939.9662 1999.8879 80.9760 2008.3127
69.9015 6.3143 -940.0519 2001.3882 81.0245 2009.8137
71.3996 6.3169 -940.1341 2002.8885 81.0727 2011.3143
72.8978 6.3199 -940.2120 2004.3888 81.1207 2012.8145
74.3962 6.3235 -940.2858 2005.8892 81.1684 2014.3141
75.8948 6.3275 -940.3564 2007.3894 81.2158 2015.8135
77.3935 6.3320 -940.4251 2008.8896 81.2631 2017.3127
78.8923 6.3365 -940.4930 2010.3900 81.3100 2018.8119
80.3910 6.3409 -940.5612 2011.8903 81.3568 2020.3109
81.8896 6.3451 -940.6299 2013.3906 81.4033 2021.8101
83.3883 6.3491 -940.6993 2014.8909 81.1725 2023.3092
84.8870 6.3528 -940.7693 2016.3911 80.6007 2024.8083
86.3856 6.3561 -940.8400 2017.8915 80.0262 2026.3076
87.8842 6.3591 -940.9111 2019.3917 79.4490 2027.8068
89.3828 6.3618 -940.9827 2020.8920 78.8690 2029.3060
90.8813 6.3643 -941.0548 2022.3923 78.2862 2030.8052
92.3799 6.3666 -941.1274 2023.8926 77.7005 2032.3043
93.8784 6.3689 -941.2007 2025.3929 77.1118 2033.8036
95.3768 6.3711 -941.2743 2026.8932 76.5202 2035.3027
96.8753 6.3733 -941.3482 2028.3934 75.9254 2036.8020
98.3737 6.3755 -941.4221 2029.8938 75.3276 2038.3011
99.8722 6.3776 -941.4960 2031.3940 74.7265 2039.8003
101.3706 6.3798 -941.5701 2032.8944 74.1221 2041.2996
102.8690 6.3820 -941.6443 2034.3947 73.5144 2042.7987
104.3674 6.3842 -941.7191 2035.8949 72.9033 2044.2980
105.8658 6.3865 -941.7944 2037.3953 72.2887 2045.7971
107.3642 6.3887 -941.8702 2038.8955 71.6705 2047.2963
108.8626 6.3910 -941.9464 2040.3958 71.0487 2048.7954
110.3609 6.3932 -942.0232 2041.8961 70.4231 2050.2947
111.8592 6.3953 -942.1006 2043.3964 69.7936 2051.7939
113.3575 6.3975 -942.1786 2044.8967 69.1602 2053.2932
114.8558 6.3997 -942.2571 2046.3970 68.5229 2054.7925
116.3540 6.4020 -942.3362 2047.8972 67.8813 2056.2920
117.8521 6.4043 -942.4158 2049.3975 67.2355 2057.7915
119.3503 6.4065 -942.4960 2050.8979 66.5854 2059.2913
120.8484 6.4088 -942.5767 2052.3982 65.9308 2060.7913
122.3464 6.4111 -942.6581 2053.8984 65.2717 2062.2915
123.8445 6.4134 -942.7400 2055.3987 64.6078 2063.7917
125.3426 6.4157 -942.8221 2056.8989 63.9391 2065.2920
126.8407 6.4180 -942.9037 2058.3994 63.2654 2066.7925
128.3389 6.4203 -942.9837 2059.8997 62.5866 2068.2927
129.8372 6.4227 -943.0604 2061.3999 61.9025 2069.7927
131.3357 6.4250 -943.1324 2062.9001 61.2129 2071.2927
132.8345 6.4272 -943.1992 2064.4004 60.5177 2072.7927
134.3336 6.4295 -943.2606 2065.9009 59.8168 2074.2925
135.8327 6.4317 -943.3177 2067.4011 59.1099 2075.7927
137.3320 6.4339 -943.3720 2068.9014 58.3968 2077.2935
138.8314 6.4361 -943.4251 2070.4016 57.6774 2078.7949
140.3307 6.4384 -943.4780 2071.9019 56.9513 2080.2974
141.8299 6.4406 -943.5314 2073.4021 56.2185 2081.8005
143.3293 6.4427 -943.5858 2074.9026 55.4785 2083.3040
144.8286 6.4448 -943.6410 2076.4028 54.7312 2084.8076
146.3277 6.4469 -943.6970 2077.9031 53.9763 2086.3113
147.8269 6.4486 -943.7534 2079.4033 53.2135 2087.8149
149.3262 6.4498 -943.8099 2080.9036 52.4425 2089.3184
150.8254 6.4502 -943.8661 2082.4041 51.6629 2090.8220
152.3246 6.4496 -943.9214 2083.9043 50.8744 2092.3254
153.8240 6.4481 -943.9756 2085.4045 50.0766 2093.8289
155.3233 6.4458 -944.0287 2086.9048 49.2691 2095.3323
156.8227 6.4428 -944.0811 2088.4050 48.4514 2096.8357
158.3222 6.4393 -944.1331 2089.9055 47.6230 2098.3394
159.8215 6.4356 -944.1852 2091.4058 46.7835 2099.8430
161.3210 6.4316 -944.2380 2092.9060 45.9323 2101.3472
162.8203 6.4272 -944.2921 2094.4062 45.0694 2102.8516
164.3196 6.4221 -944.3484 2095.9065 44.2028 2104.3562
165.8188 6.4161 -944.4078 2097.4070 43.3324 2105.8613
167.3178 6.4092 -944.4707 2098.9072 42.4579 2107.3667
168.8167 6.4018 -944.5364 2100.4075 41.5792 2108.8718
170.3154 6.3941 -944.6042 2101.9077 40.6961 2110.3765
171.8142 6.3864 -944.6724 2103.4080 39.8084 2111.8779
173.3131 6.3790 -944.7399 2104.9082 38.9158 2113.3748
174.8119 6.3717 -944.8059 2106.4087 38.0180 2114.8645
176.3107 6.3648 -944.8704 2107.9089 37.1148 2116.3467
177.8096 6.3582 -944.9338 2109.4092 36.2059 2117.8247
179.3086 6.3523 -944.9973 2110.9094 35.2910 2119.3013
180.8075 6.3471 -945.0616 2112.4097 34.3696 2120.7791
182.3063 6.3422 -945.1279 2113.9102 33.4414 2122.2576
183.8049 6.3377 -945.1978 2115.4104 32.5059 2123.7373
185.3033 6.3340 -945.2734 2116.9106 31.5627 2125.2122
186.8012 6.3314 -945.3577 2118.4109 30.6112 2126.6765
188.2982 6.3299 -945.4546 2119.9111 29.6508 2128.1135
189.7943 6.3298 -945.5676 2121.4116 28.6808 2129.5161
191.2887 6.3312 -945.6992 2122.9119 27.7004 2130.8804
192.7811 6.3338 -945.8522 2124.4121 26.7088 2132.2170
194.2708 6.3368 -946.0305 2125.9124 25.7049 2133.5388
195.7565 6.3388 -946.2393 2127.4126 24.6875 2134.8516
197.2363 6.3390 -946.4859 2128.9131 23.6555 2136.1628
198.7073 6.3373 -946.7800 2130.4133 22.6070 2137.4729
200.1652 6.3330 -947.1336 2131.9136 21.5404 2138.7812
201.6039 6.3262 -947.5585 2133.4138 20.4532 2140.0830
203.0160 6.3177 -948.0644 2134.9141 19.3540 2141.3760
204.3938 6.3081 -948.6573 2136.4146 18.6797 2142.6606
205.7288 6.2983 -949.3411 2137.9148 18.1140 2143.9434
207.0120 6.2888 -950.1177 2139.4150 17.6026 2145.2285
208.2337 6.2797 -950.9878 2140.9153 17.2880 2146.5164
209.3847 6.2707 -951.9495 2142.4155 17.3548 2147.8083
210.4589 6.2617 -952.9963 2143.9158 18.0135 2149.0962
211.4558 6.2525 -954.1172 2145.4163 19.0931 2150.3752
212.3786 6.2430 -955.2998 2146.9165 20.1553 2151.6438
213.2325 6.2331 -956.5331 2148.4167 21.1639 2152.9077
214.0233 6.2229 -957.8079 2149.9170 22.1261 2154.1707
214.7574 6.2124 -959.1161 2151.4172 23.0478 2155.4463
215.4409 6.2017 -960.4517 2152.9177 23.9338 2156.7385
216.0789 6.1909 -961.8094 2154.4180 24.7878 2158.0591
216.6756 6.1800 -963.1858 2155.9182 25.6131 2159.4038
217.2350 6.1691 -964.5778 2157.4185 26.4124 2160.7695
217.7616 6.1581 -965.9825 2158.9187 27.1879 2162.1548
218.2620 6.1470 -967.3968 2160.4192 27.9416 2163.5659
218.7448 6.1357 -968.8172 2161.9194 27.1052 2165.0112
219.2187 6.1242 -970.2406 2163.4197 26.1063 2166.5044
219.6896 6.1124 -971.6650 2164.9199 25.0945 2168.0410
220.1599 6.1002 -973.0897 2166.4202 24.0685 2169.6143
220.6296 6.0877 -974.5144 2167.9207 23.0268 2171.2227
221.0979 6.0748 -975.9397 2169.4209 21.9676 2172.8787
221.5636 6.0613 -977.3658 2170.9211 20.8890 2174.5996
222.0257 6.0473 -978.7930 2172.4214 19.7882 2176.3748
222.4854 6.0327 -980.2212 2173.9216 18.6623 2178.1843
222.9502 6.0179 -981.6475 2175.4221 17.5074 2180.0222
223.4429 6.0029 -983.0644 2176.9224 16.3184 2181.9011
224.0074 5.9878 -984.4540 2178.4226 15.0482 2183.8372
224.6960 5.9730 -985.7859 2179.9229 13.6747 2185.8267
225.5374 5.9603 -987.0267 2181.4231 13.4225 2187.8340
226.5261 5.9514 -988.1539 2182.9233 14.0413 2189.8076
227.6373 5.9451 -989.1607 2184.4238 14.9588 2191.7009
228.8462 5.9378 -990.0482 2185.9241 15.2348 2193.5117
230.1366 5.9286 -990.8124 2187.4243 15.2336 2195.2742
231.4952 5.9196 -991.4474 2188.9246 16.2830 2197.0059
232.9033 5.9113 -991.9643 2190.4248 17.5178 2198.7031
234.3404 5.9033 -992.3946 2191.9253 18.6705 2200.3525
235.7927 5.8954 -992.7707 2193.4255 19.7556 2201.9602
237.2542 5.8872 -993.1090 2194.9258 20.7837 2203.5400
238.7223 5.8787 -993.4180 2196.4260 21.7629 2205.1042
240.1951 5.8701 -993.7033 2197.9263 22.6996 2206.6572
241.6719 5.8614 -993.9670 2199.4268 23.5987 2208.1936
243.1524 5.8528 -994.2097 2200.9270 24.4646 2209.7092
244.6358 5.8443 -994.4335 2202.4272 25.3005 2211.2048
246.1213 5.8359 -994.6429 2203.9275 26.1094 2212.6863
247.6080 5.8276 -994.8439 2205.4277 26.8938 2214.1619
249.0951 5.8192 -995.0419 2206.9282 27.6556 2215.6348
250.5823 5.8108 -995.2394 2208.4285 28.3969 2217.1086
252.0694 5.8021 -995.4377 2209.9287 29.1190 2218.5840
253.5563 5.7931 -995.6373 2211.4290 29.8235 2220.0645
255.0429 5.7838 -995.8384 2212.9292 30.5115 2221.5493
256.5292 5.7742 -996.0430 2214.4297 31.1841 2223.0388
258.0147 5.7644 -996.2534 2215.9299 31.8424 2224.5310
259.4989 5.7545 -996.4722 2217.4302 32.4872 2226.0244
260.9814 5.7445 -996.7024 2218.9304 33.1192 2227.5186
262.4616 5.7344 -996.9468 2220.4307 33.7393 2229.0115
263.9389 5.7243 -997.2083 2221.9309 34.3480 2230.5024
265.4130 5.7141 -997.4875 2223.4314 34.9460 2231.9890
266.8838 5.7040 -997.7828 2224.9316 35.5337 2233.4705
268.3522 5.6938 -998.0901 2226.4319 36.1118 2234.9468
269.8188 5.6836 -998.4066 2227.9321 36.6795 2236.4204
271.2836 5.6732 -998.7309 2229.4324 37.2329 2237.8928
272.7466 5.6629 -999.0628 2230.9329 37.7727 2239.3650
274.2079 5.6525 -999.4023 2232.4331 38.2996 2240.8381
275.6675 5.6421 -999.7495 2233.9333 38.8143 2242.3140
277.1253 5.6318 -1000.1044 2235.4336 39.3174 2243.7937
278.5811 5.6214 -1000.4668 2236.9338 39.8095 2245.2783
280.0353 5.6110 -1000.8362 2238.4343 40.2909 2246.7671
281.4879 5.6005 -1001.2115 2239.9346 40.7623 2248.2581
282.9391 5.5899 -1001.5920 2241.4348 41.2240 2249.7500
284.3893 5.5791 -1001.9765 2242.9351 41.6765 2251.2424
285.8385 5.5682 -1002.3645 2244.4353 42.1201 2252.7351
287.2870 5.5570 -1002.7557 2245.9358 42.5552 2254.2275
288.7345 5.5457 -1003.1502 2247.4360 42.9821 2255.7197
290.1810 5.5343 -1003.5481 2248.9363 43.4012 2257.2117
291.6263 5.5231 -1003.9503 2250.4365 43.8127 2258.7036
293.0701 5.5121 -1004.3579 2251.9368 44.2168 2260.1948
294.5118 5.5017 -1004.7729 2253.4373 44.6140 2261.6860
295.9508 5.4919 -1005.1970 2254.9375 45.0043 2263.1768
297.3867 5.4829 -1005.6318 2256.4377 45.3881 2264.6672
298.8192 5.4746 -1006.0773 2257.9380 45.7655 2266.1580
300.2487 5.4671 -1006.5327 2259.4382 46.1368 2267.6487
301.6756 5.4601 -1006.9962 2260.9385 46.5021 2269.1392
303.1008 5.4536 -1007.4648 2262.4390 46.8617 2270.6299
304.5252 5.4472 -1007.9360 2263.9392 47.2157 2272.1208
305.9492 5.4410 -1008.4080 2265.4395 47.5643 2273.6118
307.3732 5.4347 -1008.8801 2266.9397 47.9077 2275.1030
308.7972 5.4284 -1009.3522 2268.4399 48.2459 2276.5942
310.2213 5.4221 -1009.8246 2269.9404 48.5792 2278.0857
311.6452 5.4159 -1010.2972 2271.4407 48.9077 2279.5771
313.0691 5.4096 -1010.7698 2272.9409 49.2315 2281.0688
314.4929 5.4033 -1011.2424 2274.4412 49.5507 2282.5608
315.9167 5.3970 -1011.7153 2275.9414 49.8656 2284.0535
317.3402 5.3907 -1012.1890 2277.4419 50.1761 2285.5479
318.7632 5.3843 -1012.6646 2278.9421 50.4824 2287.0439
320.1849 5.3778 -1013.1439 2280.4424 50.7846 2288.5422
321.6045 5.3713 -1013.6292 2281.9426 51.0828 2290.0417
323.0215 5.3647 -1014.1218 2283.4429 51.3771 2291.5422
324.4361 5.3580 -1014.6216 2284.9434 51.6676 2293.0430
325.8488 5.3512 -1015.1266 2286.4436 51.9544 2294.5435
327.2604 5.3443 -1015.6345 2287.9438 52.2376 2296.0439
328.6717 5.3371 -1016.1437 2289.4441 52.5172 2297.5444
330.0828 5.3297 -1016.6533 2290.9443 52.7934 2299.0447
331.4940 5.3220 -1017.1624 2292.4448 53.0662 2300.5452
332.9057 5.3140 -1017.6703 2293.9451 53.3357 2302.0454
334.3182 5.3060 -1018.1756 2295.4453 53.6019 2303.5457
335.7323 5.2978 -1018.6771 2296.9456 53.8650 2305.0461
337.1480 5.2896 -1019.1735 2298.4458 54.1251 2306.5466
338.5655 5.2813 -1019.6647 2299.9460 54.3821 2308.0469
339.9846 5.2730 -1020.1516 2301.4465 54.6361 2309.5476
341.4048 5.2648 -1020.6351 2302.9468 54.8872 2311.0481
342.8256 5.2565 -1021.1168 2304.4470 55.1355 2312.5486
344.2467 5.2482 -1021.5976 2305.9473 55.3810 2314.0491
345.6681 5.2399 -1022.0779 2307.4475 55.6237 2315.5496
347.0896 5.2317 -1022.5577 2308.9480 55.8638 2317.0500
348.5113 5.2236 -1023.0370 2310.4482 56.1013 2318.5503
349.9332 5.2155 -1023.5151 2311.9485 56.3362 2320.0503
351.3557 5.2075 -1023.9917 2313.4487 56.5686 2321.5503
352.7789 5.1997 -1024.4661 2314.9490 56.7984 2323.0505
354.2030 5.1918 -1024.9381 2316.4495 57.0259 2324.5505
355.6278 5.1840 -1025.4080 2317.9497 57.2510 2326.0508
357.0531 5.1761 -1025.8761 2319.4500 57.4737 2327.5508
358.4787 5.1681 -1026.3435 2320.9502 57.6941 2329.0510
359.9045 5.1601 -1026.8103 2322.4504 57.9123 2330.5510
361.3303 5.1519 -1027.2769 2323.9509 58.1283 2332.0513
362.7561 5.1437 -1027.7434 2325.4512 58.3420 2333.5513
364.1819 5.1354 -1028.2102 2326.9514 58.5537 2335.0513
365.6075 5.1268 -1028.6772 2328.4517 58.7632 2336.5515
367.0331 5.1179 -1029.1445 2329.9519 58.9707 2338.0515
368.4585 5.1085 -1029.6121 2331.4524 59.1761 2339.5515
369.8839 5.0982 -1030.0801 2332.9526 59.3795 2341.0513
371.3092 5.0869 -1030.5486 2334.4529 59.5810 2342.5505
372.7343 5.0746 -1031.0175 2335.9531 59.7805 2344.0491
374.1591 5.0615 -1031.4869 2337.4534 59.9781 2345.5469
375.5838 5.0475 -1031.9572 2338.9536 60.1738 2347.0447
377.0082 5.0331 -1032.4282 2340.4541 60.3677 2348.5420
378.4322 5.0183 -1032.9003 2341.9543 60.5598 2350.0396
379.8557 5.0037 -1033.3734 2343.4546 60.7501 2351.5369
381.2790 4.9895 -1033.8479 2344.9548 60.9386 2353.0342
382.7017 4.9760 -1034.3239 2346.4551 61.1254 2354.5317
384.1240 4.9632 -1034.8011 2347.9556 61.3105 2356.0293
385.5457 4.9511 -1035.2799 2349.4558 61.4939 2357.5269
386.9670 4.9395 -1035.7601 2350.9561 61.6757 2359.0244
388.3878 4.9281 -1036.2418 2352.4563 61.8558 2360.5220
389.8083 4.9168 -1036.7247 2353.9565 62.0343 2362.0195
391.2283 4.9057 -1037.2089 2355.4570 62.2113 2363.5171
392.6479 4.8946 -1037.6942 2356.9573 62.3867 2365.0146
394.0672 4.8837 -1038.1805 2358.4575 62.5605 2366.5127
395.4861 4.8727 -1038.6680 2359.9578 62.7328 2368.0115
396.9046 4.8618 -1039.1561 2361.4580 62.9037 2369.5117
398.3228 4.8509 -1039.6454 2362.9585 63.0730 2371.0137
399.7408 4.8401 -1040.1354 2364.4587 63.2409 2372.5178
401.1586 4.8293 -1040.6259 2365.9590 63.4074 2374.0227
402.5763 4.8185 -1041.1168 2367.4592 63.5725 2375.5286
403.9938 4.8077 -1041.6083 2368.9595 63.7361 2377.0344
405.4111 4.7969 -1042.1000 2370.4597 63.8984 2378.5400
406.8283 4.7861 -1042.5919 2371.9602 64.0594 2380.0457
408.2457 4.7752 -1043.0840 2373.4604 64.2190 2381.5513
409.6631 4.7643 -1043.5758 2374.9607 64.3772 2383.0569
411.0805 4.7534 -1044.0673 2376.4609 64.5342 2384.5623
412.4983 4.7425 -1044.5577 2377.9612 64.6899 2386.0676
413.9165 4.7315 -1045.0468 2379.4617 64.8443 2387.5732
415.3354 4.7205 -1045.5342 2380.9619 64.9975 2389.0786
416.7552 4.7095 -1046.0190 2382.4622 65.1494 2390.5845
418.1759 4.6984 -1046.5013 2383.9624 65.3001 2392.0903
419.5974 4.6872 -1046.9810 2385.4626 65.4496 2393.5959
421.0199 4.6760 -1047.4580 2386.9631 65.5980 2395.1011
422.4430 4.6648 -1047.9331 2388.4634 65.7451 2396.6055
423.8663 4.6536 -1048.4070 2389.9636 65.8911 2398.1077
425.2899 4.6424 -1048.8804 2391.4639 66.0359 2399.6082
426.7136 4.6312 -1049.3536 2392.9641 66.1796 2401.1072
428.1372 4.6200 -1049.8271 2394.4646 66.3222 2402.6050
429.5607 4.6089 -1050.3008 2395.9648 66.4636 2404.1025
430.9841 4.5977 -1050.7745 2397.4651 66.6040 2405.5999
432.4075 4.5865 -1051.2488 2398.9653 66.7433 2407.0974
433.8307 4.5754 -1051.7231 2400.4656 66.8815 2408.5950
435.2538 4.5642 -1052.1980 2401.9661 67.0187 2410.0925
436.6768 4.5531 -1052.6733 2403.4663 67.1548 2411.5903
438.0998 4.5420 -1053.1490 2404.9666 67.2899 2413.0879
439.5225 4.5308 -1053.6251 2406.4668 67.4240 2414.5857
440.9449 4.5197 -1054.1017 2407.9670 67.5571 2416.0833
442.3672 4.5086 -1054.5789 2409.4673 67.6892 2417.5808
443.7893 4.4975 -1055.0565 2410.9678 67.8203 2419.0784
445.2113 4.4863 -1055.5348 2412.4680 67.9504 2420.5759
446.6331 4.4751 -1056.0134 2413.9683 68.0796 2422.0735
448.0547 4.4640 -1056.4927 2415.4685 68.2078 2423.5708
449.4761 4.4528 -1056.9727 2416.9688 68.3350 2425.0684
450.8973 4.4416 -1057.4532 2418.4692 68.4614 2426.5662
452.3182 4.4303 -1057.9344 2419.9695 68.5868 2428.0637
453.7388 4.4191 -1058.4166 2421.4697 68.7113 2429.5620
455.1593 4.4078 -1058.8994 2422.9700 68.8349 2431.0608
456.5795 4.3966 -1059.3828 2424.4702 68.9577 2432.5601
457.9996 4.3854 -1059.8667 2425.9707 69.0795 2434.0598
459.4195 4.3742 -1060.3511 2427.4709 69.2005 2435.5593
460.8392 4.3632 -1060.8359 2428.9712 69.3206 2437.0591
462.2587 4.3522 -1061.3213 2430.4714 69.4398 2438.5588
463.6780 4.3415 -1061.8073 2431.9717 69.3855 2440.0586
465.0973 4.3311 -1062.2937 2433.4722 68.7495 2441.5583
466.5162 4.3208 -1062.7808 2434.9724 68.1095 2443.0581
467.9349 4.3108 -1063.2684 2436.4727 67.4652 2444.5576
469.3534 4.3009 -1063.7571 2437.9729 66.8167 2446.0571
470.7716 4.2910 -1064.2463 2439.4731 66.1637 2447.5564
472.1895 4.2810 -1064.7362 2440.9736 65.5062 2449.0559
473.6072 4.2708 -1065.2268 2442.4739 64.8440 2450.5557
475.0247 4.2603 -1065.7183 2443.9741 64.1770 2452.0562
476.4420 4.2496 -1066.2104 2445.4744 63.5051 2453.5583
477.8590 4.2385 -1066.7032 2446.9746 62.8281 2455.0625
479.2759 4.2272 -1067.1964 2448.4749 62.1459 2456.5686
480.6930 4.2153 -1067.6892 2449.9753 61.4583 2458.0759
482.1103 4.2028 -1068.1810 2451.4756 60.7651 2459.5837
483.5283 4.1895 -1068.6710 2452.9758 60.0663 2461.0918
484.9469 4.1750 -1069.1589 2454.4761 59.3615 2462.5994
486.3664 4.1594 -1069.6444 2455.9763 58.6506 2464.1072
487.7867 4.1424 -1070.1274 2457.4768 57.9335 2465.6147
489.2079 4.1243 -1070.6080 2458.9771 57.2098 2467.1226
490.6299 4.1050 -1071.0859 2460.4773 56.4794 2468.6309
492.0528 4.0850 -1071.5613 2461.9775 55.7420 2470.1406
493.4766 4.0645 -1072.0338 2463.4778 54.9973 2471.6516
494.9013 4.0437 -1072.5033 2464.9783 54.2452 2473.1636
496.3272 4.0226 -1072.9692 2466.4785 53.4852 2474.6760
497.7545 4.0013 -1073.4310 2467.9788 52.7171 2476.1887
499.1834 3.9796 -1073.8877 2469.4790 51.9406 2477.7012
500.6143 3.9580 -1074.3384 2470.9792 51.1553 2479.2131
502.0471 3.9371 -1074.7825 2472.4797 50.3609 2480.7251
503.4823 3.9177 -1075.2190 2473.9800 49.5569 2482.2380
504.9200 3.9010 -1075.6477 2475.4802 48.7428 2483.7554
506.3601 3.8885 -1076.0685 2476.9805 47.9183 2485.2788
507.8024 3.8809 -1076.4813 2478.4807 47.0828 2486.8130
509.2469 3.8789 -1076.8865 2479.9812 46.2358 2488.3591
510.6937 3.8824 -1077.2841 2481.4814 45.3766 2489.9128
512.1425 3.8903 -1077.6740 2482.9817 44.5114 2491.4712
513.5935 3.9012 -1078.0549 2484.4819 43.6424 2493.0317
515.0474 3.9132 -1078.4252 2485.9822 42.7694 2494.5938
516.5045 3.9240 -1078.7825 2487.4824 41.8922 2496.1580
517.9653 3.9316 -1079.1243 2488.9829 41.0107 2497.7251
519.4301 3.9341 -1079.4486 2490.4832 40.1246 2499.2959
520.8989 3.9307 -1079.7539 2491.9834 39.2338 2500.8708
522.3719 3.9211 -1080.0383 2493.4836 38.3378 2502.4482
523.8492 3.9057 -1080.2998 2494.9839 37.4366 2504.0273
525.3304 3.8864 -1080.5365 2496.4844 36.5298 2505.6079
526.8158 3.8651 -1080.7468 2497.9846 35.6170 2507.1904
528.3049 3.8440 -1080.9290 2499.4849 34.6980 2508.7754
529.7974 3.8246 -1081.0798 2500.9851 33.7723 2510.3625
531.2931 3.8081 -1081.1948 2502.4854 32.8394 2511.9509
532.7915 3.7942 -1081.2688 2503.9858 31.8991 2513.5391
534.2915 3.7826 -1081.2977 2505.4861 31.7828 2515.1260
535.7916 3.7722 -1081.2811 2506.9863 32.4288 2516.7126
537.2906 3.7627 -1081.2222 2508.4866 33.0620 2518.3000
538.7877 3.7544 -1081.1260 2509.9868 33.6831 2519.8901
540.2825 3.7475 -1080.9978 2511.4873 34.2928 2521.4832
541.7745 3.7418 -1080.8405 2512.9875 34.1437 2523.0798
543.2629 3.7365 -1080.6533 2514.4878 33.2137 2524.6772
544.7469 3.7302 -1080.4330 2515.9880 32.2764 2526.2749
546.2247 3.7222 -1080.1741 2517.4883 31.3312 2527.8708
547.6939 3.7124 -1079.8710 2518.9888 30.3776 2529.4648
549.1525 3.7013 -1079.5199 2520.4890 30.0898 2531.0583
550.5985 3.6887 -1079.1205 2521.9893 30.7718 2532.6521
552.0315 3.6741 -1078.6761 2523.4895 31.4388 2534.2468
553.4523 3.6575 -1078.1945 2524.9897 32.0918 2535.8425
554.8636 3.6390 -1077.6854 2526.4900 32.7315 2537.4375
556.2676 3.6197 -1077.1572 2527.9905 33.3589 2539.0308
557.6653 3.6006 -1076.6125 2529.4907 33.9745 2540.6211
559.0555 3.5829 -1076.0486 2530.9910 34.5790 2542.2112
560.4357 3.5673 -1075.4609 2532.4912 35.1730 2543.8015
561.8041 3.5539 -1074.8461 2533.9915 35.7570 2545.3938
563.1599 3.5421 -1074.2034 2535.4919 36.3315 2546.9893
564.5031 3.5310 -1073.5353 2536.9922 36.8936 2548.5874
565.8348 3.5205 -1072.8445 2538.4924 37.4417 2550.1865
567.1553 3.5104 -1072.1324 2539.9927 37.9765 2551.7849
568.4645 3.5006 -1071.4001 2541.4929 38.4986 2553.3811
569.7616 3.4911 -1070.6462 2542.9934 39.0088 2554.9744
571.0449 3.4818 -1069.8691 2544.4937 39.5076 2556.5674
572.3129 3.4725 -1069.0675 2545.9939 39.9955 2558.1602
573.5660 3.4634 -1068.2427 2547.4941 39.9732 2559.7551
574.8066 3.4546 -1067.3992 2548.9944 39.0815 2561.3525
576.0366 3.4462 -1066.5403 2550.4949 38.1847 2562.9536
577.2557 3.4380 -1065.6658 2551.9951 37.2825 2564.5586
578.4607 3.4302 -1064.7720 2553.4954 36.3747 2566.1655
579.6472 3.4225 -1063.8538 2554.9956 35.4609 2567.7737
580.8109 3.4150 -1062.9069 2556.4958 34.5407 2569.3806
581.9493 3.4078 -1061.9298 2557.9963 34.5187 2570.9854
583.0615 3.4006 -1060.9231 2559.4966 35.1137 2572.5891
584.1479 3.3930 -1059.8885 2560.9968 35.6987 2574.1926
585.2106 3.3851 -1058.8295 2562.4971 36.2741 2575.7976
586.2516 3.3764 -1057.7491 2563.9973 36.8376 2577.4050
587.2729 3.3669 -1056.6503 2565.4976 37.3871 2579.0134
588.2753 3.3568 -1055.5341 2566.9980 37.9232 2580.6216
589.2587 3.3467 -1054.4011 2568.4983 38.4466 2582.2249
590.2228 3.3367 -1053.2516 2569.9985 38.4004 2583.8206
591.1669 3.3271 -1052.0857 2571.4988 37.4996 2585.4097
592.0900 3.3185 -1050.9031 2572.9990 36.5932 2586.9939
592.9908 3.3109 -1049.7034 2574.4995 35.6808 2588.5762
593.8672 3.3038 -1048.4856 2575.9998 34.7622 2590.1580
594.7153 3.2966 -1047.2482 2577.5000 33.8370 2591.7407
595.5307 3.2893 -1045.9889 2579.0002 32.9047 2593.3252
596.3099 3.2814 -1044.7068 2580.5005 33.4566 2594.9102
597.0530 3.2733 -1043.4036 2582.0010 34.0704 2596.4954
597.7621 3.2661 -1042.0815 2583.5012 34.6733 2598.0791
598.4374 3.2599 -1040.7418 2585.0015 34.8081 2599.6621
599.0776 3.2535 -1039.3851 2586.5017 34.8998 2601.2449
599.6824 3.2464 -1038.0122 2588.0020 35.4884 2602.8279
600.2538 3.2376 -1036.6250 2589.5024 36.0672 2604.4126
600.7933 3.2260 -1035.2251 2591.0027 36.6361 2605.9985
601.3016 3.2125 -1033.8136 2592.5029 37.1905 2607.5862
601.7798 3.1984 -1032.3916 2594.0032 37.7313 2609.1755
602.2299 3.1850 -1030.9606 2595.5034 38.2592 2610.7676
602.6547 3.1732 -1029.5217 2597.0039 38.7749 2612.3643
603.0569 3.1634 -1028.0764 2598.5042 39.2789 2613.9658
603.4380 3.1552 -1026.6254 2600.0044 39.7717 2615.5708
603.7982 3.1482 -1025.1691 2601.5046 40.2540 2617.1738
604.1369 3.1419 -1023.7075 2603.0049 40.7262 2618.7703
604.4525 3.1361 -1022.2407 2604.5051 40.1743 2620.3496
604.7424 3.1304 -1020.7687 2606.0056 39.2838 2621.9143
605.0029 3.1247 -1019.2913 2607.5059 38.3881 2623.4685
605.2307 3.1186 -1017.8084 2609.0061 37.7471 2625.0166
605.4250 3.1123 -1016.3207 2610.5063 38.2747 2626.5625
605.5887 3.1059 -1014.8294 2612.0066 38.7900 2628.1060
605.7291 3.0996 -1013.3356 2613.5071 39.2936 2629.6455
605.8560 3.0937 -1011.8408 2615.0073 39.7862 2631.1787
605.9780 3.0883 -1010.3455 2616.5076 40.2681 2632.7014
606.0999 3.0833 -1008.8502 2618.0078 40.7400 2634.2153
606.2230 3.0784 -1007.3549 2619.5081 41.2021 2635.7239
606.3478 3.0735 -1005.8599 2621.0085 41.6551 2637.2292
606.4736 3.0683 -1004.3649 2622.5088 42.0991 2638.7341
606.5999 3.0631 -1002.8699 2624.0090 42.5346 2640.2388
606.7264 3.0577 -1001.3750 2625.5093 42.9619 2641.7439
606.8531 3.0524 -999.8801 2627.0095 43.3813 2643.2498
606.9798 3.0473 -998.3852 2628.5100 43.7931 2644.7556
607.1064 3.0425 -996.8904 2630.0103 44.1976 2646.2620
607.2332 3.0381 -995.3955 2631.5105 44.5951 2647.7683
607.3601 3.0343 -993.9006 2633.0107 44.9858 2649.2749
607.4871 3.0310 -992.4056 2634.5110 45.3698 2650.7812
607.6141 3.0282 -990.9107 2636.0112 45.7476 2652.2876
607.7413 3.0259 -989.4158 2637.5117 46.1191 2653.7932
607.8685 3.0239 -987.9210 2639.0120 46.4848 2655.2979
607.9959 3.0222 -986.4261 2640.5122 46.8446 2656.8015
608.1235 3.0208 -984.9312 2642.0125 47.1989 2658.3042
608.2515 3.0196 -983.4365 2643.5127 47.5477 2659.8064
608.3802 3.0186 -981.9417 2645.0132 47.8913 2661.3083
608.5095 3.0178 -980.4470 2646.5134 48.2298 2662.8101
608.6395 3.0172 -978.9524 2648.0137 48.5634 2664.3123
608.7701 3.0167 -977.4578 2649.5139 48.8921 2665.8142
608.9010 3.0162 -975.9631 2651.0142 49.2161 2667.3164
609.0322 3.0158 -974.4686 2652.5146 49.5356 2668.8186
609.1637 3.0155 -972.9741 2654.0149 49.8506 2670.3206
609.2957 3.0150 -971.4797 2655.5151 50.1613 2671.8228
609.4281 3.0146 -969.9854 2657.0154 50.4678 2673.3250
609.5609 3.0140 -968.4910 2658.5156 50.7702 2674.8271
609.6938 3.0135 -966.9966 2660.0161 51.0686 2676.3291
609.8271 3.0129 -965.5023 2661.5164 51.3631 2677.8313
609.9606 3.0123 -964.0081 2663.0166 51.6538 2679.3333
610.0944 3.0117 -962.5138 2664.5168 51.9407 2680.8352
610.2286 3.0111 -961.0196 2666.0171 52.2241 2682.3372
610.3636 3.0106 -959.5255 2667.5176 52.5039 2683.8389
610.5001 3.0101 -958.0314 2669.0178 52.7802 2685.3406
610.6388 3.0096 -956.5376 2670.5181 53.0532 2686.8423
610.7801 3.0092 -955.0440 2672.0183 53.3228 2688.3438
610.9241 3.0088 -953.5506 2673.5186 53.5893 2689.8455
611.0704 3.0085 -952.0576 2675.0188 53.8525 2691.3469
611.2185 3.0083 -950.5646 2676.5193 54.1127 2692.8481
611.3677 3.0080 -949.0717 2678.0195 54.3698 2694.3496
611.5172 3.0077 -947.5789 2679.5198 54.6240 2695.8508
611.6667 3.0074 -946.0861 2681.0200 54.8752 2697.3521
611.8161 3.0071 -944.5932 2682.5203 55.1237 2698.8533
611.9655 3.0068 -943.1003 2684.0208 55.3693 2700.3542
612.1147 3.0064 -941.6075 2685.5210 55.6122 2701.8555
612.2641 3.0059 -940.1147 2687.0212 55.8524 2703.3564
612.4135 3.0054 -938.6218 2688.5215 56.0900 2704.8574
612.5626 3.0049 -937.1290 2690.0217 56.3250 2706.3582
612.7116 3.0042 -935.6362 2691.5222 56.5575 2707.8586
612.8605 3.0035 -934.1434 2693.0225 56.7875 2709.3586
613.0092 3.0027 -932.6505 2694.5227 57.0151 2710.8586
613.1578 3.0019 -931.1575 2696.0229 57.2403 2712.3586
613.3064 3.0010 -929.6645 2697.5232 57.4631 2713.8584
613.4548 3.0001 -928.1715 2699.0237 57.6836 2715.3582
613.6033 2.9992 -926.6785 2700.5239 57.9019 2716.8577
613.7516 2.9983 -925.1855 2702.0242 58.1180 2718.3574
613.9000 2.9975 -923.6924 2703.5244 58.3319 2719.8572
614.0482 2.9966 -922.1994 2705.0247 58.5436 2721.3569
614.1964 2.9957 -920.7064 2706.5251 58.7532 2722.8567
614.3446 2.9948 -919.2135 2708.0254 58.9608 2724.3564
614.4928 2.9939 -917.7205 2709.5256 59.1663 2725.8562
614.6409 2.9930 -916.2275 2711.0259 59.3698 2727.3560
614.7890 2.9921 -914.7345 2712.5261 59.5714 2728.8557
614.9370 2.9911 -913.2415 2714.0264 59.7710 2730.3555
615.0848 2.9902 -911.7485 2715.5269 59.9687 2731.8552
615.2326 2.9892 -910.2555 2717.0271 60.1645 2733.3550
615.3802 2.9883 -908.7625 2718.5273 60.3585 2734.8547
615.5279 2.9873 -907.2695 2720.0276 60.5506 2736.3545
615.6755 2.9863 -905.7765 2721.5278 60.7410 2737.8542
615.8232 2.9853 -904.2834 2723.0283 60.9296 2739.3540
615.9709 2.9843 -902.7904 2724.5286 61.1165 2740.8538
616.1185 2.9833 -901.2974 2726.0288 61.3017 2742.3533
616.2661 2.9823 -899.8044 2727.5291 61.4852 2743.8530
616.4136 2.9812 -898.3115 2729.0293 61.6670 2745.3528
616.5610 2.9801 -896.8184 2730.5298 61.8472 2746.8525
616.7083 2.9789 -895.3254 2732.0300 62.0258 2748.3523
616.8553 2.9776 -893.8323 2733.5303 62.2028 2749.8521
617.0023 2.9761 -892.3393 2735.0305 62.3783 2751.3518
617.1490 2.9744 -890.8463 2736.5308 62.5522 2752.8516
617.2957 2.9724 -889.3532 2738.0312 62.7246 2754.3513
617.4423 2.9703 -887.8601 2739.5315 62.8955 2755.8511
617.5886 2.9680 -886.3670 2741.0317 63.0649 2757.3508
617.7347 2.9656 -884.8738 2742.5320 63.2329 2758.8506
617.8807 2.9630 -883.3806 2744.0322 63.3995 2760.3503
618.0261 2.9605 -881.8875 2745.5327 63.5646 2761.8499
618.1710 2.9579 -880.3943 2747.0330 63.7283 2763.3494
618.3146 2.9553 -878.9009 2748.5332 63.8907 2764.8489
618.4566 2.9527 -877.4073 2750.0334 64.0517 2766.3484
618.5966 2.9500 -875.9136 2751.5337 64.2114 2767.8481
618.7347 2.9473 -874.4198 2753.0339 64.3697 2769.3477
618.8715 2.9446 -872.9258 2754.5344 64.5267 2770.8472
619.0076 2.9420 -871.4318 2756.0347 64.6825 2772.3467
619.1432 2.9394 -869.9377 2757.5349 64.8370 2773.8462
619.2788 2.9368 -868.4437 2759.0352 64.9902 2775.3457
619.4144 2.9344 -866.9495 2760.5354 65.1422 2776.8455
619.5498 2.9321 -865.4552 2762.0359 65.2930 2778.3452
619.6851 2.9298 -863.9609 2763.5361 65.4425 2779.8450
619.8203 2.9276 -862.4669 2765.0364 65.5909 2781.3445
619.9553 2.9254 -860.9726 2766.5366 65.7381 2782.8442
620.0901 2.9230 -859.4783 2768.0369 65.8841 2784.3440
620.2247 2.9206 -857.9842 2769.5374 66.0290 2785.8435
620.3591 2.9178 -856.4899 2771.0376 66.1727 2787.3433
620.4932 2.9148 -854.9956 2772.5378 66.3154 2788.8428
620.6271 2.9115 -853.5014 2774.0381 65.7965 2790.3425
620.7609 2.9078 -852.0070 2775.5383 65.1364 2791.8423
620.8943 2.9040 -850.5126 2777.0388 64.4716 2793.3420
621.0276 2.9001 -849.0182 2778.5391 63.8018 2794.8416
621.1607 2.8961 -847.5239 2780.0393 63.1271 2796.3411
621.2937 2.8921 -846.0295 2781.5396 62.4472 2797.8408
621.4265 2.8882 -844.5350 2783.0398 61.7620 2799.3406
621.5591 2.8845 -843.0406 2784.5403 61.0713 2800.8403
621.6915 2.8808 -841.5461 2786.0405 60.3750 2802.3401
621.8237 2.8772 -840.0515 2787.5408 59.6729 2803.8398
621.9556 2.8737 -838.5571 2789.0410 58.9647 2805.3394
622.0873 2.8702 -837.0627 2790.5413 58.2504 2806.8391
622.2186 2.8667 -835.5681 2792.0415 57.5296 2808.3389
622.3497 2.8632 -834.0735 2793.5420 56.8022 2809.8389
622.4804 2.8596 -832.5789 2795.0422 56.0679 2811.3389
622.6108 2.8559 -831.0843 2796.5425 55.3264 2812.8391
622.7408 2.8522 -829.5897 2798.0427 54.5776 2814.3391
622.8707 2.8484 -828.0950 2799.5430 53.8211 2815.8394
623.0002 2.8446 -826.6002 2801.0435 53.0567 2817.3398
623.1295 2.8408 -825.1055 2802.5437 52.2839 2818.8401
