VERSION 0.7
FIELDS x y z arclength speed lapdistance
SIZE 4 4 4 4 4 4
TYPE F F F F F F
COUNT 1 1 1 1 1 1
WIDTH 880
HEIGHT 1
VIEWPOINT 0.000 0.000 0.000 1.000 0.000 0.000 0.000
POINTS 880
DATA ascii
584.9467 3.9011 -1071.6896 2574.7571 45.5347 2566.5525
586.1139 3.8931 -1070.7467 2576.2573 44.4513 2567.9746
587.2619 3.8850 -1069.7808 2577.7578 43.3618 2569.3926
588.3885 3.8765 -1068.7899 2579.2583 42.2660 2570.8069
589.4916 3.8674 -1067.7727 2580.7588 41.5370 2572.2202
590.5698 3.8574 -1066.7291 2582.2593 42.0942 2573.6331
591.6236 3.8467 -1065.6611 2583.7595 42.6381 2575.0469
592.6558 3.8356 -1064.5721 2585.2600 43.1692 2576.4626
593.6703 3.8243 -1063.4667 2586.7605 43.6882 2577.8818
594.6707 3.8133 -1062.3485 2588.2610 44.1956 2579.3047
595.6579 3.8029 -1061.2185 2589.7615 44.6920 2580.7322
596.6294 3.7930 -1060.0752 2591.2617 45.1778 2582.1633
597.5812 3.7835 -1058.9155 2592.7622 44.5181 2583.5967
598.5092 3.7743 -1057.7365 2594.2627 43.4290 2585.0315
599.4105 3.7651 -1056.5369 2595.7632 42.5535 2586.4661
600.2836 3.7559 -1055.3168 2597.2637 42.9919 2587.9004
601.1284 3.7466 -1054.0769 2598.7639 43.5149 2589.3347
601.9457 3.7371 -1052.8185 2600.2644 44.0262 2590.7688
602.7362 3.7275 -1051.5432 2601.7649 44.5262 2592.2031
603.5012 3.7178 -1050.2524 2603.2654 45.0155 2593.6367
604.2421 3.7083 -1048.9479 2604.7659 45.4945 2595.0691
604.9605 3.6990 -1047.6306 2606.2661 45.9637 2596.4995
605.6574 3.6900 -1046.3019 2607.7666 46.4234 2597.9287
606.3323 3.6815 -1044.9618 2609.2671 46.8741 2599.3572
606.9835 3.6735 -1043.6102 2610.7676 46.8365 2600.7854
607.6089 3.6658 -1042.2463 2612.2681 45.7708 2602.2134
608.2060 3.6586 -1040.8698 2613.7686 44.6886 2603.6394
608.7733 3.6519 -1039.4807 2615.2688 44.4216 2605.0615
609.3102 3.6453 -1038.0797 2616.7693 44.9132 2606.4753
609.8173 3.6386 -1036.6676 2618.2698 45.3943 2607.8799
610.2959 3.6310 -1035.2456 2619.7703 45.8655 2609.2761
610.7488 3.6225 -1033.8152 2621.2708 46.3272 2610.6692
611.1801 3.6135 -1032.3781 2622.7710 46.7797 2612.0613
611.5939 3.6048 -1030.9358 2624.2715 47.2235 2613.4563
611.9925 3.5970 -1029.4893 2625.7720 47.6587 2614.8557
612.3758 3.5900 -1028.0387 2627.2725 48.0858 2616.2629
612.7420 3.5836 -1026.5835 2628.7729 48.5050 2617.6799
613.0895 3.5778 -1025.1239 2630.2732 48.9166 2619.1077
613.4186 3.5722 -1023.6600 2631.7737 49.3209 2620.5466
613.7317 3.5670 -1022.1926 2633.2742 49.7182 2621.9912
614.0328 3.5623 -1020.7227 2634.7747 50.1085 2623.4390
614.3261 3.5582 -1019.2513 2636.2751 50.4923 2624.8857
614.6138 3.5546 -1017.7786 2637.7754 50.8696 2626.3320
614.8959 3.5512 -1016.3049 2639.2759 51.2408 2627.7778
615.1708 3.5477 -1014.8298 2640.7764 51.6059 2629.2261
615.4362 3.5438 -1013.3530 2642.2769 51.9651 2630.6804
615.6896 3.5393 -1011.8741 2643.7773 52.3187 2632.1470
615.9292 3.5342 -1010.3929 2645.2776 52.6668 2633.6252
616.1538 3.5282 -1008.9094 2646.7781 53.0096 2635.1135
616.3637 3.5215 -1007.4239 2648.2786 53.3471 2636.6069
616.5610 3.5143 -1005.9365 2649.7791 53.6796 2638.1023
616.7493 3.5066 -1004.4480 2651.2795 54.0072 2639.5981
616.9332 3.4986 -1002.9590 2652.7800 54.3300 2641.0935
617.1160 3.4905 -1001.4698 2654.2803 54.6481 2642.5884
617.2994 3.4826 -999.9805 2655.7808 54.9617 2644.0830
617.4835 3.4748 -998.4914 2657.2812 55.2708 2645.5769
617.6670 3.4673 -997.0022 2658.7817 55.5757 2647.0708
617.8481 3.4600 -995.5127 2660.2822 55.8763 2648.5647
618.0246 3.4528 -994.0227 2661.7825 56.1729 2650.0586
618.1949 3.4456 -992.5320 2663.2830 56.4654 2651.5530
618.3588 3.4385 -991.0405 2664.7834 56.7540 2653.0476
618.5173 3.4312 -989.5485 2666.2839 57.0388 2654.5432
618.6720 3.4240 -988.0562 2667.7844 57.3199 2656.0398
618.8250 3.4168 -986.5635 2669.2847 57.5973 2657.5376
618.9776 3.4096 -985.0709 2670.7852 57.8711 2659.0361
619.1301 3.4023 -983.5784 2672.2856 58.1415 2660.5349
619.2830 3.3950 -982.0857 2673.7861 58.4085 2662.0339
619.4360 3.3875 -980.5930 2675.2866 58.6721 2663.5330
619.5892 3.3800 -979.1005 2676.7869 58.9324 2665.0317
619.7422 3.3724 -977.6080 2678.2874 59.1896 2666.5305
619.8951 3.3649 -976.1153 2679.7878 59.4436 2668.0293
620.0472 3.3574 -974.6226 2681.2883 59.6946 2669.5281
620.1978 3.3501 -973.1298 2682.7888 59.9425 2671.0269
620.3460 3.3430 -971.6367 2684.2891 60.1876 2672.5256
620.4905 3.3360 -970.1434 2685.7896 60.4297 2674.0244
620.6300 3.3292 -968.6494 2687.2900 60.6690 2675.5234
620.7639 3.3227 -967.1549 2688.7905 60.9055 2677.0225
620.8920 3.3163 -965.6599 2690.2910 61.1393 2678.5215
621.0149 3.3100 -964.1644 2691.7913 61.3705 2680.0200
621.1328 3.3036 -962.6687 2693.2917 61.5990 2681.5186
621.2452 3.2970 -961.1724 2694.7922 61.8250 2683.0168
621.3512 3.2903 -959.6758 2696.2927 62.0484 2684.5149
621.4498 3.2834 -958.1787 2697.7932 62.2694 2686.0129
621.5406 3.2763 -956.6810 2699.2937 62.4879 2687.5105
621.6246 3.2692 -955.1829 2700.7939 62.7041 2689.0081
621.7033 3.2623 -953.6844 2702.2944 62.9179 2690.5056
621.7778 3.2555 -952.1858 2703.7949 63.1294 2692.0029
621.8486 3.2490 -950.6870 2705.2954 63.3386 2693.5000
621.9163 3.2429 -949.1882 2706.7959 63.5456 2694.9971
621.9810 3.2370 -947.6891 2708.2961 63.7504 2696.4941
622.0432 3.2313 -946.1900 2709.7966 63.9531 2697.9907
622.1033 3.2256 -944.6909 2711.2971 64.1537 2699.4873
622.1622 3.2196 -943.1917 2712.7976 64.3521 2700.9839
622.2204 3.2134 -941.6923 2714.2981 64.5486 2702.4807
622.2784 3.2074 -940.1930 2715.7983 64.7430 2703.9773
622.3367 3.2018 -938.6938 2717.2988 64.9355 2705.4739
622.3951 3.1967 -937.1945 2718.7993 65.1260 2706.9712
622.4535 3.1923 -935.6951 2720.2998 65.3145 2708.4690
622.5116 3.1888 -934.1958 2721.8003 65.5012 2709.9675
622.5693 3.1859 -932.6965 2723.3005 65.6861 2711.4666
622.6265 3.1836 -931.1971 2724.8010 65.8691 2712.9661
622.6833 3.1817 -929.6977 2726.3015 66.0503 2714.4656
622.7400 3.1800 -928.1983 2727.8020 66.2298 2715.9651
622.7972 3.1780 -926.6990 2729.3025 66.4075 2717.4646
622.8562 3.1754 -925.1997 2730.8027 66.5835 2718.9641
622.9186 3.1721 -923.7006 2732.3032 66.7577 2720.4636
622.9863 3.1682 -922.2018 2733.8037 66.9304 2721.9634
623.0610 3.1642 -920.7032 2735.3042 67.1013 2723.4634
623.1436 3.1605 -919.2050 2736.8047 67.2707 2724.9636
623.2335 3.1573 -917.7074 2738.3052 67.4385 2726.4639
623.3290 3.1547 -916.2101 2739.8054 67.6046 2727.9644
623.4286 3.1525 -914.7129 2741.3059 67.7693 2729.4651
623.5308 3.1505 -913.2159 2742.8064 67.9324 2730.9656
623.6348 3.1486 -911.7191 2744.3069 68.0940 2732.4663
623.7408 3.1468 -910.2224 2745.8074 68.2541 2733.9670
623.8498 3.1451 -908.7260 2747.3076 68.4127 2735.4675
623.9632 3.1434 -907.2299 2748.8081 68.5699 2736.9683
624.0822 3.1419 -905.7343 2750.3086 68.7257 2738.4688
624.2072 3.1405 -904.2391 2751.8091 68.8801 2739.9695
624.3381 3.1392 -902.7444 2753.3096 69.0331 2741.4700
624.4741 3.1380 -901.2501 2754.8098 69.1847 2742.9707
624.6139 3.1369 -899.7562 2756.3103 69.3349 2744.4712
624.7560 3.1358 -898.2625 2757.8108 69.4838 2745.9719
624.8993 3.1348 -896.7687 2759.3113 69.6315 2747.4727
625.0425 3.1338 -895.2752 2760.8118 69.7778 2748.9731
625.1854 3.1327 -893.7817 2762.3120 69.9228 2750.4736
625.3279 3.1317 -892.2879 2763.8125 70.0666 2751.9741
625.4698 3.1307 -890.7941 2765.3130 70.2091 2753.4749
625.6114 3.1297 -889.3003 2766.8135 70.3503 2754.9753
625.7527 3.1286 -887.8065 2768.3140 70.4904 2756.4761
625.8937 3.1277 -886.3127 2769.8142 70.6293 2757.9766
626.0345 3.1268 -884.8189 2771.3147 70.7669 2759.4773
626.1750 3.1260 -883.3251 2772.8152 70.9034 2760.9780
626.3154 3.1254 -881.8312 2774.3157 71.0388 2762.4790
626.4554 3.1250 -880.3373 2775.8162 71.1730 2763.9800
626.5953 3.1249 -878.8433 2777.3164 71.3060 2765.4810
626.7349 3.1250 -877.3494 2778.8169 71.4380 2766.9819
626.8742 3.1254 -875.8555 2780.3174 71.5688 2768.4829
627.0132 3.1259 -874.3615 2781.8179 71.6986 2769.9839
627.1520 3.1266 -872.8676 2783.3184 71.8273 2771.4849
627.2904 3.1274 -871.3735 2784.8188 71.9549 2772.9858
627.4285 3.1284 -869.8795 2786.3191 72.0815 2774.4868
627.5662 3.1295 -868.3854 2787.8196 72.2070 2775.9878
627.7036 3.1307 -866.8914 2789.3201 72.3315 2777.4888
627.8407 3.1321 -865.3972 2790.8206 72.4550 2778.9900
627.9774 3.1336 -863.9029 2792.3210 72.5774 2780.4910
628.1139 3.1352 -862.4088 2793.8213 72.6989 2781.9919
628.2501 3.1368 -860.9146 2795.3218 72.8194 2783.4929
628.3861 3.1384 -859.4204 2796.8223 72.9390 2784.9939
628.5221 3.1399 -857.9262 2798.3228 73.0575 2786.4951
628.6583 3.1413 -856.4320 2799.8232 73.1752 2787.9961
628.7949 3.1427 -854.9379 2801.3235 73.2919 2789.4971
628.9323 3.1439 -853.4438 2802.8240 73.4076 2790.9980
629.0709 3.1451 -851.9498 2804.3245 73.5225 2792.4990
629.2108 3.1463 -850.4560 2805.8250 73.6364 2794.0000
629.3521 3.1475 -848.9622 2807.3254 73.7495 2795.5010
629.4946 3.1487 -847.4686 2808.8257 73.8616 2797.0020
629.6378 3.1501 -845.9751 2810.3262 73.9729 2798.5029
629.7814 3.1514 -844.4816 2811.8267 74.0833 2800.0039
629.9251 3.1529 -842.9881 2813.3271 74.1929 2801.5049
630.0687 3.1543 -841.4946 2814.8276 73.8151 2803.0059
630.2121 3.1558 -840.0012 2816.3279 73.0525 2804.5068
630.3553 3.1574 -838.5076 2817.8284 72.2844 2806.0078
630.4982 3.1590 -837.0140 2819.3289 71.5107 2807.5088
630.6407 3.1607 -835.5204 2820.8293 70.7313 2809.0098
630.7826 3.1625 -834.0267 2822.3298 69.9459 2810.5105
630.9236 3.1642 -832.5330 2823.8301 69.1544 2812.0110
631.0636 3.1659 -831.0390 2825.3306 68.3566 2813.5117
631.2023 3.1675 -829.5450 2826.8311 67.5522 2815.0122
631.3399 3.1692 -828.0510 2828.3315 66.7412 2816.5127
631.4765 3.1709 -826.5568 2829.8320 65.9232 2818.0132
631.6124 3.1727 -825.0624 2831.3325 65.0981 2819.5137
631.7478 3.1746 -823.5682 2832.8328 64.2655 2821.0142
631.8829 3.1766 -822.0739 2834.3333 63.4253 2822.5146
632.0176 3.1788 -820.5794 2835.8337 62.5770 2824.0154
632.1520 3.1810 -819.0850 2837.3342 61.7205 2825.5161
632.2863 3.1833 -817.5905 2838.8347 60.8554 2827.0166
632.4200 3.1856 -816.0959 2840.3350 59.9814 2828.5171
632.5534 3.1878 -814.6015 2841.8354 59.0982 2830.0176
632.6860 3.1899 -813.1071 2843.3359 58.2052 2831.5181
632.8179 3.1919 -811.6124 2844.8364 57.3022 2833.0186
632.9489 3.1938 -810.1177 2846.3369 56.3887 2834.5193
633.0792 3.1955 -808.6230 2847.8372 55.4643 2836.0200
633.2087 3.1972 -807.1281 2849.3376 54.5283 2837.5215
633.3373 3.1987 -805.6332 2850.8381 53.5803 2839.0229
633.4651 3.2001 -804.1382 2852.3386 52.6196 2840.5244
633.5920 3.2014 -802.6431 2853.8391 51.6457 2842.0254
633.7179 3.2026 -801.1479 2855.3394 50.6578 2843.5232
633.8430 3.2038 -799.6529 2856.8398 49.6552 2845.0168
633.9673 3.2050 -798.1576 2858.3403 48.6369 2846.5029
634.0911 3.2061 -796.6622 2859.8408 47.6022 2847.9812
634.2144 3.2072 -795.1668 2861.3413 46.5500 2849.4541
634.3376 3.2083 -793.6714 2862.8416 45.4791 2850.9241
634.4607 3.2093 -792.1760 2864.3420 44.3954 2852.3933
634.5832 3.2103 -790.6807 2865.8425 43.3056 2853.8613
634.7035 3.2110 -789.1851 2867.3430 42.2094 2855.3259
634.8186 3.2113 -787.6891 2868.8435 41.1065 2856.7842
634.9239 3.2109 -786.1924 2870.3440 39.9963 2858.2280
635.0140 3.2096 -784.6946 2871.8442 38.8786 2859.6545
635.0840 3.2074 -783.1958 2873.3447 37.7526 2861.0640
635.1295 3.2044 -781.6961 2874.8452 36.6180 2862.4609
635.1458 3.2011 -780.1957 2876.3457 35.4740 2863.8535
635.1267 3.1975 -778.6954 2877.8462 34.3199 2865.2454
635.0644 3.1937 -777.1963 2879.3464 33.1550 2866.6382
634.9508 3.1897 -775.7003 2880.8469 31.9784 2868.0364
634.7814 3.1854 -774.2094 2882.3474 32.4843 2869.4382
634.5580 3.1809 -772.7258 2883.8479 33.2726 2870.8396
634.2892 3.1765 -771.2498 2885.3484 34.0424 2872.2380
633.9858 3.1724 -769.7803 2886.8486 34.7950 2873.6252
633.6542 3.1685 -768.3168 2888.3491 34.6957 2875.0010
633.2926 3.1647 -766.8607 2889.8496 33.5344 2876.3630
632.8936 3.1605 -765.4144 2891.3501 32.3617 2877.7161
632.4484 3.1557 -763.9816 2892.8506 31.1765 2879.0608
631.9496 3.1504 -762.5665 2894.3508 29.9778 2880.4053
631.3917 3.1447 -761.1737 2895.8513 28.8532 2881.7493
630.7719 3.1389 -759.8074 2897.3518 28.4910 2883.0979
630.0900 3.1335 -758.4710 2898.8523 28.6582 2884.4548
629.3480 3.1289 -757.1671 2900.3528 29.0552 2885.8228
628.5486 3.1254 -755.8976 2901.8530 29.3520 2887.2017
627.6945 3.1233 -754.6642 2903.3535 29.5550 2888.5884
626.7878 3.1223 -753.4688 2904.8540 29.8221 2889.9778
625.8312 3.1219 -752.3130 2906.3545 30.2981 2891.3635
624.8276 3.1216 -751.1979 2907.8550 31.0599 2892.7434
623.7805 3.1208 -750.1233 2909.3552 31.8839 2894.1128
622.6945 3.1191 -749.0880 2910.8557 32.6869 2895.4751
621.5749 3.1164 -748.0892 2912.3562 33.4704 2896.8311
620.4270 3.1126 -747.1230 2913.8567 34.2358 2898.1863
619.2553 3.1082 -746.1857 2915.3572 34.9841 2899.5430
618.0639 3.1037 -745.2736 2916.8577 35.7166 2900.9043
616.8561 3.0997 -744.3833 2918.3579 36.4342 2902.2766
615.6343 3.0969 -743.5123 2919.8584 37.1323 2903.6626
614.3998 3.0953 -742.6596 2921.3589 37.8090 2905.0640
613.1529 3.0944 -741.8251 2922.8594 38.4655 2906.4792
611.8937 3.0934 -741.0092 2924.3599 39.1032 2907.9023
610.6230 3.0916 -740.2111 2925.8601 39.7232 2909.3311
609.3421 3.0886 -739.4299 2927.3606 40.3265 2910.7620
608.0526 3.0841 -738.6628 2928.8611 40.9140 2912.1946
606.7569 3.0782 -737.9065 2930.3616 41.4866 2913.6301
605.4574 3.0715 -737.1566 2931.8621 42.0450 2915.0701
604.1563 3.0641 -736.4094 2933.3623 42.5900 2916.5176
602.8552 3.0564 -735.6623 2934.8628 43.1223 2917.9773
601.5542 3.0484 -734.9146 2936.3633 43.6423 2919.4500
600.2536 3.0403 -734.1665 2937.8638 44.1507 2920.9343
598.9529 3.0317 -733.4186 2939.3643 44.6481 2922.4253
597.6514 3.0224 -732.6719 2940.8645 45.1348 2923.9192
596.3491 3.0119 -731.9268 2942.3650 45.6114 2925.4141
595.0457 3.0000 -731.1836 2943.8655 46.0782 2926.9084
593.7415 2.9864 -730.4422 2945.3660 46.5356 2928.4021
592.4363 2.9712 -729.7021 2946.8665 46.9840 2929.8958
591.1308 2.9545 -728.9629 2948.3667 47.4238 2931.3894
589.8250 2.9370 -728.2241 2949.8672 47.8553 2932.8835
588.5192 2.9193 -727.4855 2951.3677 48.2788 2934.3792
587.2133 2.9020 -726.7466 2952.8682 48.6945 2935.8765
585.9075 2.8859 -726.0078 2954.3687 49.1027 2937.3757
584.6017 2.8712 -725.2689 2955.8689 49.5037 2938.8757
583.2957 2.8580 -724.5300 2957.3694 49.8978 2940.3762
581.9897 2.8461 -723.7914 2958.8699 50.2851 2941.8770
580.6837 2.8351 -723.0529 2960.3704 50.6659 2943.3777
579.3776 2.8247 -722.3146 2961.8708 51.0404 2944.8782
578.0714 2.8145 -721.5765 2963.3713 51.4087 2946.3787
576.7653 2.8041 -720.8383 2964.8716 51.7711 2947.8789
575.4591 2.7934 -720.0999 2966.3721 52.1278 2949.3794
574.1531 2.7825 -719.3616 2967.8726 52.4788 2950.8799
572.8470 2.7714 -718.6232 2969.3730 52.8245 2952.3804
571.5407 2.7602 -717.8848 2970.8735 53.1648 2953.8811
570.2345 2.7490 -717.1465 2972.3738 53.5000 2955.3816
568.9281 2.7379 -716.4086 2973.8743 53.8302 2956.8823
567.6216 2.7267 -715.6709 2975.3748 54.1556 2958.3831
566.3149 2.7155 -714.9335 2976.8752 54.4763 2959.8840
565.0082 2.7044 -714.1964 2978.3757 54.7923 2961.3845
563.7011 2.6932 -713.4597 2979.8760 55.1038 2962.8850
562.3938 2.6821 -712.7232 2981.3765 55.4110 2964.3845
561.0862 2.6711 -711.9872 2982.8770 55.7139 2965.8826
559.7786 2.6602 -711.2517 2984.3774 56.0127 2967.3789
558.4705 2.6492 -710.5169 2985.8779 56.3073 2968.8738
557.1618 2.6383 -709.7831 2987.3782 56.5981 2970.3679
555.8522 2.6272 -709.0509 2988.8787 56.8849 2971.8616
554.5415 2.6159 -708.3209 2990.3792 57.1680 2973.3552
553.2292 2.6046 -707.5934 2991.8796 57.4474 2974.8489
551.9153 2.5932 -706.8691 2993.3801 57.7232 2976.3430
550.5994 2.5820 -706.1483 2994.8804 57.9954 2977.8369
549.2816 2.5710 -705.4310 2996.3809 58.2642 2979.3313
547.9621 2.5606 -704.7169 2997.8813 58.5296 2980.8254
546.6414 2.5508 -704.0051 2999.3818 58.7917 2982.3201
545.3199 2.5414 -703.2946 3000.8823 59.0506 2983.8147
543.9980 2.5326 -702.5850 3002.3828 59.3063 2985.3098
542.6758 2.5240 -701.8760 3003.8831 59.5589 2986.8059
541.3532 2.5153 -701.1674 3005.3835 59.8085 2988.3018
540.0304 2.5064 -700.4594 3006.8840 60.0551 2989.7979
538.7075 2.4970 -699.7518 3008.3845 60.2988 2991.2932
537.3843 2.4872 -699.0442 3009.8850 60.5396 2992.7871
536.0613 2.4772 -698.3364 3011.3853 60.7777 2994.2810
534.7383 2.4672 -697.6287 3012.8857 61.0130 2995.7747
533.4151 2.4573 -696.9213 3014.3862 61.2455 2997.2695
532.0908 2.4478 -696.2158 3015.8867 61.4755 2998.7661
530.7643 2.4387 -695.5147 3017.3872 61.7028 3000.2656
529.4340 2.4300 -694.8207 3018.8875 61.9276 3001.7673
528.0991 2.4216 -694.1356 3020.3879 62.1499 3003.2712
526.7598 2.4136 -693.4592 3021.8884 62.3698 3004.7761
525.4173 2.4058 -692.7889 3023.3889 62.5872 3006.2810
524.0733 2.3984 -692.1218 3024.8894 62.8023 3007.7864
522.7287 2.3913 -691.4557 3026.3896 63.0150 3009.2915
521.3840 2.3846 -690.7900 3027.8901 63.2255 3010.7966
520.0394 2.3782 -690.1243 3029.3906 63.4337 3012.3018
518.6948 2.3722 -689.4585 3030.8911 63.6397 3013.8069
517.3504 2.3666 -688.7923 3032.3916 63.8435 3015.3127
516.0065 2.3615 -688.1250 3033.8918 64.0452 3016.8198
514.6637 2.3569 -687.4557 3035.3923 64.2448 3018.3293
513.3222 2.3528 -686.7833 3036.8928 64.4424 3019.8425
511.9825 2.3490 -686.1078 3038.3933 64.6379 3021.3586
510.6440 2.3454 -685.4298 3039.8938 64.8314 3022.8740
509.3060 2.3419 -684.7507 3041.3940 65.0229 3024.3875
507.9684 2.3383 -684.0710 3042.8945 65.2126 3025.8970
506.6315 2.3346 -683.3900 3044.3950 65.4003 3027.4045
505.2959 2.3310 -682.7061 3045.8955 65.5861 3028.9109
503.9626 2.3273 -682.0179 3047.3960 65.7701 3030.4170
502.6319 2.3238 -681.3246 3048.8965 65.9523 3031.9226
501.3035 2.3203 -680.6268 3050.3967 66.1327 3033.4285
499.9768 2.3168 -679.9258 3051.8972 66.3114 3034.9343
498.6512 2.3134 -679.2229 3053.3977 66.4883 3036.4399
497.3264 2.3101 -678.5187 3054.8982 66.6635 3037.9456
496.0018 2.3067 -677.8140 3056.3987 66.8370 3039.4512
494.6773 2.3033 -677.1092 3057.8989 67.0089 3040.9568
493.3527 2.2998 -676.4045 3059.3994 67.1791 3042.4624
492.0279 2.2963 -675.6998 3060.8999 67.3477 3043.9680
490.7032 2.2926 -674.9952 3062.4004 67.5148 3045.4731
489.3787 2.2890 -674.2902 3063.9009 67.6802 3046.9780
488.0545 2.2856 -673.5846 3065.4011 67.8442 3048.4819
486.7309 2.2827 -672.8779 3066.9016 68.0066 3049.9849
485.4079 2.2806 -672.1700 3068.4021 68.1675 3051.4873
484.0857 2.2795 -671.4609 3069.9026 68.3269 3052.9890
482.7641 2.2794 -670.7506 3071.4031 68.4849 3054.4907
481.4431 2.2805 -670.0390 3072.9033 68.6415 3055.9924
480.1227 2.2827 -669.3262 3074.4038 68.7966 3057.4941
478.8029 2.2857 -668.6124 3075.9043 68.9503 3058.9961
477.4836 2.2894 -667.8975 3077.4048 69.1027 3060.4978
476.1649 2.2934 -667.1816 3078.9053 69.2537 3061.9995
474.8467 2.2975 -666.4648 3080.4055 69.4033 3063.5012
473.5291 2.3018 -665.7471 3081.9060 69.5516 3065.0027
472.2121 2.3059 -665.0284 3083.4065 69.6986 3066.5044
470.8954 2.3101 -664.3088 3084.9070 69.8443 3068.0059
469.5793 2.3141 -663.5884 3086.4075 69.9888 3069.5073
468.2635 2.3181 -662.8672 3087.9077 70.1320 3071.0090
466.9482 2.3220 -662.1451 3089.4082 70.2739 3072.5105
465.6335 2.3256 -661.4223 3090.9087 70.4146 3074.0117
464.3191 2.3289 -660.6987 3092.4092 70.5542 3075.5132
463.0052 2.3319 -659.9743 3093.9097 70.6925 3077.0144
461.6916 2.3345 -659.2492 3095.4102 70.8296 3078.5159
460.3784 2.3368 -658.5234 3096.9104 70.9656 3080.0171
459.0654 2.3387 -657.7971 3098.4109 71.1004 3081.5186
457.7527 2.3403 -657.0703 3099.9114 71.2341 3083.0200
456.4401 2.3416 -656.3433 3101.4119 71.3666 3084.5212
455.1275 2.3427 -655.6161 3102.9124 71.4981 3086.0227
453.8150 2.3436 -654.8889 3104.4126 71.6284 3087.5239
452.5025 2.3442 -654.1617 3105.9131 71.7577 3089.0254
451.1899 2.3446 -653.4346 3107.4136 71.8859 3090.5266
449.8774 2.3448 -652.7076 3108.9141 72.0130 3092.0278
448.5647 2.3448 -651.9808 3110.4146 72.1391 3093.5291
447.2520 2.3446 -651.2540 3111.9148 72.2641 3095.0305
445.9392 2.3444 -650.5274 3113.4153 72.3882 3096.5322
444.6265 2.3441 -649.8009 3114.9158 72.5112 3098.0342
443.3137 2.3439 -649.0745 3116.4163 72.6332 3099.5366
442.0007 2.3437 -648.3481 3117.9167 72.7542 3101.0393
440.6876 2.3436 -647.6218 3119.4170 72.8743 3102.5422
439.3746 2.3435 -646.8957 3120.9175 72.9934 3104.0452
438.0616 2.3436 -646.1697 3122.4180 73.1115 3105.5479
436.7485 2.3437 -645.4437 3123.9185 73.2287 3107.0508
435.4354 2.3438 -644.7176 3125.4189 73.3450 3108.5535
434.1223 2.3441 -643.9913 3126.9192 73.4604 3110.0564
432.8096 2.3445 -643.2648 3128.4197 73.5748 3111.5591
431.4971 2.3450 -642.5378 3129.9202 73.6883 3113.0615
430.1849 2.3456 -641.8104 3131.4207 73.8010 3114.5642
428.8730 2.3464 -641.0825 3132.9211 73.9127 3116.0669
427.5612 2.3472 -640.3539 3134.4216 74.0236 3117.5696
426.2499 2.3481 -639.6248 3135.9219 74.1336 3119.0723
424.9388 2.3490 -638.8951 3137.4224 74.2428 3120.5750
423.6283 2.3498 -638.1644 3138.9229 74.3511 3122.0774
422.3185 2.3506 -637.4323 3140.4233 74.4586 3123.5801
421.0101 2.3513 -636.6981 3141.9238 74.5653 3125.0828
419.7030 2.3520 -635.9614 3143.4241 74.6711 3126.5852
418.3973 2.3525 -635.2221 3144.9246 74.7761 3128.0876
417.0927 2.3530 -634.4810 3146.4250 74.8803 3129.5901
415.7886 2.3534 -633.7388 3147.9255 74.9838 3131.0925
414.4847 2.3536 -632.9963 3149.4260 75.0864 3132.5950
413.1809 2.3538 -632.2537 3150.9263 75.1883 3134.0974
411.8770 2.3538 -631.5114 3152.4268 75.2894 3135.5999
410.5730 2.3536 -630.7692 3153.9272 75.3898 3137.1025
409.2689 2.3533 -630.0271 3155.4277 75.4893 3138.6050
407.9647 2.3529 -629.2850 3156.9282 75.5882 3140.1077
406.6605 2.3524 -628.5430 3158.4285 75.6863 3141.6104
405.3564 2.3518 -627.8009 3159.9290 75.7837 3143.1128
404.0522 2.3512 -627.0588 3161.4294 75.8803 3144.6145
402.7480 2.3506 -626.3167 3162.9299 75.9763 3146.1152
401.4439 2.3500 -625.5750 3164.4304 76.0715 3147.6147
400.1393 2.3493 -624.8337 3165.9307 76.1660 3149.1138
398.8340 2.3487 -624.0936 3167.4312 76.2598 3150.6123
397.5278 2.3481 -623.3552 3168.9316 76.3530 3152.1106
396.2205 2.3474 -622.6187 3170.4321 76.4454 3153.6091
394.9124 2.3468 -621.8837 3171.9326 76.5372 3155.1077
393.6037 2.3462 -621.1497 3173.4329 76.6283 3156.6060
392.2947 2.3456 -620.4163 3174.9333 76.7188 3158.1047
390.9856 2.3451 -619.6829 3176.4338 76.8086 3159.6033
389.6765 2.3446 -618.9496 3177.9343 76.8978 3161.1018
388.3675 2.3441 -618.2162 3179.4348 76.9863 3162.6006
387.0585 2.3436 -617.4826 3180.9353 77.0741 3164.0991
385.7496 2.3432 -616.7489 3182.4355 77.1614 3165.5977
384.4407 2.3427 -616.0151 3183.9360 77.2480 3167.0964
383.1320 2.3423 -615.2813 3185.4365 77.3340 3168.5950
381.8234 2.3419 -614.5474 3186.9370 77.4193 3170.0933
380.5147 2.3414 -613.8133 3188.4375 77.5041 3171.5920
379.2061 2.3410 -613.0792 3189.9377 77.5883 3173.0906
377.8975 2.3406 -612.3449 3191.4382 77.6719 3174.5891
376.5889 2.3401 -611.6106 3192.9387 77.7548 3176.0879
375.2805 2.3397 -610.8763 3194.4392 77.8372 3177.5862
373.9722 2.3393 -610.1419 3195.9397 77.9191 3179.0847
372.6639 2.3389 -609.4074 3197.4399 78.0003 3180.5830
371.3556 2.3385 -608.6727 3198.9404 78.0810 3182.0815
370.0474 2.3380 -607.9380 3200.4409 78.1611 3183.5798
368.7392 2.3376 -607.2032 3201.9414 78.2406 3185.0784
367.4309 2.3372 -606.4684 3203.4419 78.3196 3186.5767
366.1227 2.3368 -605.7335 3204.9421 78.3981 3188.0752
364.8144 2.3364 -604.9988 3206.4426 78.4760 3189.5737
363.5060 2.3360 -604.2644 3207.9431 78.5533 3191.0723
362.1974 2.3356 -603.5302 3209.4436 78.6301 3192.5713
360.8885 2.3352 -602.7965 3210.9441 78.7064 3194.0713
359.5794 2.3347 -602.0634 3212.4443 78.7822 3195.5720
358.2701 2.3342 -601.3307 3213.9448 78.8574 3197.0740
356.9604 2.3338 -600.5986 3215.4453 78.9322 3198.5767
355.6504 2.3336 -599.8671 3216.9458 79.0064 3200.0798
354.3399 2.3335 -599.1360 3218.4463 79.0801 3201.5830
353.0293 2.3338 -598.4056 3219.9468 79.1533 3203.0864
351.7185 2.3344 -597.6756 3221.4470 79.2260 3204.5896
350.4075 2.3353 -596.9457 3222.9475 79.2982 3206.0928
349.0963 2.3366 -596.2161 3224.4480 79.3700 3207.5959
347.7852 2.3383 -595.4866 3225.9485 79.4412 3209.0989
346.4741 2.3403 -594.7573 3227.4490 79.5120 3210.6021
345.1629 2.3426 -594.0278 3228.9492 79.5823 3212.1050
343.8517 2.3452 -593.2985 3230.4497 79.6521 3213.6079
342.5406 2.3482 -592.5692 3231.9502 79.7214 3215.1111
341.2294 2.3514 -591.8397 3233.4507 79.7903 3216.6140
339.9182 2.3551 -591.1102 3234.9512 79.8587 3218.1169
338.6071 2.3590 -590.3806 3236.4514 79.9266 3219.6201
337.2960 2.3633 -589.6510 3237.9519 79.9941 3221.1230
335.9848 2.3677 -588.9213 3239.4524 80.0612 3222.6260
334.6736 2.3722 -588.1917 3240.9529 80.1278 3224.1292
333.3626 2.3767 -587.4622 3242.4534 80.1939 3225.6318
332.0514 2.3811 -586.7326 3243.9536 80.2597 3227.1348
330.7402 2.3853 -586.0031 3245.4541 80.3250 3228.6375
329.4290 2.3893 -585.2738 3246.9546 80.3898 3230.1401
328.1180 2.3931 -584.5440 3248.4551 80.4542 3231.6431
326.8074 2.3967 -583.8134 3249.9556 80.5182 3233.1465
325.4980 2.4003 -583.0811 3251.4558 80.5818 3234.6504
324.1901 2.4037 -582.3457 3252.9563 80.6450 3236.1558
322.8845 2.4071 -581.6061 3254.4568 80.7077 3237.6619
321.5818 2.4107 -580.8617 3255.9573 80.7701 3239.1687
320.2822 2.4143 -580.1119 3257.4578 80.8320 3240.6758
318.9858 2.4181 -579.3563 3258.9580 80.8935 3242.1829
317.6929 2.4222 -578.5951 3260.4585 80.9546 3243.6895
316.4034 2.4263 -577.8279 3261.9590 81.0154 3245.1960
315.1173 2.4306 -577.0549 3263.4595 81.0757 3246.7019
313.8350 2.4349 -576.2760 3264.9600 81.1356 3248.2078
312.5563 2.4393 -575.4911 3266.4604 81.1952 3249.7131
311.2811 2.4438 -574.7002 3267.9607 81.2543 3251.2183
310.0098 2.4482 -573.9033 3269.4612 81.3131 3252.7229
308.7423 2.4526 -573.1003 3270.9617 81.3715 3254.2273
307.4786 2.4569 -572.2913 3272.4622 81.4296 3255.7314
306.2188 2.4610 -571.4761 3273.9626 81.4872 3257.2351
304.9631 2.4649 -570.6549 3275.4629 81.5445 3258.7385
303.7113 2.4685 -569.8278 3276.9634 81.6014 3260.2415
302.4633 2.4719 -568.9950 3278.4639 81.6580 3261.7439
301.2184 2.4752 -568.1574 3279.9644 81.7142 3263.2461
299.9758 2.4782 -567.3164 3281.4648 81.7700 3264.7478
298.7345 2.4809 -566.4735 3282.9651 81.8255 3266.2495
297.4936 2.4832 -565.6299 3284.4656 81.8806 3267.7510
296.2529 2.4849 -564.7862 3285.9661 81.9353 3269.2524
295.0124 2.4862 -563.9423 3287.4666 81.9898 3270.7542
293.7722 2.4877 -563.0977 3288.9670 82.0438 3272.2563
292.5328 2.4894 -562.2520 3290.4673 82.0976 3273.7607
291.2943 2.4912 -561.4049 3291.9678 82.1510 3275.2683
290.0565 2.4933 -560.5567 3293.4683 82.2040 3276.7810
288.8195 2.4958 -559.7077 3294.9688 82.2568 3278.2981
287.5827 2.4987 -558.8584 3296.4692 82.3091 3279.8179
286.3458 2.5013 -558.0089 3297.9695 82.3612 3281.3391
285.1089 2.5033 -557.1595 3299.4700 82.4129 3282.8604
283.8722 2.5042 -556.3101 3300.9705 82.4643 3284.3813
282.6360 2.5039 -555.4597 3302.4709 82.5154 3285.9016
281.4015 2.5024 -554.6070 3303.9714 82.5662 3287.4211
280.1694 2.4999 -553.7507 3305.4717 82.6166 3288.9399
278.9409 2.4965 -552.8894 3306.9722 82.6667 3290.4583
277.7163 2.4928 -552.0222 3308.4727 82.7166 3291.9763
276.4962 2.4892 -551.1490 3309.9731 82.7661 3293.4939
275.2806 2.4865 -550.2694 3311.4736 82.8153 3295.0110
274.0695 2.4848 -549.3835 3312.9741 82.8642 3296.5281
272.8627 2.4844 -548.4919 3314.4744 82.9128 3298.0449
271.6597 2.4847 -547.5952 3315.9749 82.9610 3299.5618
270.4598 2.4855 -546.6943 3317.4753 83.0090 3301.0786
269.2621 2.4864 -545.7904 3318.9758 83.0567 3302.5955
268.0661 2.4873 -544.8845 3320.4763 83.1041 3304.1128
266.8709 2.4878 -543.9774 3321.9766 83.1512 3305.6301
265.6761 2.4873 -543.0698 3323.4771 83.1980 3307.1482
264.4814 2.4859 -542.1619 3324.9775 83.2445 3308.6667
263.2871 2.4835 -541.2537 3326.4780 83.2908 3310.1855
262.0931 2.4806 -540.3451 3327.9785 83.3367 3311.7043
260.8997 2.4773 -539.4358 3329.4788 83.3824 3313.2224
259.7067 2.4737 -538.5258 3330.9792 83.4278 3314.7390
258.5143 2.4698 -537.6151 3332.4797 83.4729 3316.2522
257.3225 2.4657 -536.7037 3333.9802 83.5177 3317.7620
256.1313 2.4611 -535.7913 3335.4807 83.5623 3319.2693
254.9411 2.4559 -534.8776 3336.9810 83.6066 3320.7751
253.7521 2.4502 -533.9626 3338.4814 83.6506 3322.2805
252.5646 2.4437 -533.0455 3339.9819 83.6944 3323.7854
251.3789 2.4367 -532.1262 3341.4824 83.7378 3325.2905
250.1954 2.4289 -531.2039 3342.9829 83.7811 3326.7957
249.0148 2.4205 -530.2781 3344.4832 83.8240 3328.3008
247.8376 2.4116 -529.3478 3345.9836 83.8667 3329.8062
246.6644 2.4021 -528.4125 3347.4841 83.9091 3331.3113
245.4958 2.3920 -527.4717 3348.9846 83.9513 3332.8167
244.3318 2.3812 -526.5249 3350.4851 83.9932 3334.3218
243.1727 2.3698 -525.5721 3351.9856 84.0349 3335.8269
242.0184 2.3577 -524.6135 3353.4858 84.0763 3337.3323
240.8687 2.3447 -523.6495 3354.9863 84.1175 3338.8374
239.7229 2.3308 -522.6810 3356.4868 84.1584 3340.3423
238.5798 2.3162 -521.7092 3357.9873 84.1991 3341.8474
237.4384 2.3007 -520.7356 3359.4878 84.2395 3343.3523
236.2974 2.2844 -519.7614 3360.9880 84.2797 3344.8574
235.1563 2.2676 -518.7872 3362.4885 84.3196 3346.3628
234.0150 2.2502 -517.8134 3363.9890 84.3593 3347.8679
232.8733 2.2322 -516.8401 3365.4895 84.3988 3349.3733
231.7312 2.2136 -515.8672 3366.9900 84.4380 3350.8789
230.5887 2.1945 -514.8947 3368.4902 84.4770 3352.3845
229.4459 2.1748 -513.9225 3369.9907 84.5158 3353.8904
228.3029 2.1544 -512.9508 3371.4912 84.5543 3355.3962
227.1596 2.1333 -511.9793 3372.9917 84.5926 3356.9023
226.0160 2.1115 -511.0081 3374.4922 84.6307 3358.4087
224.8725 2.0889 -510.0370 3375.9924 84.6685 3359.9150
223.7288 2.0656 -509.0660 3377.4929 84.7062 3361.4216
222.5851 2.0416 -508.0950 3378.9934 84.7436 3362.9280
221.4417 2.0171 -507.1238 3380.4939 84.7807 3364.4346
220.2984 1.9922 -506.1525 3381.9944 84.8177 3365.9412
219.1552 1.9670 -505.1810 3383.4946 84.8544 3367.4475
218.0121 1.9415 -504.2094 3384.9951 84.8909 3368.9541
216.8689 1.9157 -503.2378 3386.4956 84.9272 3370.4609
215.7256 1.8895 -502.2662 3387.9961 84.9633 3371.9675
214.5824 1.8628 -501.2947 3389.4966 84.9992 3373.4744
213.4391 1.8356 -500.3234 3390.9968 85.0348 3374.9810
212.2957 1.8076 -499.3521 3392.4973 85.0703 3376.4878
211.1523 1.7789 -498.3809 3393.9978 85.1055 3377.9944
210.0090 1.7496 -497.4096 3395.4983 85.1406 3379.5010
208.8658 1.7197 -496.4383 3396.9988 85.1754 3381.0078
207.7228 1.6894 -495.4669 3398.4993 85.2100 3382.5144
206.5798 1.6586 -494.4955 3399.9995 85.2444 3384.0215
205.4370 1.6276 -493.5238 3401.5000 85.2786 3385.5286
204.2942 1.5964 -492.5520 3403.0005 85.3127 3387.0361
203.1515 1.5649 -491.5800 3404.5010 85.3465 3388.5437
202.0090 1.5333 -490.6078 3406.0015 85.3801 3390.0513
200.8667 1.5014 -489.6353 3407.5017 85.4135 3391.5571
199.7248 1.4692 -488.6625 3409.0022 85.4467 3393.0608
198.5833 1.4366 -487.6892 3410.5027 85.4798 3394.5601
197.4425 1.4036 -486.7151 3412.0032 85.5126 3396.0544
196.3024 1.3700 -485.7402 3413.5037 85.5453 3397.5449
195.1630 1.3358 -484.7645 3415.0039 85.5777 3399.0325
194.0241 1.3010 -483.7882 3416.5044 85.6100 3400.5186
192.8855 1.2656 -482.8117 3418.0049 85.6421 3402.0046
191.7470 1.2298 -481.8350 3419.5054 85.6740 3403.4907
190.6086 1.1937 -480.8581 3421.0059 85.7057 3404.9771
189.4707 1.1575 -479.8806 3422.5061 85.7372 3406.4636
188.3340 1.1213 -478.9020 3424.0066 85.7685 3407.9502
187.1992 1.0854 -477.9209 3425.5071 85.7997 3409.4370
186.0672 1.0497 -476.9367 3427.0076 85.8307 3410.9238
184.9380 1.0143 -475.9491 3428.5081 85.8615 3412.4106
183.8112 0.9791 -474.9590 3430.0083 85.8921 3413.8972
182.6859 0.9440 -473.9671 3431.5088 85.9225 3415.3838
181.5612 0.9089 -472.9745 3433.0093 85.9528 3416.8701
180.4368 0.8735 -471.9817 3434.5098 85.9829 3418.3564
179.3123 0.8379 -470.9890 3436.0103 86.0128 3419.8425
178.1877 0.8018 -469.9966 3437.5105 86.0425 3421.3284
177.0629 0.7652 -469.0042 3439.0110 86.0721 3422.8142
175.9380 0.7282 -468.0120 3440.5115 86.1015 3424.3000
174.8130 0.6907 -467.0199 3442.0120 86.1308 3425.7854
173.6880 0.6530 -466.0278 3443.5125 86.1598 3427.2705
172.5630 0.6151 -465.0357 3445.0129 86.1887 3428.7554
171.4381 0.5773 -464.0436 3446.5132 86.2175 3430.2405
170.3131 0.5396 -463.0515 3448.0137 86.2460 3431.7268
169.1881 0.5021 -462.0594 3449.5142 86.2744 3433.2148
168.0632 0.4650 -461.0671 3451.0146 86.3027 3434.7063
166.9382 0.4282 -460.0749 3452.5151 86.3308 3436.2024
165.8133 0.3917 -459.0826 3454.0154 86.3587 3437.7017
164.6883 0.3553 -458.0904 3455.5159 86.3864 3439.2031
163.5633 0.3189 -457.0982 3457.0164 86.4140 3440.7053
162.4383 0.2824 -456.1061 3458.5168 86.4415 3442.2078
161.3131 0.2457 -455.1140 3460.0173 86.4688 3443.7102
160.1879 0.2088 -454.1220 3461.5176 86.4959 3445.2126
159.0624 0.1717 -453.1303 3463.0181 86.5229 3446.7146
157.9367 0.1345 -452.1390 3464.5186 86.5497 3448.2168
156.8104 0.0971 -451.1485 3466.0190 86.5764 3449.7190
155.6833 0.0596 -450.1588 3467.5195 86.6029 3451.2209
154.5555 0.0222 -449.1699 3469.0198 86.6292 3452.7234
153.4271 -0.0153 -448.1817 3470.5203 86.6555 3454.2258
152.2984 -0.0527 -447.1938 3472.0208 86.6815 3455.7285
151.1696 -0.0900 -446.2062 3473.5212 86.7075 3457.2310
150.0407 -0.1273 -445.2185 3475.0217 86.7332 3458.7334
148.9116 -0.1644 -444.2309 3476.5220 86.7589 3460.2361
147.7821 -0.2015 -443.2438 3478.0225 86.7843 3461.7388
146.6520 -0.2384 -442.2577 3479.5229 86.8097 3463.2412
145.5204 -0.2751 -441.2731 3481.0234 86.8349 3464.7441
144.3871 -0.3116 -440.2903 3482.5239 86.8599 3466.2468
143.2522 -0.3478 -439.3097 3484.0244 86.8848 3467.7498
142.1157 -0.3837 -438.3307 3485.5247 86.9096 3469.2527
140.9781 -0.4194 -437.3529 3487.0251 86.9342 3470.7563
139.8400 -0.4549 -436.3757 3488.5256 86.9587 3472.2607
138.7017 -0.4903 -435.3988 3490.0261 86.9831 3473.7666
137.5633 -0.5257 -434.4220 3491.5266 87.0073 3475.2749
136.4249 -0.5610 -433.4451 3493.0269 87.0313 3476.7852
135.2866 -0.5963 -432.4683 3494.5273 87.0553 3478.2969
134.1482 -0.6316 -431.4914 3496.0278 87.0791 3479.8091
133.0099 -0.6669 -430.5146 3497.5283 87.1028 3481.3213
131.8717 -0.7023 -429.5378 3499.0288 87.1263 3482.8335
130.7333 -0.7377 -428.5609 3500.5291 87.1497 3484.3455
129.5949 -0.7733 -427.5841 3502.0295 87.1730 3485.8574
128.4565 -0.8091 -426.6072 3503.5300 87.1961 3487.3691
127.3181 -0.8453 -425.6303 3505.0305 87.2192 3488.8806
126.1797 -0.8821 -424.6535 3506.5310 87.2420 3490.3921
125.0413 -0.9195 -423.6767 3508.0312 87.2648 3491.9036
123.9030 -0.9575 -422.6999 3509.5317 87.2874 3493.4146
122.7646 -0.9959 -421.7231 3511.0322 87.3099 3494.9258
121.6264 -1.0345 -420.7463 3512.5327 87.3323 3496.4365
120.4882 -1.0730 -419.7695 3514.0332 87.3546 3497.9473
119.3500 -1.1109 -418.7924 3515.5334 87.3767 3499.4580
118.2120 -1.1480 -417.8152 3517.0339 87.3987 3500.9688
117.0742 -1.1842 -416.8378 3518.5344 87.4206 3502.4792
115.9365 -1.2195 -415.8602 3520.0349 87.4423 3503.9900
114.7989 -1.2540 -414.8825 3521.5354 87.4640 3505.5005
113.6614 -1.2879 -413.9047 3523.0356 87.4855 3507.0112
112.5237 -1.3216 -412.9268 3524.5361 87.5069 3508.5220
111.3861 -1.3553 -411.9489 3526.0366 87.5282 3510.0322
110.2486 -1.3890 -410.9711 3527.5371 87.5493 3511.5413
109.1110 -1.4229 -409.9933 3529.0376 87.5704 3513.0481
107.9734 -1.4570 -409.0154 3530.5381 87.5913 3514.5518
106.8358 -1.4911 -408.0375 3532.0383 87.6121 3516.0518
105.6983 -1.5253 -407.0595 3533.5388 87.6328 3517.5496
104.5608 -1.5594 -406.0816 3535.0393 87.6534 3519.0459
103.4233 -1.5934 -405.1038 3536.5398 87.6738 3520.5417
102.2858 -1.6273 -404.1259 3538.0403 87.6942 3522.0376
101.1484 -1.6610 -403.1481 3539.5405 87.7144 3523.5337
100.0110 -1.6945 -402.1700 3541.0410 87.7346 3525.0300
98.8739 -1.7277 -401.1917 3542.5415 87.7546 3526.5264
97.7374 -1.7608 -400.2127 3544.0420 87.7745 3528.0229
96.6017 -1.7937 -399.2327 3545.5425 87.7943 3529.5195
95.4670 -1.8264 -398.2515 3547.0427 87.8139 3531.0161
94.3336 -1.8591 -397.2690 3548.5432 87.8335 3532.5127
93.2014 -1.8918 -396.2848 3550.0437 87.8530 3534.0095
92.0705 -1.9246 -395.2992 3551.5442 87.8723 3535.5063
90.9409 -1.9575 -394.3122 3553.0447 87.8916 3537.0032
89.8126 -1.9905 -393.3235 3554.5449 87.9107 3538.4998
88.6857 -2.0234 -392.3335 3556.0454 87.9298 3539.9966
87.5601 -2.0558 -391.3418 3557.5459 87.9487 3541.4934
86.4359 -2.0876 -390.3486 3559.0464 87.9675 3542.9902
85.3129 -2.1182 -389.3539 3560.5469 87.9863 3544.4871
84.1911 -2.1472 -388.3579 3562.0471 88.0049 3545.9839
83.0702 -2.1745 -387.3607 3563.5476 88.0234 3547.4805
81.9501 -2.1998 -386.3627 3565.0481 88.0418 3548.9773
80.8303 -2.2233 -385.3641 3566.5486 88.0601 3550.4741
79.7108 -2.2452 -384.3652 3568.0491 88.0783 3551.9709
78.5914 -2.2660 -383.3662 3569.5493 88.0965 3553.4678
77.4720 -2.2859 -382.3672 3571.0498 88.1145 3554.9644
76.3526 -2.3054 -381.3685 3572.5503 88.1324 3556.4609
75.2331 -2.3248 -380.3698 3574.0508 88.1502 3557.9575
74.1135 -2.3441 -379.3711 3575.5513 88.1679 3559.4541
72.9938 -2.3635 -378.3725 3577.0518 88.1856 3560.9509
71.8740 -2.3828 -377.3740 3578.5520 88.2031 3562.4475
70.7541 -2.4018 -376.3754 3580.0525 88.2205 3563.9441
69.6344 -2.4202 -375.3770 3581.5530 88.2378 3565.4404
68.5145 -2.4380 -374.3785 3583.0535 88.2551 3566.9370
67.3946 -2.4549 -373.3800 3584.5540 88.2722 3568.4333
66.2748 -2.4709 -372.3815 3586.0542 88.2893 3569.9294
65.1550 -2.4859 -371.3829 3587.5547 88.3062 3571.4258
64.0351 -2.5001 -370.3844 3589.0552 88.3231 3572.9221
62.9153 -2.5135 -369.3859 3590.5557 88.3399 3574.4189
61.7953 -2.5262 -368.3874 3592.0562 88.3566 3575.9170
60.6753 -2.5384 -367.3890 3593.5564 88.3731 3577.4167
59.5552 -2.5501 -366.3907 3595.0569 88.3896 3578.9185
58.4349 -2.5614 -365.3927 3596.5574 88.4061 3580.4221
57.3145 -2.5723 -364.3947 3598.0579 88.4224 3581.9270
56.1939 -2.5828 -363.3969 3599.5583 88.4386 3583.4324
55.0734 -2.5929 -362.3992 3601.0586 88.4547 3584.9380
53.9527 -2.6024 -361.4015 3602.5591 88.4708 3586.4434
52.8320 -2.6113 -360.4037 3604.0596 88.4868 3587.9490
51.7114 -2.6194 -359.4061 3605.5601 88.5026 3589.4546
50.5909 -2.6268 -358.4084 3607.0605 88.5184 3590.9600
49.4702 -2.6334 -357.4108 3608.5608 88.5341 3592.4653
48.3495 -2.6393 -356.4131 3610.0613 88.5498 3593.9709
47.2288 -2.6444 -355.4153 3611.5618 88.5653 3595.4766
46.1081 -2.6489 -354.4177 3613.0623 88.5807 3596.9822
44.9874 -2.6528 -353.4200 3614.5627 88.5961 3598.4878
43.8666 -2.6562 -352.4223 3616.0632 88.6114 3599.9934
42.7458 -2.6590 -351.4247 3617.5635 88.6266 3601.4993
41.6251 -2.6613 -350.4270 3619.0640 88.6417 3603.0051
40.5043 -2.6631 -349.4294 3620.5645 88.6568 3604.5107
39.3835 -2.6642 -348.4319 3622.0649 88.6717 3606.0166
38.2628 -2.6647 -347.4343 3623.5654 88.6866 3607.5225
37.1420 -2.6646 -346.4368 3625.0657 88.7014 3609.0283
36.0211 -2.6637 -345.4393 3626.5662 88.7161 3610.5342
34.9002 -2.6623 -344.4418 3628.0667 88.7307 3612.0403
33.7793 -2.6601 -343.4445 3629.5671 88.7453 3613.5461
32.6583 -2.6573 -342.4472 3631.0676 88.7598 3615.0520
31.5372 -2.6538 -341.4501 3632.5679 88.7742 3616.5581
30.4158 -2.6496 -340.4531 3634.0684 88.7885 3618.0642
29.2943 -2.6447 -339.4563 3635.5688 88.8027 3619.5703
28.1727 -2.6392 -338.4598 3637.0693 88.8169 3621.0764
27.0508 -2.6329 -337.4635 3638.5698 88.8310 3622.5828
25.9287 -2.6259 -336.4675 3640.0701 88.8450 3624.0889
24.8065 -2.6181 -335.4717 3641.5706 88.8589 3625.5950
23.6840 -2.6097 -334.4760 3643.0710 88.8728 3627.1013
22.5614 -2.6006 -333.4804 3644.5715 88.8866 3628.6077
21.4388 -2.5909 -332.4849 3646.0720 88.9003 3630.1138
20.3161 -2.5807 -331.4895 3647.5723 88.9139 3631.6201
19.1935 -2.5699 -330.4941 3649.0728 88.9275 3633.1265
18.0708 -2.5585 -329.4987 3650.5732 88.9410 3634.6328
16.9481 -2.5466 -328.5034 3652.0737 88.9544 3636.1394
15.8253 -2.5340 -327.5080 3653.5742 88.9677 3637.6462
14.7025 -2.5209 -326.5126 3655.0745 88.9810 3639.1528
13.5797 -2.5072 -325.5174 3656.5750 88.9942 3640.6594
12.4569 -2.4928 -324.5222 3658.0754 89.0073 3642.1658
11.3341 -2.4778 -323.5270 3659.5759 89.0204 3643.6709
10.2112 -2.4622 -322.5318 3661.0764 89.0334 3645.1748
9.0883 -2.4459 -321.5367 3662.5769 89.0463 3646.6770
7.9654 -2.4292 -320.5415 3664.0771 89.0591 3648.1772
6.8425 -2.4120 -319.5464 3665.5776 89.0719 3649.6765
5.7196 -2.3944 -318.5513 3667.0781 89.0846 3651.1755
4.5967 -2.3764 -317.5562 3668.5786 89.0973 3652.6741
3.4738 -2.3580 -316.5611 3670.0791 89.1098 3654.1729
2.3509 -2.3391 -315.5662 3671.5793 89.1224 3655.6714
1.2280 -2.3196 -314.5711 3673.0798 89.1348 3657.1702
0.1050 -2.2994 -313.5761 3674.5803 89.1472 3658.6689
-1.0179 -2.2784 -312.5811 3676.0808 89.1595 3660.1677
-2.1407 -2.2563 -311.5861 3677.5813 89.1717 3661.6665
-3.2636 -2.2332 -310.5911 3679.0815 89.1839 3663.1653
-4.3865 -2.2090 -309.5961 3680.5820 89.1960 3664.6641
-5.5094 -2.1840 -308.6011 3682.0825 89.2081 3666.1628
-6.6322 -2.1584 -307.6061 3683.5830 89.2200 3667.6616
-7.7551 -2.1326 -306.6112 3685.0835 89.2319 3669.1604
-8.8778 -2.1070 -305.6164 3686.5837 89.2438 3670.6589
-10.0007 -2.0820 -304.6215 3688.0842 89.2556 3672.1575
-11.1237 -2.0576 -303.6266 3689.5847 89.2673 3673.6565
-12.2467 -2.0338 -302.6317 3691.0852 89.2790 3675.1553
-13.3698 -2.0106 -301.6369 3692.5857 89.2906 3676.6541
-14.4929 -1.9878 -300.6421 3694.0859 89.3021 3678.1528
-15.6161 -1.9649 -299.6473 3695.5864 89.3136 3679.6516
-16.7393 -1.9419 -298.6526 3697.0869 89.3250 3681.1504
-17.8624 -1.9184 -297.6579 3698.5874 89.3364 3682.6492
-18.9855 -1.8943 -296.6634 3700.0879 89.3477 3684.1477
-20.1086 -1.8693 -295.6688 3701.5881 89.3589 3685.6462
-21.2317 -1.8436 -294.6742 3703.0886 89.3701 3687.1450
-22.3549 -1.8172 -293.6797 3704.5891 89.3812 3688.6436
-23.4781 -1.7903 -292.6852 3706.0896 89.3922 3690.1421
-24.6013 -1.7633 -291.6909 3707.5901 89.4032 3691.6409
-25.7246 -1.7363 -290.6965 3709.0906 89.4142 3693.1394
-26.8480 -1.7097 -289.7023 3710.5908 89.4250 3694.6379
-27.9714 -1.6835 -288.7081 3712.0913 89.4359 3696.1365
-29.0949 -1.6577 -287.7141 3713.5918 89.4466 3697.6353
-30.2185 -1.6324 -286.7200 3715.0923 89.4573 3699.1338
-31.3422 -1.6074 -285.7261 3716.5928 89.4680 3700.6323
-32.4660 -1.5827 -284.7322 3718.0930 89.4786 3702.1311
-33.5898 -1.5581 -283.7384 3719.5935 89.4891 3703.6296
-34.7136 -1.5337 -282.7446 3721.0940 89.4996 3705.1282
-35.8376 -1.5094 -281.7509 3722.5945 89.5100 3706.6270
-36.9615 -1.4851 -280.7572 3724.0950 89.5204 3708.1255
-38.0855 -1.4610 -279.7636 3725.5952 89.5307 3709.6240
-39.2096 -1.4370 -278.7700 3727.0957 89.5409 3711.1228
-40.3336 -1.4129 -277.7765 3728.5962 89.5511 3712.6213
-41.4577 -1.3889 -276.7829 3730.0967 89.5613 3714.1199
-42.5818 -1.3648 -275.7894 3731.5972 89.5714 3715.6187
-43.7058 -1.3405 -274.7958 3733.0974 89.5814 3717.1172
-44.8298 -1.3159 -273.8023 3734.5979 89.5914 3718.6157
-45.9539 -1.2911 -272.8088 3736.0984 89.6014 3720.1145
-47.0781 -1.2659 -271.8153 3737.5989 89.6112 3721.6133
-48.2025 -1.2406 -270.8220 3739.0994 89.6211 3723.1121
-49.3273 -1.2151 -269.8292 3740.5996 89.6308 3724.6108
-50.4526 -1.1897 -268.8370 3742.1001 89.6406 3726.1094
-51.5786 -1.1645 -267.8456 3743.6006 89.6502 3727.6077
-52.7053 -1.1396 -266.8550 3745.1011 89.6599 3729.1052
-53.8327 -1.1152 -265.8652 3746.6016 89.6694 3730.6021
-54.9606 -1.0911 -264.8762 3748.1021 89.6790 3732.0979
-56.0890 -1.0674 -263.8876 3749.6023 89.6884 3733.5930
-57.2177 -1.0439 -262.8992 3751.1028 89.6978 3735.0879
-58.3466 -1.0206 -261.9111 3752.6033 89.7072 3736.5828
-59.4756 -0.9973 -260.9231 3754.1038 89.7165 3738.0774
-60.6047 -0.9740 -259.9351 3755.6042 89.7258 3739.5720
-61.7338 -0.9505 -258.9472 3757.1045 89.7350 3741.0669
-62.8629 -0.9268 -257.9594 3758.6050 89.7442 3742.5615
-63.9920 -0.9028 -256.9716 3760.1055 89.7533 3744.0564
-65.1213 -0.8787 -255.9839 3761.6060 89.7624 3745.5513
-66.2505 -0.8545 -254.9961 3763.1064 89.7714 3747.0464
-67.3798 -0.8303 -254.0084 3764.6067 89.7804 3748.5413
-68.5090 -0.8061 -253.0207 3766.1072 89.7893 3750.0364
-69.6382 -0.7819 -252.0330 3767.6077 89.7982 3751.5312
-70.7672 -0.7580 -251.0453 3769.1082 89.8071 3753.0261
-71.8963 -0.7342 -250.0574 3770.6086 89.8158 3754.5212
-73.0255 -0.7105 -249.0695 3772.1089 89.8246 3756.0164
-74.1545 -0.6870 -248.0815 3773.6094 89.8333 3757.5115
-75.2834 -0.6638 -247.0935 3775.1099 89.8419 3759.0066
-76.4123 -0.6408 -246.1054 3776.6104 89.8505 3760.5020
-77.5411 -0.6181 -245.1173 3778.1108 89.8591 3761.9971
-78.6700 -0.5958 -244.1290 3779.6111 89.8676 3763.4924
-79.7987 -0.5738 -243.1407 3781.1116 89.8761 3764.9875
-80.9274 -0.5523 -242.1523 3782.6121 89.8845 3766.4829
-82.0561 -0.5313 -241.1639 3784.1125 89.8929 3767.9785
-83.1847 -0.5106 -240.1754 3785.6130 89.9012 3769.4741
-84.3132 -0.4903 -239.1869 3787.1133 89.9095 3770.9697
-85.4418 -0.4703 -238.1983 3788.6138 89.9178 3772.4653
-86.5703 -0.4506 -237.2096 3790.1143 89.9260 3773.9612
-87.6987 -0.4311 -236.2210 3791.6147 89.9341 3775.4568
-88.8271 -0.4117 -235.2323 3793.1152 89.9423 3776.9524
-89.9554 -0.3926 -234.2435 3794.6157 89.9503 3778.4482
-91.0837 -0.3737 -233.2547 3796.1160 89.9584 3779.9438
-92.2120 -0.3550 -232.2658 3797.6165 89.9664 3781.4397
-93.3403 -0.3364 -231.2768 3799.1169 89.9743 3782.9355
-94.4685 -0.3181 -230.2878 3800.6174 89.9822 3784.4314
-95.5967 -0.2999 -229.2986 3802.1179 89.9901 3785.9272
-96.7247 -0.2818 -228.3095 3803.6182 89.9979 3787.4233
-97.8527 -0.2639 -227.3203 3805.1187 90.0000 3788.9192
-98.9806 -0.2460 -226.3310 3806.6191 90.0000 3790.4150
-100.1085 -0.2284 -225.3417 3808.1196 90.0000 3791.9109
-101.2363 -0.2110 -224.3522 3809.6201 90.0000 3793.4067
-102.3641 -0.1939 -223.3627 3811.1204 90.0000 3794.9026
-103.4919 -0.1772 -222.3731 3812.6208 90.0000 3796.3984
-104.6196 -0.1611 -221.3835 3814.1213 90.0000 3797.8943
-105.7472 -0.1456 -220.3939 3815.6218 90.0000 3799.3906
-106.8748 -0.1307 -219.4042 3817.1223 90.0000 3800.8872
-108.0024 -0.1164 -218.4144 3818.6226 90.0000 3802.3850
-109.1300 -0.1027 -217.4245 3820.1230 90.0000 3803.8840
-110.2575 -0.0894 -216.4346 3821.6235 90.0000 3805.3843
-111.3850 -0.0764 -215.4447 3823.1240 90.0000 3806.8853
-112.5124 -0.0635 -214.4547 3824.6245 90.0000 3808.3867
-113.6397 -0.0507 -213.4647 3826.1248 90.0000 3809.8879
-114.7670 -0.0379 -212.4746 3827.6252 90.0000 3811.3894
-115.8942 -0.0251 -211.4845 3829.1257 90.0000 3812.8906
-117.0214 -0.0123 -210.4941 3830.6262 90.0000 3814.3921
-118.1486 0.0005 -209.5037 3832.1267 90.0000 3815.8933
-119.2755 0.0132 -208.5133 3833.6272 90.0000 3817.3945
-120.4024 0.0260 -207.5228 3835.1274 90.0000 3818.8958
-121.5292 0.0387 -206.5321 3836.6279 90.0000 3820.3970
-122.6558 0.0514 -205.5414 3838.1284 90.0000 3821.8982
-123.7824 0.0640 -204.5505 3839.6289 90.0000 3823.3994
-124.9089 0.0767 -203.5595 3841.1294 90.0000 3824.9004
-126.0353 0.0892 -202.5685 3842.6296 90.0000 3826.4016
-127.1617 0.1018 -201.5773 3844.1301 90.0000 3827.9028
-128.2880 0.1143 -200.5861 3845.6306 90.0000 3829.4041
-129.4143 0.1269 -199.5948 3847.1311 90.0000 3830.9053
-130.5405 0.1394 -198.6035 3848.6316 90.0000 3832.4062
-131.6667 0.1519 -197.6122 3850.1318 90.0000 3833.9075
-132.7929 0.1645 -196.6207 3851.6323 90.0000 3835.4087
-133.9190 0.1770 -195.6292 3853.1328 90.0000 3836.9099
-135.0451 0.1895 -194.6376 3854.6333 90.0000 3838.4111
-136.1710 0.2020 -193.6460 3856.1338 90.0000 3839.9121
-137.2969 0.2144 -192.6542 3857.6340 90.0000 3841.4133
-138.4227 0.2267 -191.6623 3859.1345 90.0000 3842.9146
-139.5484 0.2388 -190.6704 3860.6350 89.6492 3844.4158
-140.6741 0.2508 -189.6783 3862.1355 88.9918 3845.9170
-141.7998 0.2626 -188.6864 3863.6360 88.3297 3847.4180
-142.9256 0.2743 -187.6945 3865.1362 87.6629 3848.9192
-144.0515 0.2860 -186.7028 3866.6367 86.9913 3850.4204
-145.1777 0.2975 -185.7113 3868.1372 86.3147 3851.9216
-146.3041 0.3091 -184.7201 3869.6377 85.6331 3853.4226
-147.4307 0.3207 -183.7294 3871.1382 84.9463 3854.9236
-148.5578 0.3323 -182.7391 3872.6384 84.2542 3856.4246
-149.6856 0.3439 -181.7494 3874.1389 83.5566 3857.9260
-150.8142 0.3555 -180.7606 3875.6394 82.8547 3859.4282
-151.9436 0.3673 -179.7730 3877.1399 82.1488 3860.9312
-153.0742 0.3791 -178.7867 3878.6404 81.4390 3862.4358
-154.2062 0.3911 -177.8020 3880.1409 80.7251 3863.9421
-155.3397 0.4034 -176.8190 3881.6411 80.0070 3865.4497
-156.4748 0.4159 -175.8379 3883.1416 79.2847 3866.9580
-157.6116 0.4287 -174.8587 3884.6421 78.5579 3868.4663
-158.7500 0.4417 -173.8814 3886.1426 77.8267 3869.9749
-159.8896 0.4548 -172.9057 3887.6431 77.0909 3871.4834
-161.0304 0.4676 -171.9312 3889.1433 76.3504 3872.9919
-162.1718 0.4801 -170.9575 3890.6438 75.6051 3874.5005
-163.3136 0.4918 -169.9841 3892.1443 74.8548 3876.0090
-164.4556 0.5026 -169.0109 3893.6448 74.0994 3877.5178
