VERSION 0.7
FIELDS x y z arclength speed lapdistance
SIZE 4 4 4 4 4 4
TYPE F F F F F F
COUNT 1 1 1 1 1 1
WIDTH 880
HEIGHT 1
VIEWPOINT 0.000 0.000 0.000 1.000 0.000 0.000 0.000
POINTS 880
DATA ascii
618.7933 3.3610 -977.6211 2643.3694 50.7203 2666.2014
618.9070 3.3532 -976.1251 2644.8696 50.9447 2667.7007
619.0155 3.3456 -974.6288 2646.3699 51.1670 2669.1997
619.1190 3.3382 -973.1323 2647.8701 51.3870 2670.6980
619.2181 3.3305 -971.6354 2649.3701 51.6050 2672.1973
619.3129 3.3223 -970.1383 2650.8704 51.8208 2673.6946
619.4037 3.3140 -968.6407 2652.3706 52.0346 2675.1941
619.4907 3.3057 -967.1429 2653.8708 52.2463 2676.6917
619.5740 3.2981 -965.6452 2655.3711 52.4561 2678.1899
619.6536 3.2909 -964.1471 2656.8713 52.6639 2679.6885
619.7302 3.2842 -962.6489 2658.3716 52.8698 2681.1870
619.8036 3.2774 -961.1505 2659.8716 53.0739 2682.6836
619.8748 3.2705 -959.6520 2661.3718 53.2760 2684.1804
619.9440 3.2634 -958.1536 2662.8721 53.4764 2685.6797
620.0118 3.2561 -956.6549 2664.3723 53.6749 2687.1755
620.0793 3.2488 -955.1564 2665.8726 53.8717 2688.6733
620.1467 3.2414 -953.6577 2667.3728 54.0668 2690.1709
620.2143 3.2340 -952.1591 2668.8730 54.2601 2691.6670
620.2821 3.2267 -950.6603 2670.3730 54.4518 2693.1643
620.3499 3.2198 -949.1616 2671.8733 54.6418 2694.6616
620.4180 3.2135 -947.6628 2673.3735 54.8302 2696.1597
620.4860 3.2078 -946.1642 2674.8738 55.0170 2697.6580
620.5542 3.2026 -944.6656 2676.3740 55.2022 2699.1543
620.6225 3.1979 -943.1671 2677.8743 55.3859 2700.6509
620.6911 3.1936 -941.6686 2679.3745 55.5680 2702.1482
620.7603 3.1895 -940.1700 2680.8748 55.7486 2703.6460
620.8303 3.1858 -938.6713 2682.3748 55.9277 2705.1438
620.9018 3.1822 -937.1729 2683.8750 56.1054 2706.6416
620.9747 3.1785 -935.6744 2685.3752 56.2816 2708.1399
621.0496 3.1749 -934.1760 2686.8755 56.4564 2709.6379
621.1265 3.1714 -932.6779 2688.3757 56.6298 2711.1384
621.2054 3.1678 -931.1797 2689.8760 56.8018 2712.6389
621.2873 3.1645 -929.6818 2691.3762 56.9725 2714.1375
621.3721 3.1614 -928.1840 2692.8762 57.1418 2715.6389
621.4602 3.1585 -926.6863 2694.3765 57.3097 2717.1389
621.5518 3.1557 -925.1890 2695.8767 57.4764 2718.6377
621.6471 3.1530 -923.6918 2697.3770 57.6418 2720.1387
621.7461 3.1505 -922.1948 2698.8772 57.8059 2721.6394
621.8488 3.1481 -920.6983 2700.3774 57.9687 2723.1389
621.9550 3.1459 -919.2018 2701.8777 58.1303 2724.6392
622.0646 3.1439 -917.7055 2703.3777 58.2907 2726.1399
622.1774 3.1419 -916.2095 2704.8779 58.4499 2727.6414
622.2934 3.1400 -914.7137 2706.3782 58.6078 2729.1406
622.4123 3.1382 -913.2182 2707.8784 58.7646 2730.6406
622.5341 3.1366 -911.7229 2709.3787 58.9203 2732.1411
622.6586 3.1350 -910.2278 2710.8789 59.0748 2733.6423
622.7857 3.1335 -908.7331 2712.3792 59.2281 2735.1423
622.9150 3.1321 -907.2383 2713.8792 59.3804 2736.6423
623.0464 3.1308 -905.7439 2715.3794 59.5315 2738.1428
623.1797 3.1294 -904.2496 2716.8796 59.6816 2739.6438
623.3147 3.1282 -902.7556 2718.3799 59.8305 2741.1436
623.4513 3.1270 -901.2615 2719.8801 59.9784 2742.6450
623.5894 3.1258 -899.7676 2721.3804 60.1253 2744.1438
623.7292 3.1246 -898.2739 2722.8806 60.2711 2745.6453
623.8702 3.1233 -896.7805 2724.3806 60.4159 2747.1458
624.0126 3.1222 -895.2870 2725.8809 60.5597 2748.6460
624.1563 3.1211 -893.7936 2727.3811 60.7024 2750.1455
624.3012 3.1200 -892.3004 2728.8813 60.8442 2751.6458
624.4471 3.1189 -890.8073 2730.3816 60.9850 2753.1460
624.5942 3.1178 -889.3142 2731.8818 61.1248 2754.6470
624.7424 3.1166 -887.8212 2733.3821 61.2637 2756.1475
624.8915 3.1154 -886.3285 2734.8821 61.4016 2757.6472
625.0414 3.1143 -884.8357 2736.3823 61.5386 2759.1477
625.1924 3.1132 -883.3430 2737.8826 61.6747 2760.6470
625.3441 3.1124 -881.8504 2739.3828 61.8098 2762.1470
625.4968 3.1118 -880.3579 2740.8831 61.9441 2763.6479
625.6503 3.1115 -878.8656 2742.3833 62.0774 2765.1484
625.8045 3.1116 -877.3732 2743.8835 62.2099 2766.6489
625.9597 3.1119 -875.8812 2745.3835 62.3414 2768.1494
626.1154 3.1123 -874.3890 2746.8838 62.4722 2769.6499
626.2717 3.1129 -872.8970 2748.3840 62.6020 2771.1511
626.4283 3.1138 -871.4050 2749.8843 62.7310 2772.6506
626.5850 3.1148 -869.9130 2751.3845 62.8592 2774.1521
626.7420 3.1159 -868.4210 2752.8848 62.9866 2775.6511
626.8987 3.1173 -866.9290 2754.3850 63.1131 2777.1526
627.0554 3.1188 -865.4368 2755.8850 63.2388 2778.6528
627.2120 3.1205 -863.9448 2757.3853 63.3637 2780.1528
627.3683 3.1223 -862.4528 2758.8855 63.4878 2781.6526
627.5244 3.1243 -860.9608 2760.3857 63.6111 2783.1533
627.6802 3.1263 -859.4689 2761.8860 63.7337 2784.6541
627.8359 3.1282 -857.9769 2763.3862 63.4681 2786.1541
627.9911 3.1300 -856.4848 2764.8865 62.9608 2787.6555
628.1461 3.1316 -854.9926 2766.3865 62.4507 2789.1555
628.3006 3.1330 -853.5004 2767.8867 61.9375 2790.6565
628.4547 3.1342 -852.0081 2769.3870 61.4213 2792.1567
628.6081 3.1353 -850.5156 2770.8872 60.9020 2793.6572
628.7609 3.1363 -849.0233 2772.3875 60.3795 2795.1577
628.9130 3.1374 -847.5308 2773.8877 59.8537 2796.6575
629.0642 3.1384 -846.0381 2775.3879 59.3246 2798.1589
629.2145 3.1396 -844.5455 2776.8879 58.7921 2799.6594
629.3638 3.1409 -843.0527 2778.3882 58.2560 2801.1599
629.5119 3.1424 -841.5599 2779.8884 57.7163 2802.6609
629.6589 3.1440 -840.0670 2781.3887 57.1729 2804.1621
629.8043 3.1457 -838.5739 2782.8889 56.6258 2805.6628
629.9485 3.1473 -837.0806 2784.3892 56.0747 2807.1636
630.0911 3.1489 -835.5872 2785.8894 55.5197 2808.6638
630.2321 3.1503 -834.0937 2787.3894 54.9605 2810.1646
630.3718 3.1517 -832.6000 2788.8896 54.3971 2811.6643
630.5093 3.1529 -831.1061 2790.3899 53.8294 2813.1655
630.6453 3.1542 -829.6121 2791.8901 53.2571 2814.6655
630.7792 3.1555 -828.1180 2793.3904 52.6803 2816.1655
630.9106 3.1567 -826.6234 2794.8906 52.0988 2817.6663
631.0389 3.1580 -825.1286 2796.3909 51.5123 2819.1658
631.1636 3.1592 -823.6336 2797.8909 50.9208 2820.6658
631.2841 3.1604 -822.1383 2799.3911 50.3241 2822.1667
631.3996 3.1614 -820.6425 2800.8914 49.7220 2823.6672
631.5099 3.1624 -819.1462 2802.3916 49.1143 2825.1675
631.6148 3.1634 -817.6495 2803.8918 48.5008 2826.6677
631.7137 3.1643 -816.1525 2805.3921 47.8814 2828.1677
631.8055 3.1651 -814.6552 2806.8923 47.2559 2829.6672
631.8892 3.1653 -813.1572 2808.3923 46.6239 2831.1670
631.9629 3.1648 -811.6587 2809.8926 45.9853 2832.6658
632.0246 3.1632 -810.1597 2811.3928 45.3398 2834.1648
632.0727 3.1607 -808.6604 2812.8931 44.6924 2835.6626
632.1058 3.1571 -807.1605 2814.3933 44.0429 2837.1589
632.1224 3.1525 -805.6604 2815.8936 43.3912 2838.6550
632.1212 3.1468 -804.1603 2817.3938 42.7372 2840.1504
632.1008 3.1398 -802.6603 2818.8940 42.0810 2841.6428
632.0605 3.1315 -801.1607 2820.3940 41.4224 2843.1335
631.9991 3.1219 -799.6619 2821.8943 40.7613 2844.6206
631.9163 3.1109 -798.1640 2823.3945 40.0976 2846.1030
631.8115 3.0985 -796.6674 2824.8948 39.4313 2847.5701
631.6838 3.0845 -795.1728 2826.3950 38.7622 2849.0347
631.5325 3.0692 -793.6802 2827.8953 38.0902 2850.5017
631.3564 3.0522 -792.1907 2829.3955 37.4152 2851.9666
631.1549 3.0337 -790.7042 2830.8955 36.7371 2853.4331
630.9272 3.0134 -789.2214 2832.3958 36.6058 2854.8987
630.6731 2.9912 -787.7432 2833.8960 36.7388 2856.3633
630.3924 2.9669 -786.2697 2835.3962 36.1068 2857.8281
630.0850 2.9403 -784.8017 2836.8965 35.7424 2859.3018
629.7507 2.9116 -783.3395 2838.3967 35.6021 2860.7859
629.3892 2.8810 -781.8839 2839.8970 34.9150 2862.2781
628.9993 2.8494 -780.4357 2841.3970 34.3473 2863.7805
628.5803 2.8179 -778.9955 2842.8972 33.6534 2865.2952
628.1319 2.7874 -777.5643 2844.3975 33.8016 2866.8240
627.6540 2.7587 -776.1425 2845.8977 34.0174 2868.3677
627.1473 2.7322 -774.7306 2847.3979 34.0820 2869.9297
626.6128 2.7085 -773.3291 2848.8982 34.5349 2871.5134
626.0522 2.6875 -771.9379 2850.3984 34.9819 2873.1821
625.4666 2.6690 -770.5568 2851.8984 35.4232 2874.8645
624.8568 2.6534 -769.1863 2853.3987 35.8589 2876.5457
624.2231 2.6412 -767.8267 2854.8989 36.2894 2878.2295
623.5658 2.6323 -766.4783 2856.3992 36.7126 2879.9175
622.8857 2.6259 -765.1412 2857.8994 37.1277 2881.6162
622.1839 2.6208 -763.8154 2859.3997 37.5352 2883.3269
621.4608 2.6156 -762.5010 2860.8999 37.3002 2885.0530
620.7168 2.6101 -761.1983 2862.3999 36.6215 2886.8005
619.9510 2.6052 -759.9083 2863.9001 35.9396 2888.5593
619.1622 2.6031 -758.6323 2865.4004 35.2543 2890.2786
618.3492 2.6061 -757.3715 2866.9006 35.0223 2891.9619
617.5122 2.6146 -756.1265 2868.4009 35.4630 2893.6204
616.6533 2.6275 -754.8967 2869.9011 35.8983 2895.2507
615.7736 2.6429 -753.6816 2871.4014 36.3283 2896.8611
614.8741 2.6595 -752.4810 2872.9014 36.7507 2898.4495
613.9548 2.6773 -751.2957 2874.4016 37.1651 2900.0232
613.0154 2.6969 -750.1260 2875.9019 37.0134 2901.5830
612.0563 2.7188 -748.9727 2877.4021 36.9780 2903.1304
611.0783 2.7426 -747.8355 2878.9023 37.3883 2904.6284
610.0824 2.7677 -746.7137 2880.4026 37.7910 2906.0933
609.0695 2.7931 -745.6074 2881.9028 38.1865 2907.5535
608.0402 2.8177 -744.5164 2883.4028 38.5752 2909.0107
606.9944 2.8409 -743.4411 2884.9031 38.9571 2910.4634
605.9327 2.8622 -742.3816 2886.4033 39.3326 2911.9126
604.8550 2.8811 -741.3381 2887.9036 39.7020 2913.3608
603.7617 2.8975 -740.3107 2889.4038 40.0653 2914.8071
602.6530 2.9112 -739.2999 2890.9041 40.4229 2916.2537
601.5298 2.9224 -738.3058 2892.4043 39.9231 2917.6980
600.3914 2.9313 -737.3288 2893.9043 40.2830 2919.1560
599.2386 2.9381 -736.3692 2895.4045 40.6371 2920.6174
598.0711 2.9432 -735.4271 2896.9048 40.7934 2922.0837
596.8897 2.9465 -734.5027 2898.4050 41.1396 2923.5535
595.6953 2.9479 -733.5952 2899.9053 41.4807 2925.0264
594.4885 2.9472 -732.7039 2901.4055 41.8167 2926.5024
593.2705 2.9441 -731.8280 2902.9058 42.1478 2927.9810
592.0424 2.9383 -730.9668 2904.4058 42.4741 2929.4624
590.8043 2.9304 -730.1196 2905.9060 42.7958 2930.9441
589.5570 2.9204 -729.2859 2907.4062 43.1130 2932.4282
588.3013 2.9088 -728.4653 2908.9065 43.4259 2933.9148
587.0376 2.8962 -727.6569 2910.4067 43.7345 2935.4065
585.7663 2.8834 -726.8603 2911.9070 44.0390 2936.8989
584.4882 2.8712 -726.0751 2913.4072 44.3395 2938.3953
583.2032 2.8604 -725.3011 2914.9072 44.6361 2939.8911
581.9118 2.8513 -724.5375 2916.4075 44.9288 2941.3904
580.6147 2.8429 -723.7836 2917.9077 45.2179 2942.8892
579.3126 2.8341 -723.0385 2919.4080 45.5034 2944.3879
578.0061 2.8247 -722.3014 2920.9082 45.7853 2945.8892
576.6955 2.8147 -721.5715 2922.4084 46.0638 2947.3889
575.3813 2.8045 -720.8480 2923.9087 46.3389 2948.8887
574.0643 2.7939 -720.1302 2925.4087 46.6108 2950.3906
572.7444 2.7829 -719.4174 2926.9089 46.8794 2951.8926
571.4220 2.7714 -718.7090 2928.4092 47.1450 2953.3938
570.0974 2.7596 -718.0051 2929.9094 47.4075 2954.8958
568.7703 2.7476 -717.3054 2931.4097 47.6669 2956.3979
567.4413 2.7355 -716.6097 2932.9099 47.9235 2957.8992
566.1100 2.7232 -715.9180 2934.4102 48.1772 2959.4011
564.7769 2.7103 -715.2302 2935.9102 48.4282 2960.9045
563.4418 2.6969 -714.5464 2937.4104 48.6764 2962.4058
562.1048 2.6830 -713.8665 2938.9106 48.9219 2963.9092
560.7657 2.6696 -713.1905 2940.4109 49.1648 2965.4104
559.4246 2.6572 -712.5184 2941.9111 49.4051 2966.9082
558.0817 2.6456 -711.8499 2943.4114 49.6429 2968.4050
556.7368 2.6339 -711.1850 2944.9116 49.8782 2969.9016
555.3904 2.6216 -710.5232 2946.4116 50.1111 2971.3989
554.0426 2.6087 -709.8648 2947.9119 50.3417 2972.8962
552.6932 2.5960 -709.2094 2949.4121 50.5699 2974.3921
551.3428 2.5836 -708.5564 2950.9124 50.7958 2975.8909
549.9912 2.5716 -707.9052 2952.4126 51.0195 2977.3875
548.6392 2.5600 -707.2552 2953.9128 51.2410 2978.8848
547.2869 2.5484 -706.6055 2955.4131 51.4603 2980.3823
545.9346 2.5375 -705.9561 2956.9133 51.6776 2981.8792
544.5825 2.5270 -705.3063 2958.4133 51.8927 2983.3765
543.2304 2.5172 -704.6563 2959.9136 52.1058 2984.8750
541.8786 2.5079 -704.0054 2961.4138 52.3169 2986.3713
540.5270 2.4990 -703.3542 2962.9141 52.5260 2987.8687
539.1758 2.4905 -702.7024 2964.4143 52.7332 2989.3674
537.8250 2.4821 -702.0502 2965.9146 52.9385 2990.8645
536.4743 2.4739 -701.3973 2967.4148 53.1419 2992.3616
535.1242 2.4659 -700.7437 2968.9148 53.3434 2993.8601
533.7748 2.4580 -700.0886 2970.4150 53.5432 2995.3582
532.4263 2.4501 -699.4314 2971.9153 53.7411 2996.8560
531.0791 2.4423 -698.7715 2973.4155 53.9373 2998.3521
529.7336 2.4346 -698.1083 2974.9158 54.1318 2999.8569
528.3898 2.4271 -697.4417 2976.4160 54.3246 3001.3633
527.0474 2.4199 -696.7717 2977.9163 54.5157 3002.8677
525.7065 2.4128 -696.0989 2979.4163 54.7052 3004.3735
524.3669 2.4062 -695.4235 2980.9165 54.8930 3005.8779
523.0284 2.4000 -694.7457 2982.4167 55.0793 3007.3838
521.6912 2.3940 -694.0659 2983.9170 55.2640 3008.8877
520.3547 2.3884 -693.3840 2985.4172 55.4471 3010.3928
519.0192 2.3831 -692.7004 2986.9175 55.6287 3011.8970
517.6846 2.3782 -692.0151 2988.4177 55.8088 3013.4016
516.3508 2.3735 -691.3284 2989.9177 55.9875 3014.9050
515.0179 2.3692 -690.6401 2991.4180 56.1647 3016.4087
513.6857 2.3651 -689.9504 2992.9182 56.3404 3017.9131
512.3542 2.3615 -689.2590 2994.4185 56.5147 3019.4170
511.0237 2.3581 -688.5665 2995.9187 56.6876 3020.9192
509.6935 2.3552 -687.8725 2997.4189 56.8592 3022.4231
508.3640 2.3525 -687.1774 2998.9192 57.0294 3023.9270
507.0352 2.3500 -686.4810 3000.4192 57.1982 3025.4302
505.7067 2.3477 -685.7839 3001.9194 57.3658 3026.9333
504.3788 2.3455 -685.0857 3003.4197 57.5320 3028.4373
503.0514 2.3431 -684.3867 3004.9199 57.6969 3029.9397
501.7243 2.3409 -683.6868 3006.4202 57.8606 3031.4426
500.3978 2.3386 -682.9863 3007.9204 58.0230 3032.9458
499.0718 2.3363 -682.2847 3009.4207 58.1842 3034.4487
497.7461 2.3341 -681.5823 3010.9207 58.3442 3035.9504
496.4211 2.3320 -680.8790 3012.4209 58.5030 3037.4546
495.0964 2.3298 -680.1749 3013.9211 58.6606 3038.9570
493.7722 2.3276 -679.4698 3015.4214 58.8170 3040.4583
492.4484 2.3254 -678.7640 3016.9216 58.9722 3041.9609
491.1250 2.3230 -678.0573 3018.4219 59.1263 3043.4646
489.8020 2.3204 -677.3501 3019.9221 59.2793 3044.9668
488.4792 2.3177 -676.6421 3021.4221 59.4312 3046.4695
487.1567 2.3149 -675.9336 3022.9224 59.5820 3047.9709
485.8345 2.3125 -675.2245 3024.4226 59.7317 3049.4734
484.5128 2.3104 -674.5150 3025.9229 59.8803 3050.9746
483.1911 2.3092 -673.8051 3027.4231 60.0278 3052.4746
481.8699 2.3091 -673.0947 3028.9233 60.1743 3053.9753
480.5488 2.3099 -672.3840 3030.4236 60.3198 3055.4778
479.2280 2.3117 -671.6728 3031.9236 60.4642 3056.9785
477.9073 2.3145 -670.9612 3033.4238 60.6077 3058.4800
476.5869 2.3178 -670.2493 3034.9241 60.7501 3059.9800
475.2666 2.3215 -669.5369 3036.4243 60.8915 3061.4812
473.9466 2.3251 -668.8242 3037.9246 61.0320 3062.9817
472.6268 2.3286 -668.1112 3039.4248 61.1715 3064.4827
471.3072 2.3317 -667.3977 3040.9250 61.3101 3065.9844
469.9875 2.3347 -666.6840 3042.4250 61.4477 3067.4849
468.6682 2.3374 -665.9699 3043.9253 61.5843 3068.9866
467.3490 2.3401 -665.2554 3045.4255 61.7201 3070.4875
466.0301 2.3428 -664.5407 3046.9258 61.8549 3071.9885
464.7112 2.3455 -663.8256 3048.4260 61.9889 3073.4895
463.3924 2.3479 -663.1105 3049.9263 62.1219 3074.9905
462.0738 2.3502 -662.3949 3051.4265 62.2541 3076.4915
460.7554 2.3520 -661.6791 3052.9265 62.3854 3077.9917
459.4370 2.3535 -660.9632 3054.4268 62.5158 3079.4934
458.1188 2.3547 -660.2470 3055.9270 62.6454 3080.9941
456.8008 2.3556 -659.5305 3057.4272 62.7741 3082.4956
455.4830 2.3564 -658.8138 3058.9275 62.9020 3083.9954
454.1653 2.3569 -658.0967 3060.4277 63.0291 3085.4966
452.8478 2.3574 -657.3795 3061.9280 63.1553 3086.9968
451.5305 2.3576 -656.6619 3063.4280 63.2808 3088.4980
450.2133 2.3578 -655.9439 3064.9282 63.4054 3089.9983
448.8962 2.3577 -655.2257 3066.4285 63.5292 3091.4993
447.5793 2.3576 -654.5073 3067.9287 63.6523 3093.0007
446.2624 2.3573 -653.7885 3069.4290 63.7746 3094.5010
444.9456 2.3569 -653.0696 3070.9292 63.8961 3096.0020
443.6291 2.3564 -652.3506 3072.4294 64.0168 3097.5017
442.3126 2.3559 -651.6313 3073.9294 64.1368 3099.0037
440.9961 2.3555 -650.9118 3075.4297 64.2561 3100.5049
439.6797 2.3552 -650.1922 3076.9299 64.3746 3102.0049
438.3634 2.3549 -649.4725 3078.4302 64.4924 3103.5068
437.0471 2.3547 -648.7526 3079.9304 64.6094 3105.0068
435.7309 2.3546 -648.0325 3081.4307 64.7258 3106.5093
434.4148 2.3545 -647.3123 3082.9309 64.8414 3108.0103
433.0987 2.3543 -646.5920 3084.4309 64.9563 3109.5107
431.7828 2.3543 -645.8716 3085.9312 65.0705 3111.0107
430.4669 2.3543 -645.1511 3087.4314 65.1841 3112.5120
429.1512 2.3545 -644.4305 3088.9316 65.2969 3114.0132
427.8353 2.3547 -643.7099 3090.4319 65.4091 3115.5137
426.5195 2.3551 -642.9894 3091.9321 65.5206 3117.0154
425.2038 2.3555 -642.2687 3093.4324 65.6314 3118.5154
423.8880 2.3560 -641.5479 3094.9326 65.7416 3120.0154
422.5723 2.3564 -640.8270 3096.4326 65.8511 3121.5171
421.2567 2.3568 -640.1061 3097.9329 65.9600 3123.0178
419.9410 2.3570 -639.3850 3099.4331 66.0683 3124.5173
418.6255 2.3571 -638.6639 3100.9333 66.1759 3126.0178
417.3102 2.3571 -637.9427 3102.4336 66.2828 3127.5193
415.9947 2.3571 -637.2213 3103.9338 66.3892 3129.0200
414.6795 2.3570 -636.4994 3105.4341 66.4949 3130.5208
413.3644 2.3569 -635.7773 3106.9341 66.6000 3132.0212
412.0495 2.3568 -635.0549 3108.4343 66.7046 3133.5220
410.7348 2.3567 -634.3323 3109.9346 66.8085 3135.0220
409.4203 2.3565 -633.6093 3111.4348 66.9118 3136.5239
408.1060 2.3563 -632.8860 3112.9351 67.0145 3138.0232
406.7918 2.3560 -632.1625 3114.4353 67.1167 3139.5249
405.4778 2.3558 -631.4388 3115.9355 67.2182 3141.0247
404.1639 2.3557 -630.7147 3117.4355 67.3192 3142.5247
402.8500 2.3556 -629.9902 3118.9358 67.4196 3144.0259
401.5365 2.3556 -629.2655 3120.4360 67.5195 3145.5261
400.2230 2.3559 -628.5406 3121.9363 67.6188 3147.0266
398.9099 2.3563 -627.8154 3123.4365 67.7175 3148.5269
397.5970 2.3570 -627.0897 3124.9368 67.8157 3150.0264
396.2840 2.3578 -626.3638 3126.4370 67.9133 3151.5264
394.9715 2.3588 -625.6372 3127.9370 68.0104 3153.0259
393.6593 2.3598 -624.9103 3129.4373 68.1070 3154.5269
392.3473 2.3609 -624.1827 3130.9375 68.2030 3156.0269
391.0355 2.3621 -623.4547 3132.4377 68.2985 3157.5261
389.7240 2.3632 -622.7261 3133.9380 68.3935 3159.0266
388.4129 2.3645 -621.9971 3135.4382 68.4879 3160.5276
387.1020 2.3657 -621.2676 3136.9385 68.5819 3162.0261
385.7914 2.3671 -620.5376 3138.4385 68.6753 3163.5273
384.4811 2.3685 -619.8071 3139.9387 68.7682 3165.0266
383.1712 2.3698 -619.0760 3141.4390 68.8606 3166.5261
381.8615 2.3712 -618.3442 3142.9392 68.9526 3168.0271
380.5522 2.3726 -617.6117 3144.4395 69.0440 3169.5271
379.2436 2.3739 -616.8784 3145.9397 69.1349 3171.0273
377.9354 2.3753 -616.1443 3147.4399 69.2254 3172.5276
376.6278 2.3765 -615.4091 3148.9399 69.3153 3174.0269
375.3207 2.3779 -614.6727 3150.4402 69.4048 3175.5271
374.0144 2.3791 -613.9352 3151.9404 69.4938 3177.0266
372.7088 2.3803 -613.1964 3153.4407 69.5823 3178.5261
371.4038 2.3815 -612.4564 3154.9409 69.6704 3180.0259
370.0995 2.3826 -611.7152 3156.4412 69.7580 3181.5266
368.7960 2.3836 -610.9729 3157.9414 69.8452 3183.0249
367.4930 2.3846 -610.2292 3159.4414 69.9318 3184.5254
366.1908 2.3855 -609.4844 3160.9417 70.0181 3186.0242
364.8891 2.3865 -608.7385 3162.4419 70.1039 3187.5237
363.5883 2.3873 -607.9914 3163.9421 70.1892 3189.0242
362.2879 2.3881 -607.2430 3165.4424 70.2741 3190.5229
360.9884 2.3889 -606.4933 3166.9426 70.3585 3192.0217
359.6898 2.3896 -605.7424 3168.4429 70.4426 3193.5220
358.3917 2.3903 -604.9902 3169.9429 70.5261 3195.0212
357.0945 2.3909 -604.2366 3171.4431 70.6093 3196.5212
355.7981 2.3915 -603.4815 3172.9434 70.6920 3198.0208
354.5024 2.3920 -602.7250 3174.4436 70.7743 3199.5220
353.2079 2.3926 -601.9670 3175.9438 70.8562 3201.0220
351.9140 2.3934 -601.2075 3177.4441 70.9377 3202.5210
350.6212 2.3943 -600.4464 3178.9443 71.0187 3204.0205
349.3291 2.3956 -599.6838 3180.4443 71.0993 3205.5198
348.0379 2.3970 -598.9199 3181.9446 71.1796 3207.0208
346.7477 2.3987 -598.1546 3183.4448 71.2594 3208.5205
345.4583 2.4005 -597.3878 3184.9451 71.3388 3210.0190
344.1698 2.4025 -596.6196 3186.4453 71.4178 3211.5190
342.8820 2.4047 -595.8500 3187.9456 71.4965 3213.0193
341.5952 2.4070 -595.0790 3189.4458 71.5747 3214.5176
340.3093 2.4098 -594.3065 3190.9458 71.6525 3216.0168
339.0244 2.4130 -593.5325 3192.4460 71.7300 3217.5173
337.7401 2.4166 -592.7571 3193.9463 71.8071 3219.0161
336.4567 2.4204 -591.9802 3195.4465 71.8838 3220.5166
335.1743 2.4243 -591.2020 3196.9468 71.9601 3222.0154
333.8925 2.4284 -590.4222 3198.4470 72.0360 3223.5151
332.6116 2.4323 -589.6411 3199.9473 72.1115 3225.0151
331.3316 2.4362 -588.8586 3201.4473 72.1867 3226.5139
330.0524 2.4396 -588.0748 3202.9475 72.2615 3228.0139
328.7742 2.4426 -587.2896 3204.4478 72.3360 3229.5127
327.4966 2.4453 -586.5029 3205.9480 72.4101 3231.0125
326.2202 2.4476 -585.7148 3207.4482 72.4838 3232.5110
324.9444 2.4497 -584.9252 3208.9485 72.5571 3234.0105
323.6698 2.4515 -584.1340 3210.4487 72.6301 3235.5110
322.3962 2.4535 -583.3413 3211.9487 72.7028 3237.0142
321.1234 2.4556 -582.5470 3213.4490 72.7751 3238.5190
319.8518 2.4582 -581.7509 3214.9492 72.8470 3240.0225
318.5812 2.4609 -580.9532 3216.4495 72.9186 3241.5254
317.3119 2.4641 -580.1537 3217.9497 72.9899 3243.0286
316.0436 2.4675 -579.3524 3219.4500 73.0608 3244.5305
314.7764 2.4713 -578.5493 3220.9502 73.1314 3246.0334
313.5104 2.4752 -577.7443 3222.4502 73.2016 3247.5354
312.2455 2.4792 -576.9377 3223.9504 73.2715 3249.0383
310.9817 2.4833 -576.1293 3225.4507 73.3411 3250.5410
309.7191 2.4876 -575.3191 3226.9509 73.4103 3252.0442
308.4576 2.4920 -574.5072 3228.4512 73.4792 3253.5457
307.1970 2.4966 -573.6935 3229.9514 73.5478 3255.0483
305.9378 2.5014 -572.8782 3231.4517 73.6161 3256.5498
304.6797 2.5062 -572.0613 3232.9519 73.6840 3258.0505
303.4225 2.5110 -571.2426 3234.4519 73.7516 3259.5532
302.1665 2.5156 -570.4223 3235.9521 73.8189 3261.0544
300.9115 2.5200 -569.6003 3237.4524 73.8859 3262.5574
299.6576 2.5241 -568.7767 3238.9526 73.9526 3264.0579
298.4047 2.5278 -567.9514 3240.4529 74.0189 3265.5596
297.1530 2.5315 -567.1245 3241.9531 74.0850 3267.0605
295.9024 2.5350 -566.2961 3243.4534 74.1507 3268.5620
294.6527 2.5385 -565.4658 3244.9534 74.2161 3270.0640
293.4044 2.5418 -564.6340 3246.4536 74.2812 3271.5657
292.1572 2.5448 -563.8004 3247.9539 74.3461 3273.0659
290.9110 2.5474 -562.9651 3249.4541 74.4106 3274.5676
289.6661 2.5496 -562.1281 3250.9543 74.4748 3276.0713
288.4222 2.5513 -561.2893 3252.4546 74.5387 3277.5864
287.1796 2.5528 -560.4488 3253.9548 74.6024 3279.1006
285.9382 2.5538 -559.6066 3255.4548 74.6657 3280.6157
284.6979 2.5549 -558.7625 3256.9551 74.7288 3282.1282
283.4589 2.5558 -557.9167 3258.4553 74.7915 3283.6411
282.2211 2.5566 -557.0693 3259.9556 74.8540 3285.1533
280.9844 2.5571 -556.2200 3261.4558 74.9162 3286.6646
279.7488 2.5574 -555.3690 3262.9561 74.9781 3288.1746
278.5143 2.5573 -554.5163 3264.4563 75.0397 3289.6855
277.2810 2.5569 -553.6620 3265.9563 75.1011 3291.1960
276.0489 2.5564 -552.8063 3267.4565 75.1621 3292.7053
274.8178 2.5558 -551.9488 3268.9568 75.2229 3294.2158
273.5878 2.5552 -551.0898 3270.4570 75.2834 3295.7251
272.3589 2.5548 -550.2292 3271.9573 75.3437 3297.2334
271.1313 2.5545 -549.3669 3273.4575 75.4036 3298.7417
269.9048 2.5546 -548.5031 3274.9578 75.4633 3300.2502
268.6797 2.5549 -547.6374 3276.4578 75.5228 3301.7581
267.4557 2.5555 -546.7698 3277.9580 75.5819 3303.2671
266.2330 2.5561 -545.9007 3279.4583 75.6408 3304.7737
265.0115 2.5566 -545.0298 3280.9585 75.6995 3306.2825
263.7912 2.5567 -544.1572 3282.4587 75.7578 3307.7898
262.5721 2.5562 -543.2830 3283.9590 75.8160 3309.2974
261.3541 2.5549 -542.4071 3285.4592 75.8738 3310.8040
260.1372 2.5531 -541.5295 3286.9592 75.9314 3312.3118
258.9217 2.5509 -540.6503 3288.4595 75.9887 3313.8188
257.7074 2.5484 -539.7695 3289.9597 76.0458 3315.3262
256.4942 2.5456 -538.8871 3291.4600 76.1027 3316.8289
255.2822 2.5424 -538.0029 3292.9602 76.1592 3318.3308
254.0713 2.5386 -537.1172 3294.4604 76.2156 3319.8318
252.8617 2.5340 -536.2298 3295.9607 76.2717 3321.3337
251.6532 2.5289 -535.3408 3297.4607 76.3275 3322.8330
250.4460 2.5228 -534.4501 3298.9609 76.3831 3324.3354
249.2399 2.5162 -533.5579 3300.4612 76.4384 3325.8357
248.0349 2.5090 -532.6640 3301.9614 76.4936 3327.3364
246.8313 2.5017 -531.7685 3303.4617 76.5484 3328.8367
245.6289 2.4939 -530.8715 3304.9619 76.6030 3330.3364
244.4277 2.4859 -529.9730 3306.4622 76.6574 3331.8379
243.2278 2.4775 -529.0728 3307.9622 76.7116 3333.3381
242.0288 2.4684 -528.1710 3309.4624 76.7655 3334.8376
240.8311 2.4587 -527.2677 3310.9626 76.8192 3336.3367
239.6348 2.4484 -526.3627 3312.4629 76.8726 3337.8354
238.4396 2.4376 -525.4560 3313.9631 76.9258 3339.3354
237.2456 2.4262 -524.5475 3315.4634 76.9788 3340.8362
236.0529 2.4140 -523.6376 3316.9636 77.0316 3342.3354
234.8614 2.4007 -522.7261 3318.4636 77.0841 3343.8335
233.6712 2.3862 -521.8130 3319.9639 77.1364 3345.3328
232.4820 2.3706 -520.8984 3321.4641 77.1885 3346.8320
231.2941 2.3539 -519.9824 3322.9644 77.2403 3348.3323
230.1072 2.3364 -519.0649 3324.4646 77.2920 3349.8306
228.9214 2.3184 -518.1461 3325.9648 77.3434 3351.3298
227.7368 2.3001 -517.2259 3327.4651 77.3946 3352.8286
226.5532 2.2813 -516.3043 3328.9651 77.4456 3354.3281
225.3707 2.2623 -515.3815 3330.4653 77.4963 3355.8257
224.1890 2.2428 -514.4573 3331.9656 77.5469 3357.3245
223.0084 2.2229 -513.5319 3333.4658 77.5972 3358.8208
221.8289 2.2025 -512.6052 3334.9661 77.6473 3360.3191
220.6504 2.1814 -511.6770 3336.4663 77.6972 3361.8174
219.4730 2.1595 -510.7477 3337.9666 77.7469 3363.3149
218.2966 2.1366 -509.8169 3339.4666 77.7963 3364.8113
217.1213 2.1128 -508.8848 3340.9668 77.8456 3366.3081
215.9471 2.0881 -507.9515 3342.4670 77.8947 3367.8069
214.7738 2.0628 -507.0168 3343.9673 77.9435 3369.3030
213.6016 2.0369 -506.0807 3345.4675 77.9921 3370.8010
212.4306 2.0102 -505.1434 3346.9678 78.0406 3372.2981
211.2608 1.9828 -504.2048 3348.4680 78.0888 3373.7944
210.0919 1.9547 -503.2649 3349.9680 78.1369 3375.2900
208.9242 1.9260 -502.3237 3351.4683 78.1847 3376.7869
207.7576 1.8969 -501.3810 3352.9685 78.2323 3378.2834
206.5922 1.8675 -500.4368 3354.4688 78.2798 3379.7817
205.4278 1.8377 -499.4912 3355.9690 78.3270 3381.2773
204.2646 1.8075 -498.5443 3357.4692 78.3740 3382.7747
203.1027 1.7768 -497.5960 3358.9695 78.4209 3384.2710
201.9417 1.7456 -496.6463 3360.4695 78.4675 3385.7676
200.7818 1.7140 -495.6953 3361.9697 78.5140 3387.2654
199.6230 1.6820 -494.7429 3363.4700 78.5602 3388.7622
198.4653 1.6496 -493.7894 3364.9702 78.6063 3390.2581
197.3085 1.6169 -492.8347 3366.4705 78.6522 3391.7556
196.1527 1.5838 -491.8789 3367.9707 78.6979 3393.2527
194.9978 1.5502 -490.9220 3369.4709 78.7434 3394.7495
193.8437 1.5158 -489.9640 3370.9712 78.7887 3396.2554
192.6906 1.4806 -489.0049 3372.4712 78.8338 3397.7610
191.5383 1.4448 -488.0449 3373.9714 78.8787 3399.2661
190.3869 1.4084 -487.0838 3375.4717 78.9235 3400.7720
189.2365 1.3715 -486.1215 3376.9719 78.9680 3402.2778
188.0871 1.3342 -485.1582 3378.4722 79.0124 3403.7837
186.9387 1.2965 -484.1937 3379.9724 79.0566 3405.2908
185.7912 1.2586 -483.2281 3381.4727 79.1007 3406.7976
184.6448 1.2205 -482.2614 3382.9727 79.1445 3408.3040
183.4993 1.1823 -481.2933 3384.4729 79.1882 3409.8115
182.3547 1.1443 -480.3242 3385.9731 79.2317 3411.3186
181.2109 1.1064 -479.3541 3387.4734 79.2750 3412.8262
180.0680 1.0688 -478.3830 3388.9736 79.3181 3414.3342
178.9258 1.0312 -477.4110 3390.4739 79.3611 3415.8416
177.7843 0.9936 -476.4381 3391.9741 79.4038 3417.3501
176.6435 0.9558 -475.4647 3393.4741 79.4464 3418.8584
175.5032 0.9176 -474.4905 3394.9744 79.4889 3420.3662
174.3633 0.8790 -473.5158 3396.4746 79.5311 3421.8752
173.2241 0.8400 -472.5406 3397.9749 79.5732 3423.3818
172.0852 0.8005 -471.5646 3399.4751 79.6152 3424.8909
170.9469 0.7608 -470.5883 3400.9753 79.6569 3426.3994
169.8091 0.7208 -469.6114 3402.4756 79.6985 3427.9072
168.6718 0.6808 -468.6338 3403.9756 79.7399 3429.4158
167.5351 0.6407 -467.6556 3405.4758 79.7812 3430.9231
166.3988 0.6007 -466.6768 3406.9761 79.8222 3432.4321
165.2630 0.5609 -465.6975 3408.4763 79.8632 3433.9407
164.1277 0.5212 -464.7177 3409.9766 79.9039 3435.4419
162.9928 0.4816 -463.7374 3411.4768 79.9445 3436.9407
161.8582 0.4421 -462.7567 3412.9771 79.9849 3438.4395
160.7239 0.4028 -461.7756 3414.4771 80.0252 3439.9392
159.5899 0.3635 -460.7943 3415.9773 80.0653 3441.4375
158.4559 0.3244 -459.8128 3417.4775 80.1053 3442.9363
157.3221 0.2852 -458.8311 3418.9778 80.1450 3444.4348
156.1884 0.2462 -457.8493 3420.4780 80.1847 3445.9338
155.0548 0.2073 -456.8674 3421.9783 80.2241 3447.4329
153.9211 0.1684 -455.8855 3423.4785 80.2635 3448.9312
152.7877 0.1297 -454.9035 3424.9785 80.3026 3450.4292
151.6544 0.0910 -453.9213 3426.4788 80.3416 3451.9285
150.5212 0.0524 -452.9389 3427.9790 80.3805 3453.4272
149.3881 0.0138 -451.9564 3429.4792 80.4191 3454.9253
148.2552 -0.0247 -450.9738 3430.9795 80.4577 3456.4238
147.1223 -0.0631 -449.9909 3432.4797 80.4961 3457.9231
145.9896 -0.1014 -449.0081 3433.9800 80.5343 3459.4214
144.8570 -0.1396 -448.0251 3435.4800 80.5724 3460.9211
143.7245 -0.1776 -447.0421 3436.9802 80.6103 3462.4187
142.5919 -0.2156 -446.0589 3438.4805 80.6481 3463.9175
141.4593 -0.2534 -445.0759 3439.9807 80.6858 3465.4160
140.3269 -0.2909 -444.0928 3441.4810 80.7232 3466.9155
139.1944 -0.3284 -443.1098 3442.9812 80.7606 3468.4131
138.0619 -0.3656 -442.1268 3444.4814 80.7978 3469.9119
136.9294 -0.4026 -441.1437 3445.9814 80.8348 3471.4109
135.7968 -0.4396 -440.1607 3447.4817 80.8717 3472.9097
134.6640 -0.4764 -439.1777 3448.9819 80.9085 3474.4067
133.5313 -0.5131 -438.1945 3450.4822 80.9451 3475.9036
132.3987 -0.5495 -437.2115 3451.9824 80.9816 3477.3977
131.2660 -0.5857 -436.2285 3453.4827 81.0179 3478.8931
130.1334 -0.6215 -435.2454 3454.9829 81.0541 3480.3879
129.0007 -0.6571 -434.2623 3456.4829 81.0901 3481.8843
127.8682 -0.6922 -433.2793 3457.9832 81.1260 3483.3782
126.7355 -0.7271 -432.2962 3459.4834 81.1618 3484.8735
125.6028 -0.7620 -431.3130 3460.9836 81.1974 3486.3687
124.4701 -0.7968 -430.3299 3462.4839 81.2329 3487.8638
123.3375 -0.8319 -429.3467 3463.9841 81.2683 3489.3586
122.2048 -0.8673 -428.3635 3465.4844 81.3035 3490.8533
121.0722 -0.9032 -427.3802 3466.9844 81.3386 3492.3481
119.9396 -0.9394 -426.3971 3468.4846 81.3735 3493.8445
118.8071 -0.9761 -425.4139 3469.9849 81.4083 3495.3381
117.6745 -1.0128 -424.4307 3471.4851 81.4430 3496.8335
116.5420 -1.0497 -423.4476 3472.9854 81.4775 3498.3264
115.4095 -1.0862 -422.4644 3474.4856 81.5120 3499.8210
114.2770 -1.1225 -421.4812 3475.9858 81.5462 3501.3167
113.1444 -1.1582 -420.4979 3477.4858 81.5804 3502.8105
112.0118 -1.1935 -419.5146 3478.9861 81.6144 3504.3057
110.8792 -1.2282 -418.5312 3480.4863 81.6483 3505.8000
109.7468 -1.2626 -417.5479 3481.9866 81.6820 3507.2937
108.6144 -1.2968 -416.5645 3483.4868 81.7156 3508.7886
107.4820 -1.3310 -415.5811 3484.9871 81.7491 3510.2817
106.3495 -1.3654 -414.5977 3486.4873 81.7825 3511.7759
105.2172 -1.4002 -413.6143 3487.9873 81.8157 3513.2698
104.0849 -1.4352 -412.6308 3489.4875 81.8488 3514.7695
102.9527 -1.4703 -411.6473 3490.9878 81.8818 3516.2727
101.8204 -1.5053 -410.6637 3492.4880 81.9147 3517.7739
100.6882 -1.5404 -409.6801 3493.9883 81.9474 3519.2764
99.5559 -1.5752 -408.6965 3495.4885 81.9800 3520.7791
98.4237 -1.6099 -407.7128 3496.9888 82.0125 3522.2817
97.2916 -1.6442 -406.7291 3498.4888 82.0448 3523.7837
96.1595 -1.6782 -405.7453 3499.9890 82.0771 3525.2861
95.0274 -1.7119 -404.7615 3501.4893 82.1092 3526.7881
93.8954 -1.7453 -403.7777 3502.9895 82.1412 3528.2913
92.7634 -1.7785 -402.7937 3504.4897 82.1731 3529.7925
91.6314 -1.8114 -401.8098 3505.9900 82.2048 3531.2949
90.4994 -1.8442 -400.8259 3507.4902 82.2364 3532.7971
89.3674 -1.8767 -399.8418 3508.9905 82.2679 3534.3010
88.2355 -1.9091 -398.8578 3510.4905 82.2993 3535.8040
87.1037 -1.9412 -397.8738 3511.9907 82.3306 3537.3069
85.9719 -1.9732 -396.8897 3513.4910 82.3618 3538.8088
84.8401 -2.0050 -395.9056 3514.9912 82.3928 3540.3105
83.7083 -2.0364 -394.9214 3516.4915 82.4237 3541.8127
82.5766 -2.0673 -393.9371 3517.9917 82.4545 3543.3157
81.4449 -2.0973 -392.9528 3519.4919 82.4852 3544.8193
80.3132 -2.1264 -391.9682 3520.9919 82.5158 3546.3218
79.1817 -2.1541 -390.9837 3522.4922 82.5462 3547.8250
78.0501 -2.1806 -389.9990 3523.9924 82.5766 3549.3262
76.9186 -2.2057 -389.0141 3525.4927 82.6068 3550.8306
75.7872 -2.2298 -388.0293 3526.9929 82.6369 3552.3328
74.6559 -2.2530 -387.0442 3528.4932 82.6669 3553.8364
73.5246 -2.2755 -386.0591 3529.9934 82.6968 3555.3379
72.3934 -2.2975 -385.0741 3531.4934 82.7266 3556.8411
71.2622 -2.3191 -384.0889 3532.9937 82.7562 3558.3452
70.1311 -2.3402 -383.1037 3534.4939 82.7858 3559.8477
69.0000 -2.3609 -382.1184 3535.9941 82.8152 3561.3513
67.8689 -2.3810 -381.1331 3537.4944 82.8446 3562.8542
66.7377 -2.4005 -380.1478 3538.9946 82.8738 3564.3569
65.6066 -2.4190 -379.1625 3540.4949 82.9029 3565.8591
64.4756 -2.4367 -378.1772 3541.9949 82.9319 3567.3623
63.3445 -2.4533 -377.1920 3543.4951 82.9608 3568.8657
62.2134 -2.4690 -376.2065 3544.9954 82.9896 3570.3687
61.0824 -2.4836 -375.2211 3546.4956 83.0183 3571.8711
59.9514 -2.4973 -374.2357 3547.9958 83.0469 3573.3752
58.8203 -2.5102 -373.2502 3549.4961 83.0753 3574.8792
57.6892 -2.5223 -372.2646 3550.9963 83.1037 3576.3823
56.5582 -2.5341 -371.2792 3552.4963 83.1320 3577.8823
55.4272 -2.5455 -370.2935 3553.9966 83.1601 3579.3789
54.2962 -2.5565 -369.3080 3555.4968 83.1882 3580.8762
53.1653 -2.5675 -368.3223 3556.9971 83.2161 3582.3723
52.0344 -2.5783 -367.3366 3558.4973 83.2440 3583.8694
50.9036 -2.5887 -366.3508 3559.9976 83.2717 3585.3662
49.7728 -2.5987 -365.3650 3561.4978 83.2994 3586.8623
48.6420 -2.6081 -364.3792 3562.9978 83.3269 3588.3596
47.5112 -2.6169 -363.3932 3564.4980 83.3543 3589.8557
46.3804 -2.6248 -362.4073 3565.9983 83.3817 3591.3525
45.2497 -2.6319 -361.4212 3567.4985 83.4089 3592.8494
44.1190 -2.6383 -360.4352 3568.9988 83.4360 3594.3457
42.9884 -2.6439 -359.4490 3570.4990 83.4631 3595.8418
41.8578 -2.6490 -358.4630 3571.9993 83.4900 3597.3396
40.7273 -2.6534 -357.4767 3573.4993 83.5168 3598.8369
39.5967 -2.6574 -356.4907 3574.9995 83.5436 3600.3335
38.4661 -2.6607 -355.5045 3576.4998 83.5702 3601.8301
37.3354 -2.6634 -354.5184 3578.0000 83.5968 3603.3262
36.2049 -2.6654 -353.5323 3579.5002 83.6232 3604.8225
35.0742 -2.6666 -352.5461 3581.0005 83.6496 3606.3193
33.9437 -2.6669 -351.5598 3582.5007 83.6758 3607.8154
32.8132 -2.6663 -350.5737 3584.0007 83.7020 3609.3118
31.6827 -2.6650 -349.5876 3585.5010 83.7280 3610.8081
30.5521 -2.6629 -348.6015 3587.0012 83.7540 3612.3054
29.4215 -2.6602 -347.6153 3588.5015 83.7799 3613.8013
28.2909 -2.6569 -346.6292 3590.0017 83.8056 3615.2983
27.1604 -2.6532 -345.6431 3591.5020 83.8313 3616.7952
26.0298 -2.6491 -344.6569 3593.0022 83.8569 3618.2917
24.8992 -2.6444 -343.6707 3594.5022 83.8824 3619.7878
23.7687 -2.6392 -342.6846 3596.0024 83.9078 3621.2837
22.6382 -2.6334 -341.6984 3597.5027 83.9331 3622.7810
21.5077 -2.6268 -340.7123 3599.0029 83.9583 3624.2764
20.3771 -2.6195 -339.7261 3600.5032 83.9835 3625.7732
19.2465 -2.6115 -338.7400 3602.0034 84.0085 3627.2698
18.1159 -2.6028 -337.7538 3603.5037 84.0334 3628.7659
16.9855 -2.5935 -336.7677 3605.0037 84.0583 3630.2625
15.8550 -2.5835 -335.7815 3606.5039 84.0831 3631.7590
14.7244 -2.5730 -334.7952 3608.0042 84.1077 3633.2554
13.5939 -2.5619 -333.8090 3609.5044 84.1323 3634.7507
12.4635 -2.5502 -332.8228 3611.0046 84.1568 3636.2466
11.3329 -2.5380 -331.8367 3612.5049 84.1812 3637.7427
10.2025 -2.5252 -330.8506 3614.0051 84.2055 3639.2400
9.0719 -2.5117 -329.8645 3615.5051 84.2298 3640.7358
7.9415 -2.4977 -328.8783 3617.0054 84.2539 3642.2329
6.8110 -2.4831 -327.8921 3618.5056 84.2780 3643.7278
5.6805 -2.4680 -326.9059 3620.0059 84.3019 3645.2244
4.5500 -2.4523 -325.9198 3621.5061 84.3258 3646.7251
3.4196 -2.4360 -324.9337 3623.0063 84.3496 3648.2271
2.2891 -2.4191 -323.9476 3624.5066 84.3733 3649.7288
1.1586 -2.4015 -322.9616 3626.0066 84.3970 3651.2302
0.0281 -2.3833 -321.9755 3627.5068 84.4205 3652.7314
-1.1025 -2.3644 -320.9895 3629.0071 84.4440 3654.2322
-2.2330 -2.3449 -320.0036 3630.5073 84.4673 3655.7324
-3.3636 -2.3247 -319.0177 3632.0076 84.4906 3657.2336
-4.4942 -2.3039 -318.0318 3633.5078 84.5138 3658.7356
-5.6248 -2.2824 -317.0459 3635.0081 84.5370 3660.2361
-6.7554 -2.2603 -316.0602 3636.5081 84.5600 3661.7366
-7.8860 -2.2374 -315.0744 3638.0083 84.5830 3663.2375
-9.0167 -2.2139 -314.0887 3639.5085 84.6058 3664.7400
-10.1474 -2.1897 -313.1030 3641.0088 84.6286 3666.2407
-11.2782 -2.1651 -312.1174 3642.5090 84.6513 3667.7407
-12.4089 -2.1402 -311.1318 3644.0093 84.6740 3669.2424
-13.5398 -2.1151 -310.1463 3645.5095 84.6965 3670.7441
-14.6707 -2.0904 -309.1609 3647.0098 84.7190 3672.2456
-15.8015 -2.0657 -308.1755 3648.5098 84.7414 3673.7466
-16.9324 -2.0415 -307.1902 3650.0100 84.7637 3675.2471
-18.0634 -2.0174 -306.2049 3651.5103 84.7859 3676.7478
-19.1944 -1.9934 -305.2198 3653.0105 84.8081 3678.2498
-20.3256 -1.9694 -304.2347 3654.5107 84.8302 3679.7500
-21.4567 -1.9451 -303.2495 3656.0110 84.8521 3681.2517
-22.5878 -1.9208 -302.2645 3657.5112 84.8741 3682.7532
-23.7190 -1.8962 -301.2794 3659.0112 84.8959 3684.2544
-24.8502 -1.8716 -300.2945 3660.5115 84.9177 3685.7551
-25.9814 -1.8470 -299.3094 3662.0117 84.9393 3687.2568
-27.1127 -1.8223 -298.3244 3663.5120 84.9610 3688.7581
-28.2439 -1.7977 -297.3394 3665.0122 84.9825 3690.2595
-29.3750 -1.7731 -296.3544 3666.5125 85.0039 3691.7598
-30.5062 -1.7484 -295.3693 3668.0127 85.0253 3693.2607
-31.6372 -1.7237 -294.3842 3669.5127 85.0466 3694.7622
-32.7680 -1.6989 -293.3988 3671.0129 85.0678 3696.2632
-33.8989 -1.6740 -292.4131 3672.5132 85.0890 3697.7659
-35.0292 -1.6490 -291.4272 3674.0134 85.1101 3699.2666
-36.1594 -1.6241 -290.4408 3675.5137 85.1311 3700.7690
-37.2893 -1.5989 -289.4542 3677.0139 85.1520 3702.2690
-38.4189 -1.5737 -288.4673 3678.5142 85.1729 3703.7710
-39.5483 -1.5483 -287.4799 3680.0142 85.1936 3705.2727
-40.6775 -1.5228 -286.4925 3681.5144 85.2143 3706.7742
-41.8064 -1.4971 -285.5049 3683.0146 85.2350 3708.2754
-42.9351 -1.4712 -284.5170 3684.5149 85.2555 3709.7781
-44.0635 -1.4452 -283.5288 3686.0151 85.2760 3711.2786
-45.1917 -1.4189 -282.5403 3687.5154 85.2964 3712.7795
-46.3195 -1.3925 -281.5514 3689.0156 85.3168 3714.2820
-47.4471 -1.3659 -280.5622 3690.5156 85.3371 3715.7839
-48.5745 -1.3391 -279.5728 3692.0159 85.3573 3717.2856
-49.7017 -1.3121 -278.5833 3693.5161 85.3774 3718.7869
-50.8290 -1.2848 -277.5938 3695.0164 85.3975 3720.2881
-51.9562 -1.2572 -276.6042 3696.5166 85.4174 3721.7893
-53.0834 -1.2294 -275.6145 3698.0168 85.4374 3723.2915
-54.2106 -1.2015 -274.6249 3699.5171 85.4572 3724.7925
-55.3380 -1.1735 -273.6354 3701.0171 85.4770 3726.2944
-56.4654 -1.1455 -272.6461 3702.5173 85.4967 3727.7947
-57.5927 -1.1174 -271.6569 3704.0176 85.5163 3729.2961
-58.7203 -1.0896 -270.6679 3705.5178 85.5359 3730.7996
-59.8482 -1.0619 -269.6789 3707.0181 85.5554 3732.3052
-60.9761 -1.0341 -268.6901 3708.5183 85.5749 3733.8083
-62.1043 -1.0065 -267.7015 3710.0186 85.5942 3735.3135
-63.2325 -0.9789 -266.7132 3711.5186 85.6135 3736.8184
-64.3608 -0.9513 -265.7251 3713.0188 85.6328 3738.3228
-65.4894 -0.9236 -264.7371 3714.5190 85.6519 3739.8271
-66.6182 -0.8958 -263.7492 3716.0193 85.6710 3741.3315
-67.7470 -0.8679 -262.7614 3717.5195 85.6901 3742.8374
-68.8758 -0.8400 -261.7737 3719.0198 85.7090 3744.3416
-70.0049 -0.8120 -260.7861 3720.5200 85.7279 3745.8464
-71.1340 -0.7840 -259.7985 3722.0200 85.7468 3747.3506
-72.2632 -0.7562 -258.8111 3723.5203 85.7655 3748.8560
-73.3925 -0.7285 -257.8238 3725.0205 85.7842 3750.3608
-74.5218 -0.7009 -256.8366 3726.5208 85.8029 3751.8655
-75.6512 -0.6738 -255.8495 3728.0210 85.8214 3753.3711
-76.7807 -0.6470 -254.8627 3729.5212 85.8400 3754.8760
-77.9104 -0.6206 -253.8759 3731.0215 85.8584 3756.3799
-79.0403 -0.5944 -252.8892 3732.5215 85.8768 3757.8853
-80.1703 -0.5686 -251.9028 3734.0217 85.8951 3759.3909
-81.3004 -0.5430 -250.9166 3735.5220 85.9134 3760.8962
-82.4306 -0.5178 -249.9306 3737.0222 85.9315 3762.4014
-83.5612 -0.4928 -248.9447 3738.5225 85.9497 3763.9062
-84.6919 -0.4682 -247.9589 3740.0227 85.9677 3765.4111
-85.8226 -0.4439 -246.9733 3741.5229 85.9857 3766.9158
-86.9535 -0.4200 -245.9880 3743.0229 86.0037 3768.4199
-88.0848 -0.3965 -245.0027 3744.5232 86.0216 3769.9263
-89.2160 -0.3733 -244.0176 3746.0234 86.0394 3771.4304
-90.3475 -0.3504 -243.0328 3747.5237 86.0571 3772.9360
-91.4790 -0.3279 -242.0480 3749.0239 86.0748 3774.4397
-92.6106 -0.3057 -241.0635 3750.5242 86.0925 3775.9451
-93.7426 -0.2839 -240.0791 3752.0244 86.1100 3777.4502
-94.8745 -0.2624 -239.0947 3753.5244 86.1275 3778.9553
-96.0066 -0.2414 -238.1105 3755.0247 86.1450 3780.4600
-97.1386 -0.2207 -237.1265 3756.5249 86.1624 3781.9651
-98.2708 -0.2003 -236.1425 3758.0251 86.1797 3783.4705
-99.4031 -0.1801 -235.1585 3759.5254 86.1970 3784.9756
-100.5354 -0.1600 -234.1745 3761.0256 86.2142 3786.4817
-101.6677 -0.1399 -233.1908 3762.5259 86.2313 3787.9873
-102.8001 -0.1199 -232.2070 3764.0259 86.2484 3789.4927
-103.9328 -0.0997 -231.2233 3765.5261 86.2655 3790.9983
-105.0654 -0.0796 -230.2397 3767.0264 86.0559 3792.5032
-106.1983 -0.0596 -229.2562 3768.5266 85.6465 3794.0083
-107.3312 -0.0398 -228.2730 3770.0269 85.2352 3795.5144
-108.4642 -0.0204 -227.2899 3771.5271 84.8220 3797.0210
-109.5973 -0.0013 -226.3070 3773.0273 84.4070 3798.5256
-110.7305 0.0174 -225.3242 3774.5273 83.9899 3800.0315
-111.8640 0.0355 -224.3414 3776.0276 83.5709 3801.5376
-112.9976 0.0533 -223.3588 3777.5278 83.1506 3803.0415
-114.1313 0.0706 -222.3764 3779.0281 82.7288 3804.5410
-115.2650 0.0878 -221.3941 3780.5283 82.3057 3806.0403
-116.3989 0.1046 -220.4118 3782.0286 81.8811 3807.5415
-117.5329 0.1213 -219.4296 3783.5288 81.4551 3809.0425
-118.6668 0.1378 -218.4476 3785.0291 81.0276 3810.5413
-119.8007 0.1541 -217.4655 3786.5291 80.5987 3812.0417
-120.9348 0.1703 -216.4834 3788.0293 80.1682 3813.5420
-122.0688 0.1862 -215.5013 3789.5295 79.7363 3815.0422
-123.2028 0.2020 -214.5193 3791.0298 79.3027 3816.5422
-124.3368 0.2176 -213.5373 3792.5300 78.8676 3818.0422
-125.4709 0.2331 -212.5553 3794.0303 78.4309 3819.5420
-126.6050 0.2485 -211.5733 3795.5305 77.9926 3821.0415
-127.7391 0.2638 -210.5912 3797.0305 77.5527 3822.5420
-128.8732 0.2792 -209.6092 3798.5308 77.1111 3824.0420
-130.0074 0.2945 -208.6273 3800.0310 76.6678 3825.5425
-131.1415 0.3097 -207.6454 3801.5312 76.2228 3827.0420
-132.2758 0.3247 -206.6635 3803.0315 75.7760 3828.5410
-133.4099 0.3395 -205.6818 3804.5317 75.3275 3830.0425
-134.5441 0.3541 -204.7000 3806.0320 74.8772 3831.5427
-135.6782 0.3686 -203.7182 3807.5320 74.4250 3833.0410
-136.8126 0.3830 -202.7364 3809.0322 73.9710 3834.5420
-137.9467 0.3973 -201.7547 3810.5325 73.5151 3836.0413
-139.0809 0.4115 -200.7729 3812.0327 73.0572 3837.5422
-140.2152 0.4255 -199.7911 3813.5330 72.5975 3839.0420
-141.3494 0.4391 -198.8092 3815.0332 72.1357 3840.5422
-142.4837 0.4522 -197.8274 3816.5334 71.6719 3842.0425
-143.6178 0.4648 -196.8455 3818.0334 71.2060 3843.5415
-144.7521 0.4768 -195.8636 3819.5337 70.7381 3845.0422
-145.8862 0.4882 -194.8817 3821.0339 70.2680 3846.5413
-147.0203 0.4990 -193.8998 3822.5342 69.7958 3848.0422
-148.1544 0.5094 -192.9179 3824.0344 69.3213 3849.5413
-149.2884 0.5194 -191.9359 3825.5347 68.8446 3851.0420
-150.4225 0.5290 -190.9538 3827.0349 68.3656 3852.5422
-151.5565 0.5384 -189.9716 3828.5349 67.8843 3854.0420
-152.6905 0.5476 -188.9893 3830.0352 67.4006 3855.5415
-153.8243 0.5567 -188.0070 3831.5354 66.9145 3857.0413
-154.9581 0.5657 -187.0247 3833.0356 66.4259 3858.5408
-156.0919 0.5745 -186.0422 3834.5359 65.9347 3860.0405
-157.2254 0.5830 -185.0596 3836.0361 65.4410 3861.5405
-158.3588 0.5915 -184.0768 3837.5364 64.9447 3863.0305
-159.4921 0.5998 -183.0937 3839.0364 64.4457 3864.5203
-160.6251 0.6082 -182.1104 3840.5366 63.9439 3866.0107
-161.7578 0.6165 -181.1268 3842.0369 63.4394 3867.5022
-162.8904 0.6251 -180.1429 3843.5371 62.9320 3868.9915
-164.0226 0.6337 -179.1589 3845.0374 62.4216 3870.4819
-165.1546 0.6423 -178.1747 3846.5376 61.9083 3871.9724
-166.2867 0.6509 -177.1904 3848.0378 61.3920 3873.4634
-167.4186 0.6594 -176.2059 3849.5378 60.8725 3874.9541
-168.5506 0.6678 -175.2213 3851.0381 60.3498 3876.4446
-169.6823 0.6763 -174.2366 3852.5383 59.8238 3877.9365
-170.8139 0.6847 -173.2515 3854.0386 59.2945 3879.4277
-171.9451 0.6933 -172.2663 3855.5388 58.7617 3880.9180
-173.0759 0.7016 -171.2806 3857.0391 58.2255 3882.4084
-174.2062 0.7100 -170.2944 3858.5393 57.6856 3883.8997
-175.3361 0.7181 -169.3075 3860.0393 57.1420 3885.3921
-176.4653 0.7258 -168.3199 3861.5396 56.5946 3886.8821
-177.5938 0.7330 -167.3315 3863.0398 56.0433 3888.3730
-178.7215 0.7396 -166.3420 3864.5400 55.4881 3889.8801
-179.8477 0.7457 -165.3511 3866.0403 54.9286 3891.3940
-180.9725 0.7510 -164.3587 3867.5405 54.3650 3892.9070
-182.0959 0.7559 -163.3644 3869.0408 53.7970 3894.4221
-183.2174 0.7602 -162.3682 3870.5408 53.2246 3895.9338
-184.3369 0.7639 -161.3697 3872.0410 52.6475 3897.4480
-185.4539 0.7670 -160.3682 3873.5413 52.0656 3898.9600
-186.5676 0.7695 -159.3632 3875.0415 51.4789 3900.4729
-187.6772 0.7713 -158.3536 3876.5417 50.8871 3901.9851
-188.7821 0.7723 -157.3387 3878.0420 50.2900 3903.4966
-189.8813 0.7726 -156.3176 3879.5422 49.6876 3905.0068
-190.9742 0.7723 -155.2899 3881.0422 49.0796 3906.5166
-192.0600 0.7716 -154.2546 3882.5425 48.4659 3908.0249
-193.1377 0.7707 -153.2108 3884.0427 47.8461 3909.5259
-194.2062 0.7698 -152.1578 3885.5430 47.2202 3911.0115
-195.2648 0.7688 -151.0948 3887.0432 46.5878 3912.4958
-196.3127 0.7677 -150.0213 3888.5435 45.9488 3913.9785
-197.3492 0.7663 -148.9368 3890.0437 45.3033 3915.4597
-198.3735 0.7645 -147.8407 3891.5437 44.6557 3916.9402
-199.3847 0.7623 -146.7323 3893.0439 44.0061 3918.4170
-200.3818 0.7596 -145.6114 3894.5442 43.3543 3919.8940
-201.3639 0.7566 -144.4774 3896.0444 42.7002 3921.3672
-202.3306 0.7530 -143.3302 3897.5447 42.8685 3922.8379
-203.2814 0.7491 -142.1698 3899.0449 42.5595 3924.3047
-204.2158 0.7447 -140.9961 3900.5452 42.0857 3925.7671
-205.1333 0.7399 -139.8094 3902.0452 41.4271 3927.2253
-206.0337 0.7346 -138.6091 3903.5454 40.7660 3928.6819
-206.9159 0.7287 -137.3956 3905.0457 40.1024 3930.1370
-207.7795 0.7222 -136.1689 3906.5459 39.4360 3931.5913
-208.6240 0.7148 -134.9290 3908.0461 39.8037 3933.0449
-209.4489 0.7068 -133.6761 3909.5464 40.0883 3934.4944
-210.2542 0.6982 -132.4105 3911.0466 40.3018 3935.9453
-211.0400 0.6887 -131.1326 3912.5469 40.5877 3937.4126
-211.8062 0.6785 -129.8429 3914.0469 40.6135 3938.8962
-212.5529 0.6673 -128.5417 3915.5471 40.7968 3940.3906
-213.2799 0.6553 -127.2295 3917.0474 40.8589 3941.8999
-213.9868 0.6427 -125.9063 3918.5476 40.2751 3943.4231
-214.6731 0.6300 -124.5724 3920.0479 39.6095 3944.9651
-215.3379 0.6178 -123.2276 3921.5481 39.0519 3946.5229
-215.9809 0.6066 -121.8724 3923.0483 38.3812 3948.1626
-216.6015 0.5967 -120.5066 3924.5483 38.6095 3949.9011
-217.1994 0.5884 -119.1308 3926.0486 38.5637 3951.6465
-217.7748 0.5819 -117.7452 3927.5488 37.9227 3953.4043
-218.3275 0.5768 -116.3506 3929.0491 38.3159 3955.1785
-218.8580 0.5729 -114.9474 3930.5493 38.7023 3956.9761
-219.3669 0.5698 -113.5361 3932.0496 39.0821 3958.7815
-219.8546 0.5665 -112.1174 3933.5498 39.4555 3960.5669
-220.3213 0.5629 -110.6918 3935.0498 39.8228 3962.3379
-220.7671 0.5583 -109.2593 3936.5500 40.1843 3964.0969
-221.1918 0.5529 -107.8205 3938.0503 39.8233 3965.8435
-221.5945 0.5473 -106.3754 3939.5505 39.1558 3967.4089
-221.9748 0.5424 -104.9240 3941.0508 38.4855 3968.9492
-222.3317 0.5389 -103.4670 3942.5510 38.8690 3970.4751
-222.6655 0.5372 -102.0044 3944.0513 39.2460 3971.9946
-222.9763 0.5377 -100.5367 3945.5513 39.6168 3973.5051
-223.2647 0.5399 -99.0647 3947.0515 39.9815 3975.0105
-223.5313 0.5433 -97.5884 3948.5518 40.3404 3976.5073
-223.7766 0.5475 -96.1083 3950.0520 40.6936 3977.9861
-224.0007 0.5522 -94.6250 3951.5522 41.0414 3979.4622
-224.2037 0.5570 -93.1386 3953.0525 41.3840 3980.9390
-224.3860 0.5617 -91.6496 3954.5527 41.7214 3982.4165
-224.5483 0.5659 -90.1582 3956.0527 42.0539 3983.8962
-224.6912 0.5692 -88.6648 3957.5530 42.3815 3985.3782
-224.8155 0.5713 -87.1699 3959.0532 42.7045 3986.8596
-224.9220 0.5716 -85.6733 3960.5535 43.0230 3988.3435
-225.0111 0.5701 -84.1757 3962.0537 43.3371 3989.8271
