VERSION 0.7
FIELDS x y z arclength lapdistance speed
SIZE 4 4 4 4 4 4
TYPE F F F F F F
COUNT 1 1 1 1 1 1
WIDTH 869
HEIGHT 1
VIEWPOINT 0.000 0.000 0.000 1.000 0.000 0.000 0.000
POINTS 869
DATA ascii
-672.3989 2.5346 -281.7492 976.1662 981.2436 72.9288
-672.9319 2.5340 -282.5956 977.1664 982.2474 72.5710
-673.4637 2.5335 -283.4426 978.1666 983.2513 72.2120
-673.9944 2.5331 -284.2904 979.1667 984.2552 71.8517
-674.5237 2.5328 -285.1389 980.1669 985.2592 71.4903
-675.0521 2.5326 -285.9882 981.1671 986.2632 71.1276
-675.5795 2.5325 -286.8380 982.1672 987.2673 70.7636
-676.1058 2.5326 -287.6885 983.1674 988.2714 70.3984
-676.6313 2.5327 -288.5395 984.1675 989.2755 70.0318
-677.1561 2.5329 -289.3909 985.1677 990.2796 69.6639
-677.6803 2.5333 -290.2428 986.1679 991.2839 69.2947
-678.2039 2.5338 -291.0949 987.1681 992.2881 68.9241
-678.7271 2.5344 -291.9473 988.1683 993.2925 68.5521
-679.2500 2.5351 -292.7999 989.1684 994.2969 68.1787
-679.7726 2.5359 -293.6527 990.1686 995.3013 67.8039
-680.2950 2.5369 -294.5056 991.1688 996.3058 67.4277
-680.8175 2.5380 -295.3584 992.1689 997.3103 67.0500
-681.3399 2.5392 -296.2113 993.1691 998.3149 66.6708
-681.8624 2.5405 -297.0642 994.1693 999.3195 66.2901
-682.3848 2.5420 -297.9171 995.1694 1000.3242 65.9079
-682.9073 2.5437 -298.7699 996.1696 1001.3290 65.5241
-683.4298 2.5454 -299.6228 997.1698 1002.3338 65.1387
-683.9523 2.5473 -300.4756 998.1699 1003.3386 64.7517
-684.4749 2.5493 -301.3284 999.1701 1004.3436 64.3631
-684.9974 2.5515 -302.1812 1000.1703 1005.3486 63.9728
-685.5200 2.5538 -303.0340 1001.1705 1006.3536 63.5809
-686.0427 2.5561 -303.8867 1002.1707 1007.3586 63.1872
-686.5654 2.5586 -304.7394 1003.1708 1008.3636 62.7917
-687.0882 2.5611 -305.5921 1004.1710 1009.3684 62.3945
-687.6109 2.5637 -306.4448 1005.1711 1010.3730 61.9955
-688.1334 2.5663 -307.2977 1006.1713 1011.3775 61.5947
-688.6553 2.5688 -308.1508 1007.1715 1012.3818 61.1919
-689.1764 2.5712 -309.0045 1008.1716 1013.3859 60.7873
-689.6960 2.5735 -309.8591 1009.1718 1014.3900 60.3807
-690.2136 2.5756 -310.7149 1010.1720 1015.3939 59.9722
-690.7286 2.5775 -311.5723 1011.1722 1016.3979 59.5616
-691.2405 2.5794 -312.4316 1012.1724 1017.4019 59.1490
-691.7490 2.5812 -313.2928 1013.1725 1018.4058 58.7343
-692.2540 2.5831 -314.1562 1014.1727 1019.4099 58.3175
-692.7553 2.5851 -315.0217 1015.1729 1020.4138 57.8985
-693.2530 2.5872 -315.8892 1016.1730 1021.4177 57.4773
-693.7470 2.5895 -316.7589 1017.1732 1022.4216 57.0538
-694.2374 2.5919 -317.6305 1018.1733 1023.4254 56.6280
-694.7243 2.5944 -318.5042 1019.1735 1024.4292 56.1999
-695.2076 2.5970 -319.3799 1020.1737 1025.4329 55.7693
-695.6873 2.5994 -320.2575 1021.1739 1026.4366 55.3364
-696.1633 2.6019 -321.1371 1022.1740 1027.4402 54.9009
-696.6357 2.6042 -322.0186 1023.1742 1028.4437 54.4628
-697.1045 2.6064 -322.9022 1024.1744 1029.4473 54.0221
-697.5695 2.6084 -323.7878 1025.1746 1030.4507 53.5788
-698.0307 2.6103 -324.6753 1026.1747 1031.4540 53.1327
-698.4882 2.6121 -325.5647 1027.1749 1032.4573 52.6838
-698.9420 2.6137 -326.4560 1028.1750 1033.4604 52.2320
-699.3922 2.6152 -327.3490 1029.1752 1034.4634 51.7773
-699.8392 2.6166 -328.2438 1030.1754 1035.4663 51.3196
-700.2831 2.6178 -329.1400 1031.1755 1036.4691 50.8588
-700.7245 2.6190 -330.0375 1032.1758 1037.4719 50.3949
-701.1641 2.6201 -330.9360 1033.1759 1038.4747 49.9277
-701.6023 2.6211 -331.8350 1034.1760 1039.4775 49.4572
-702.0399 2.6220 -332.7344 1035.1763 1040.4803 48.9832
-702.4774 2.6229 -333.6338 1036.1764 1041.4833 48.5058
-702.9150 2.6238 -334.5331 1037.1766 1042.4863 48.0247
-703.3533 2.6246 -335.4322 1038.1768 1043.4895 47.5400
-703.7925 2.6254 -336.3307 1039.1769 1044.4928 47.0515
-704.2333 2.6263 -337.2285 1040.1771 1045.4963 46.5590
-704.6760 2.6272 -338.1254 1041.1772 1046.5000 46.0625
-705.1208 2.6281 -339.0212 1042.1775 1047.5038 45.5618
-705.5681 2.6290 -339.9157 1043.1776 1048.5078 45.0596
-706.0176 2.6300 -340.8092 1044.1777 1049.5121 44.5561
-706.4693 2.6311 -341.7015 1045.1780 1050.5165 44.0514
-706.9227 2.6321 -342.5930 1046.1781 1051.5211 43.5454
-707.3774 2.6331 -343.4839 1047.1783 1052.5258 43.0380
-707.8328 2.6342 -344.3744 1048.1785 1053.5305 42.5293
-708.2889 2.6352 -345.2646 1049.1786 1054.5352 42.0192
-708.7454 2.6362 -346.1545 1050.1788 1055.5394 41.5076
-709.2025 2.6372 -347.0441 1051.1790 1056.5433 40.9946
-709.6604 2.6381 -347.9333 1052.1792 1057.5464 40.4801
-710.1193 2.6391 -348.8221 1053.1793 1058.5485 39.9639
-710.5792 2.6401 -349.7103 1054.1794 1059.5499 39.4462
-711.0399 2.6410 -350.5980 1055.1797 1060.5507 38.9268
-711.5012 2.6420 -351.4855 1056.1798 1061.5511 38.4057
-711.9628 2.6430 -352.3727 1057.1801 1062.5514 37.8829
-712.4247 2.6442 -353.2599 1058.1802 1063.5516 37.3582
-712.8867 2.6456 -354.1469 1059.1803 1064.5519 36.8317
-713.3488 2.6472 -355.0339 1060.1805 1065.5520 36.3032
-713.8108 2.6490 -355.9210 1061.1807 1066.5524 35.7727
-714.2728 2.6510 -356.8081 1062.1809 1067.5527 35.2401
-714.7347 2.6531 -357.6952 1063.1810 1068.5531 34.7054
-715.1963 2.6554 -358.5825 1064.1812 1069.5535 34.1685
-715.6571 2.6577 -359.4702 1065.1814 1070.5538 33.6293
-716.1165 2.6600 -360.3586 1066.1815 1071.5541 33.0877
-716.5737 2.6622 -361.2482 1067.1816 1072.5544 32.5437
-717.0279 2.6643 -362.1393 1068.1819 1073.5547 31.9970
-717.4789 2.6663 -363.0320 1069.1820 1074.5548 31.4477
-717.9268 2.6683 -363.9263 1070.1823 1075.5548 30.8957
-718.3721 2.6701 -364.8218 1071.1824 1076.5547 30.3407
-718.8152 2.6719 -365.7184 1072.1825 1077.5546 29.7827
-719.2566 2.6737 -366.6160 1073.1827 1078.5544 29.2216
-719.6965 2.6754 -367.5142 1074.1829 1079.5547 28.6571
-720.1353 2.6770 -368.4130 1075.1831 1080.5553 28.0893
-720.5732 2.6787 -369.3122 1076.1832 1081.5569 27.5178
-721.0109 2.6803 -370.2115 1077.1833 1082.5593 26.9425
-721.4489 2.6820 -371.1107 1078.1836 1083.5625 26.3633
-721.8881 2.6836 -372.0094 1079.1837 1084.5664 25.7799
-722.3286 2.6853 -372.9073 1080.1840 1085.5707 25.1920
-722.7704 2.6871 -373.8046 1081.1841 1086.5746 24.5996
-723.2128 2.6888 -374.7016 1082.1842 1087.5778 24.0022
-723.6537 2.6904 -375.5992 1083.1844 1088.5802 23.3995
-724.0909 2.6918 -376.4988 1084.1846 1089.5796 22.7914
-724.5208 2.6931 -377.4019 1085.1848 1090.5741 22.1773
-724.9395 2.6941 -378.3102 1086.1849 1091.5670 21.5570
-725.3427 2.6950 -379.2255 1087.1851 1092.5603 20.9299
-725.7267 2.6957 -380.1490 1088.1853 1093.5543 20.2955
-726.0881 2.6965 -381.0816 1089.1854 1094.5562 19.6534
-726.4250 2.6974 -382.0233 1090.1857 1095.5916 19.0029
-726.7368 2.6987 -382.9736 1091.1858 1096.6626 18.3433
-727.0216 2.7004 -383.9323 1092.1859 1097.8403 17.6737
-727.2763 2.7025 -384.8995 1093.1862 1099.1316 16.9932
-727.4940 2.7048 -385.8756 1094.1863 1100.5580 16.2913
-727.6658 2.7075 -386.8607 1095.1865 1102.0354 15.5618
-727.7849 2.7108 -387.8537 1096.1866 1103.5337 16.0799
-727.8523 2.7143 -388.8515 1097.1868 1105.0321 15.9874
-727.8688 2.7176 -389.8515 1098.1870 1106.5338 15.2452
-727.8306 2.7207 -390.8507 1099.1871 1108.0635 14.4695
-727.7297 2.7233 -391.8456 1100.1874 1109.6414 13.7185
-727.5592 2.7250 -392.8309 1101.1875 1111.2853 13.0131
-727.3132 2.7257 -393.8000 1102.1876 1112.9945 12.6831
-726.9893 2.7262 -394.7459 1103.1879 1114.7112 12.8202
-726.5911 2.7269 -395.6631 1104.1880 1116.4023 13.2797
-726.1256 2.7274 -396.5481 1105.1882 1118.0334 13.6269
-725.5981 2.7279 -397.3976 1106.1884 1119.6298 13.6863
-725.0118 2.7289 -398.2077 1107.1885 1121.2213 13.4302
-724.3680 2.7301 -398.9729 1108.1887 1122.8196 12.9963
-723.6668 2.7307 -399.6856 1109.1888 1124.4281 12.7341
-722.9108 2.7307 -400.3400 1110.1890 1125.9989 13.1193
-722.1086 2.7310 -400.9369 1111.1892 1127.4546 14.0176
-721.2738 2.7319 -401.4879 1112.1893 1128.7603 14.8614
-720.4152 2.7331 -402.0009 1113.1896 1129.9750 15.6595
-719.5368 2.7345 -402.4790 1114.1897 1131.1329 16.4187
-718.6407 2.7361 -402.9231 1115.1898 1132.2673 17.1440
-717.7305 2.7381 -403.3376 1116.1901 1133.3899 17.8397
-716.8124 2.7405 -403.7345 1117.1902 1134.5089 18.5091
-715.8914 2.7434 -404.1241 1118.1904 1135.6265 19.1549
-714.9700 2.7465 -404.5131 1119.1906 1136.7419 19.7795
-714.0493 2.7497 -404.9038 1120.1907 1137.8533 20.3848
-713.1292 2.7530 -405.2958 1121.1909 1138.9552 20.9725
-712.2094 2.7561 -405.6886 1122.1910 1140.0393 21.5440
-711.2896 2.7592 -406.0814 1123.1913 1141.1053 22.1007
-710.3696 2.7620 -406.4738 1124.1914 1142.1500 22.6435
-709.4492 2.7647 -406.8653 1125.1915 1143.1825 23.1736
-708.5283 2.7672 -407.2554 1126.1918 1144.2026 23.6916
-707.6066 2.7694 -407.6437 1127.1919 1145.2167 24.1985
-706.6840 2.7714 -408.0299 1128.1921 1146.2285 24.6948
-705.7599 2.7732 -408.4126 1129.1923 1147.2386 25.1813
-704.8333 2.7746 -408.7892 1130.1924 1148.2498 25.6585
-703.9030 2.7757 -409.1567 1131.1926 1149.2623 26.1269
-702.9680 2.7764 -409.5117 1132.1927 1150.2766 26.5869
-702.0275 2.7768 -409.8518 1133.1930 1151.2927 27.0390
-701.0814 2.7767 -410.1763 1134.1931 1152.3110 27.4836
-700.1300 2.7763 -410.4847 1135.1932 1153.3302 27.9211
-699.1734 2.7755 -410.7766 1136.1935 1154.3497 28.3517
-698.2117 2.7743 -411.0512 1137.1936 1155.3696 28.7758
-697.2449 2.7727 -411.3073 1138.1938 1156.3892 29.1937
-696.2734 2.7707 -411.5447 1139.1940 1157.4061 29.6056
-695.2979 2.7686 -411.7652 1140.1941 1158.4202 30.0118
-694.3193 2.7664 -411.9721 1141.1943 1159.4298 30.4125
-693.3389 2.7644 -412.1704 1142.1945 1160.4348 30.8080
-692.3577 2.7629 -412.3642 1143.1947 1161.4377 31.1983
-691.3762 2.7621 -412.5562 1144.1948 1162.4385 31.5838
-690.3945 2.7622 -412.7479 1145.1949 1163.4386 31.9646
-689.4129 2.7630 -412.9396 1146.1952 1164.4385 32.3408
-688.4313 2.7646 -413.1312 1147.1953 1165.4382 32.7126
-687.4496 2.7667 -413.3226 1148.1954 1166.4382 33.0802
-686.4679 2.7692 -413.5139 1149.1957 1167.4385 33.4437
-685.4861 2.7721 -413.7051 1150.1958 1168.4388 33.8033
-684.5045 2.7751 -413.8963 1151.1960 1169.4392 34.1590
-683.5228 2.7781 -414.0876 1152.1962 1170.4397 34.5110
-682.5411 2.7811 -414.2791 1153.1963 1171.4402 34.8594
-681.5595 2.7841 -414.4709 1154.1965 1172.4407 35.2043
-680.5779 2.7869 -414.6628 1155.1967 1173.4413 35.5458
-679.5964 2.7898 -414.8549 1156.1969 1174.4418 35.8840
-678.6149 2.7928 -415.0474 1157.1970 1175.4423 36.2191
-677.6335 2.7958 -415.2402 1158.1971 1176.4427 36.5497
-676.6523 2.7989 -415.4336 1159.1974 1177.4432 36.8754
-675.6710 2.8021 -415.6274 1160.1975 1178.4438 37.1963
-674.6899 2.8055 -415.8216 1161.1978 1179.4443 37.5127
-673.7088 2.8090 -416.0161 1162.1979 1180.4448 37.8245
-672.7277 2.8127 -416.2107 1163.1980 1181.4454 38.1321
-671.7466 2.8165 -416.4054 1164.1982 1182.4459 38.4354
-670.7656 2.8205 -416.6003 1165.1984 1183.4465 38.7347
-669.7846 2.8246 -416.7953 1166.1986 1184.4470 39.0300
-668.8037 2.8288 -416.9907 1167.1987 1185.4475 39.3214
-667.8228 2.8330 -417.1860 1168.1989 1186.4481 39.6091
-666.8418 2.8373 -417.3811 1169.1991 1187.4487 39.8932
-665.8607 2.8416 -417.5756 1170.1992 1188.4493 40.1737
-664.8794 2.8457 -417.7691 1171.1995 1189.4500 40.4508
-663.8978 2.8498 -417.9610 1172.1996 1190.4507 40.7245
-662.9159 2.8537 -418.1511 1173.1997 1191.4512 40.9949
-661.9336 2.8574 -418.3393 1174.2000 1192.4515 41.2621
-660.9509 2.8610 -418.5256 1175.2001 1193.4517 41.5262
-659.9679 2.8645 -418.7101 1176.2003 1194.4513 41.7872
-658.9846 2.8678 -418.8931 1177.2004 1195.4504 42.0453
-658.0010 2.8710 -419.0748 1178.2006 1196.4487 42.3005
-657.0173 2.8741 -419.2556 1179.2008 1197.4467 42.5528
-656.0335 2.8772 -419.4358 1180.2009 1198.4441 42.8024
-655.0497 2.8801 -419.6158 1181.2012 1199.4414 43.0493
-654.0659 2.8829 -419.7962 1182.2013 1200.4386 43.2935
-653.0822 2.8853 -419.9770 1183.2014 1201.4358 43.5351
-652.0986 2.8874 -420.1584 1184.2017 1202.4330 43.7742
-651.1151 2.8890 -420.3405 1185.2018 1203.4302 44.0108
-650.1317 2.8900 -420.5230 1186.2020 1204.4274 44.2450
-649.1484 2.8903 -420.7059 1187.2021 1205.4246 44.4768
-648.1652 2.8899 -420.8891 1188.2023 1206.4218 44.7063
-647.1820 2.8889 -421.0725 1189.2025 1207.4189 44.5078
-646.1988 2.8875 -421.2561 1190.2026 1208.4161 44.0030
-645.2156 2.8858 -421.4398 1191.2028 1209.4133 43.4968
-644.2325 2.8837 -421.6238 1192.2030 1210.4105 42.9893
-643.2495 2.8814 -421.8082 1193.2031 1211.4076 42.4805
-642.2666 2.8789 -421.9932 1194.2034 1212.4047 41.9702
-641.2838 2.8761 -422.1789 1195.2035 1213.4017 41.4585
-640.3012 2.8732 -422.3657 1196.2036 1214.3988 40.9454
-639.3190 2.8702 -422.5540 1197.2039 1215.3959 40.4307
-638.3371 2.8671 -422.7445 1198.2040 1216.3929 39.9144
-637.3557 2.8641 -422.9374 1199.2042 1217.3901 39.3965
-636.3748 2.8611 -423.1331 1200.2043 1218.3873 38.8770
-635.3946 2.8582 -423.3317 1201.2045 1219.3848 38.3557
-634.4150 2.8554 -423.5334 1202.2047 1220.3826 37.8327
-633.4361 2.8527 -423.7386 1203.2048 1221.3810 37.3078
-632.4580 2.8500 -423.9478 1204.2051 1222.3800 36.7811
-631.4811 2.8473 -424.1619 1205.2052 1223.3799 36.2524
-630.5054 2.8443 -424.3819 1206.2053 1224.3795 35.7217
-629.5314 2.8410 -424.6089 1207.2056 1225.3783 35.1890
-628.5591 2.8373 -424.8437 1208.2057 1226.3759 34.6541
-627.5891 2.8333 -425.0873 1209.2059 1227.3652 34.1170
-626.6216 2.8290 -425.3406 1210.2061 1228.3478 33.5775
-625.6569 2.8246 -425.6047 1211.2062 1229.3152 33.0357
-624.6956 2.8202 -425.8808 1212.2064 1230.2666 32.4914
-623.7381 2.8157 -426.1700 1213.2065 1231.2051 31.9445
-622.7850 2.8113 -426.4730 1214.2068 1232.1293 31.3950
-621.8365 2.8072 -426.7904 1215.2069 1233.0461 30.8426
-620.8930 2.8034 -427.1224 1216.2070 1233.9573 30.2874
-619.9548 2.8002 -427.4690 1217.2073 1234.8632 29.7291
-619.0222 2.7976 -427.8300 1218.2074 1235.7688 29.1676
-618.0951 2.7957 -428.2053 1219.2076 1236.6737 28.6029
-617.1738 2.7946 -428.5947 1220.2078 1237.5784 28.0347
-616.2586 2.7942 -428.9981 1221.2079 1238.4841 27.4628
-615.3495 2.7944 -429.4153 1222.2081 1239.3929 26.8872
-614.4470 2.7951 -429.8463 1223.2083 1240.3040 26.3076
-613.5514 2.7962 -430.2914 1224.2085 1241.2192 25.7237
-612.6632 2.7975 -430.7511 1225.2086 1242.1393 25.1355
-611.7831 2.7989 -431.2263 1226.2087 1243.0634 24.5425
-610.9122 2.8003 -431.7181 1227.2090 1243.9939 23.9446
-610.0517 2.8017 -432.2278 1228.2091 1244.9294 23.3415
-609.2031 2.8031 -432.7570 1229.2092 1245.8654 22.7328
-608.3682 2.8045 -433.3077 1230.2095 1246.8005 22.1182
-607.5492 2.8060 -433.8818 1231.2096 1247.7351 21.4972
-606.7485 2.8076 -434.4810 1232.2098 1248.6658 21.1300
-605.9672 2.8093 -435.1055 1233.2100 1249.5858 21.2382
-605.2062 2.8112 -435.7544 1234.2101 1250.4991 21.8027
-604.4646 2.8134 -436.4255 1235.2103 1251.4066 22.3529
-603.7407 2.8159 -437.1157 1236.2104 1252.3064 22.8897
-603.0329 2.8187 -437.8223 1237.2107 1253.2035 23.4141
-602.3403 2.8221 -438.5439 1238.2108 1254.0999 23.6697
-601.6629 2.8259 -439.2797 1239.2109 1254.9951 23.0640
-601.0026 2.8302 -440.0308 1240.2112 1255.8905 22.4526
-600.3618 2.8349 -440.7986 1241.2113 1256.7889 21.8351
-599.7433 2.8398 -441.5846 1242.2115 1257.6924 21.2111
-599.1500 2.8448 -442.3896 1243.2117 1258.6000 21.3114
-598.5823 2.8498 -443.2130 1244.2118 1259.5133 21.8741
-598.0393 2.8548 -444.0529 1245.2120 1260.4335 22.4224
-597.5193 2.8596 -444.9072 1246.2122 1261.3558 22.9576
-597.0195 2.8645 -445.7735 1247.2124 1262.2777 23.4805
-596.5376 2.8694 -446.6499 1248.2125 1263.1989 23.9918
-596.0722 2.8744 -447.5352 1249.2126 1264.1189 24.4924
-595.6224 2.8797 -448.4285 1250.2129 1265.0316 24.9829
-595.1889 2.8852 -449.3298 1251.2130 1265.9360 25.4638
-594.7724 2.8911 -450.2391 1252.2133 1266.8351 25.9358
-594.3740 2.8972 -451.1565 1253.2134 1267.7274 26.3992
-593.9951 2.9034 -452.0821 1254.2135 1268.6136 26.4498
-593.6365 2.9097 -453.0157 1255.2137 1269.4971 25.8670
-593.2993 2.9161 -453.9573 1256.2139 1270.3763 25.2798
-592.9843 2.9226 -454.9066 1257.2141 1271.2542 24.6880
-592.6924 2.9291 -455.8632 1258.2142 1272.1322 24.0914
-592.4249 2.9356 -456.8269 1259.2144 1273.0115 23.4896
-592.1829 2.9421 -457.7974 1260.2146 1273.8916 22.8822
-591.9682 2.9485 -458.7742 1261.2147 1274.7760 22.2691
-591.7823 2.9549 -459.7569 1262.2150 1275.6681 21.6497
-591.6270 2.9611 -460.7448 1263.2151 1276.5658 21.5719
-591.5023 2.9670 -461.7372 1264.2152 1277.4766 21.9567
-591.4080 2.9726 -462.7328 1265.2155 1278.3984 22.5031
-591.3414 2.9778 -463.7307 1266.2156 1279.3351 23.0364
-591.2982 2.9826 -464.7300 1267.2158 1280.2893 23.5575
-591.2730 2.9873 -465.7299 1268.2159 1281.2542 24.0672
-591.2596 2.9919 -466.7299 1269.2161 1282.2307 24.5662
-591.2526 2.9967 -467.7301 1270.2163 1283.2122 25.0552
-591.2480 3.0018 -468.7303 1271.2164 1284.1953 25.5348
-591.2432 3.0072 -469.7304 1272.2166 1285.1797 26.0054
-591.2368 3.0128 -470.7306 1273.2168 1286.1636 26.4676
-591.2278 3.0186 -471.7307 1274.2169 1287.1460 26.9217
-591.2160 3.0247 -472.7308 1275.2172 1288.1272 27.3683
-591.2007 3.0312 -473.7309 1276.2173 1289.1071 27.8075
-591.1817 3.0383 -474.7309 1277.2174 1290.0856 28.2399
-591.1589 3.0461 -475.7308 1278.2177 1291.0632 28.6657
-591.1328 3.0546 -476.7307 1279.2178 1292.0396 29.0852
-591.1041 3.0638 -477.7304 1280.2180 1293.0150 29.4986
-591.0740 3.0736 -478.7302 1281.2181 1293.9905 29.9063
-591.0438 3.0836 -479.7299 1282.2183 1294.9661 30.3084
-591.0142 3.0936 -480.7297 1283.2185 1295.9418 30.7052
-590.9863 3.1033 -481.7295 1284.2186 1296.9194 31.0969
-590.9609 3.1124 -482.7294 1285.2189 1297.9001 31.4836
-590.9388 3.1209 -483.7293 1286.2190 1298.8840 31.8656
-590.9213 3.1286 -484.7293 1287.2191 1299.8728 32.2430
-590.9092 3.1358 -485.7294 1288.2194 1300.8657 32.6160
-590.9033 3.1426 -486.7296 1289.2195 1301.8619 32.9847
-590.9035 3.1490 -487.7297 1290.2197 1302.8608 33.3492
-590.9102 3.1553 -488.7298 1291.2198 1303.8606 33.7098
-590.9230 3.1617 -489.7299 1292.2200 1304.8615 34.0665
-590.9418 3.1681 -490.7299 1293.2202 1305.8624 34.4195
-590.9666 3.1746 -491.7297 1294.2203 1306.8635 34.7688
-590.9970 3.1812 -492.7295 1295.2206 1307.8646 35.1146
-591.0327 3.1879 -493.7290 1296.2207 1308.8656 35.4570
-591.0728 3.1945 -494.7284 1297.2208 1309.8667 35.7961
-591.1169 3.2010 -495.7276 1298.2211 1310.8678 36.1319
-591.1642 3.2070 -496.7266 1299.2212 1311.8689 36.4638
-591.2143 3.2121 -497.7255 1300.2214 1312.8700 36.7908
-591.2678 3.2163 -498.7242 1301.2216 1313.8712 37.1130
-591.3256 3.2197 -499.7227 1302.2217 1314.8723 37.4305
-591.3885 3.2223 -500.7209 1303.2219 1315.8735 37.7435
-591.4573 3.2243 -501.7186 1304.2220 1316.8746 38.0522
-591.5316 3.2259 -502.7160 1305.2223 1317.8757 38.3566
-591.6104 3.2273 -503.7131 1306.2224 1318.8767 38.6569
-591.6919 3.2287 -504.7099 1307.2225 1319.8777 38.9533
-591.7742 3.2301 -505.7067 1308.2228 1320.8785 39.2457
-591.8560 3.2312 -506.7036 1309.2229 1321.8795 39.5344
-591.9363 3.2318 -507.7005 1310.2230 1322.8805 39.8194
-592.0145 3.2316 -508.6976 1311.2233 1323.8816 40.1008
-592.0899 3.2307 -509.6949 1312.2234 1324.8827 40.3788
-592.1622 3.2290 -510.6924 1313.2236 1325.8839 40.6533
-592.2314 3.2265 -511.6902 1314.2238 1326.8851 40.9246
-592.2980 3.2234 -512.6881 1315.2239 1327.8864 41.1926
-592.3629 3.2195 -513.6862 1316.2241 1328.8877 41.4575
-592.4265 3.2151 -514.6843 1317.2242 1329.8890 41.7194
-592.4891 3.2104 -515.6825 1318.2245 1330.8905 41.9782
-592.5510 3.2056 -516.6807 1319.2246 1331.8918 42.2341
-592.6122 3.2008 -517.6790 1320.2247 1332.8932 42.4872
-592.6729 3.1961 -518.6774 1321.2250 1333.8947 42.7375
-592.7332 3.1916 -519.6757 1322.2251 1334.8961 42.9851
-592.7933 3.1874 -520.6740 1323.2253 1335.8976 43.2300
-592.8533 3.1834 -521.6724 1324.2255 1336.8989 43.4723
-592.9133 3.1797 -522.6708 1325.2256 1337.9004 43.7120
-592.9733 3.1761 -523.6691 1326.2258 1338.9020 43.9493
-593.0334 3.1728 -524.6675 1327.2260 1339.9034 44.1841
-593.0935 3.1695 -525.6658 1328.2262 1340.9050 44.4165
-593.1536 3.1662 -526.6642 1329.2263 1341.9065 44.6466
-593.2138 3.1629 -527.6625 1330.2264 1342.9081 44.8744
-593.2740 3.1595 -528.6609 1331.2267 1343.9098 45.0999
-593.3342 3.1560 -529.6593 1332.2268 1344.9114 45.3232
-593.3943 3.1525 -530.6577 1333.2271 1345.9130 45.5444
-593.4544 3.1489 -531.6560 1334.2272 1346.9143 45.7634
-593.5144 3.1455 -532.6543 1335.2273 1347.9155 45.9804
-593.5742 3.1422 -533.6526 1336.2275 1348.9164 46.1953
-593.6336 3.1392 -534.6511 1337.2277 1349.9167 46.4082
-593.6927 3.1364 -535.6495 1338.2279 1350.9169 46.6192
-593.7513 3.1337 -536.6479 1339.2280 1351.9166 46.8282
-593.8094 3.1311 -537.6464 1340.2281 1352.9163 47.0353
-593.8669 3.1285 -538.6450 1341.2284 1353.9158 47.2406
-593.9237 3.1258 -539.6435 1342.2285 1354.9154 47.4440
-593.9797 3.1229 -540.6421 1343.2288 1355.9149 47.6457
-594.0349 3.1200 -541.6407 1344.2289 1356.9144 47.8455
-594.0895 3.1173 -542.6394 1345.2290 1357.9142 48.0437
-594.1439 3.1150 -543.6381 1346.2292 1358.9139 48.2401
-594.1984 3.1132 -544.6368 1347.2294 1359.9136 48.4348
-594.2537 3.1122 -545.6354 1348.2295 1360.9133 48.6279
-594.3101 3.1120 -546.6340 1349.2297 1361.9131 48.8194
-594.3682 3.1128 -547.6324 1350.2299 1362.9128 49.0093
-594.4279 3.1143 -548.6309 1351.2301 1363.9127 49.1976
-594.4894 3.1165 -549.6292 1352.2302 1364.9125 49.3843
-594.5527 3.1192 -550.6273 1353.2303 1365.9124 49.5695
-594.6176 3.1224 -551.6254 1354.2306 1366.9121 49.7533
-594.6838 3.1259 -552.6234 1355.2307 1367.9120 49.9355
-594.7515 3.1296 -553.6213 1356.2310 1368.9117 50.1163
-594.8204 3.1336 -554.6191 1357.2311 1369.9114 50.2957
-594.8908 3.1379 -555.6168 1358.2312 1370.9113 50.4737
-594.9626 3.1425 -556.6143 1359.2314 1371.9111 50.6502
-595.0357 3.1474 -557.6119 1360.2316 1372.9111 50.8254
-595.1100 3.1525 -558.6093 1361.2318 1373.9115 50.9993
-595.1858 3.1580 -559.6066 1362.2319 1374.9122 51.1718
-595.2628 3.1637 -560.6038 1363.2321 1375.9131 51.3430
-595.3411 3.1694 -561.6009 1364.2323 1376.9139 51.5129
-595.4207 3.1752 -562.5979 1365.2324 1377.9149 51.6815
-595.5016 3.1810 -563.5948 1366.2327 1378.9154 51.8489
-595.5840 3.1866 -564.5916 1367.2328 1379.9155 52.0151
-595.6678 3.1921 -565.5882 1368.2329 1380.9154 52.1800
-595.7533 3.1975 -566.5847 1369.2332 1381.9149 52.3437
-595.8402 3.2028 -567.5811 1370.2333 1382.9144 52.5062
-595.9287 3.2081 -568.5774 1371.2335 1383.9138 52.6676
-596.0187 3.2135 -569.5735 1372.2336 1384.9132 52.8278
-596.1102 3.2190 -570.5695 1373.2338 1385.9125 52.9869
-596.2032 3.2247 -571.5653 1374.2340 1386.9117 53.1448
-596.2977 3.2307 -572.5610 1375.2341 1387.9110 53.3016
-596.3935 3.2367 -573.5566 1376.2344 1388.9102 53.4573
-596.4906 3.2428 -574.5520 1377.2345 1389.9093 53.6119
-596.5891 3.2488 -575.5474 1378.2346 1390.9083 53.7655
-596.6888 3.2544 -576.5425 1379.2349 1391.9075 53.9180
-596.7896 3.2598 -577.5376 1380.2350 1392.9064 54.0695
-596.8913 3.2648 -578.5326 1381.2352 1393.9053 54.2199
-596.9933 3.2696 -579.5275 1382.2354 1394.9043 54.3693
-597.0953 3.2742 -580.5225 1383.2355 1395.9032 54.5177
-597.1969 3.2788 -581.5175 1384.2357 1396.9022 54.6651
-597.2972 3.2834 -582.5126 1385.2358 1397.9014 54.8116
-597.3957 3.2883 -583.5080 1386.2361 1398.9005 54.9570
-597.4917 3.2935 -584.5035 1387.2362 1399.8999 55.1015
-597.5848 3.2989 -585.4994 1388.2363 1400.8993 55.2451
-597.6749 3.3046 -586.4955 1389.2366 1401.8988 55.3877
-597.7621 3.3104 -587.4919 1390.2367 1402.8986 55.5294
-597.8463 3.3161 -588.4885 1391.2368 1403.8983 55.2832
-597.9279 3.3217 -589.4854 1392.2371 1404.8981 54.8474
-598.0068 3.3271 -590.4824 1393.2372 1405.8978 54.4090
-598.0836 3.3325 -591.4796 1394.2374 1406.8978 53.9680
-598.1584 3.3378 -592.4770 1395.2375 1407.8978 53.5244
-598.2318 3.3432 -593.4744 1396.2377 1408.8978 53.0779
-598.3042 3.3489 -594.4720 1397.2379 1409.8978 52.6287
-598.3762 3.3549 -595.4696 1398.2380 1410.8978 52.1766
-598.4479 3.3612 -596.4672 1399.2383 1411.8979 51.7215
-598.5197 3.3677 -597.4648 1400.2384 1412.8979 51.2634
-598.5916 3.3743 -598.4624 1401.2385 1413.8981 50.8022
-598.6636 3.3807 -599.4600 1402.2388 1414.8981 50.3379
-598.7356 3.3867 -600.4575 1403.2389 1415.8979 49.8703
-598.8077 3.3921 -601.4550 1404.2391 1416.8979 49.3994
-598.8799 3.3969 -602.4526 1405.2393 1417.8979 48.9250
-598.9522 3.4012 -603.4502 1406.2394 1418.8979 48.4471
-599.0245 3.4049 -604.4478 1407.2396 1419.8981 47.9657
-599.0969 3.4084 -605.4453 1408.2397 1420.8981 47.4805
-599.1690 3.4118 -606.4429 1409.2400 1421.8981 46.9914
-599.2409 3.4151 -607.4404 1410.2401 1422.8981 46.4985
-599.3123 3.4185 -608.4380 1411.2402 1423.8981 46.0015
-599.3826 3.4220 -609.4357 1412.2405 1424.8981 45.5003
-599.4520 3.4255 -610.4334 1413.2406 1425.8981 44.9979
-599.5201 3.4292 -611.4313 1414.2408 1426.8982 44.4943
-599.5874 3.4332 -612.4292 1415.2410 1427.8983 43.9894
-599.6540 3.4374 -613.4271 1416.2411 1428.8984 43.4832
-599.7203 3.4419 -614.4250 1417.2413 1429.8986 42.9757
-599.7863 3.4467 -615.4230 1418.2415 1430.8987 42.4668
-599.8520 3.4516 -616.4211 1419.2417 1431.8989 41.9565
-599.9171 3.4566 -617.4191 1420.2418 1432.8990 41.4448
-599.9813 3.4615 -618.4172 1421.2419 1433.8992 40.9316
-600.0445 3.4662 -619.4154 1422.2422 1434.8993 40.4168
-600.1067 3.4706 -620.4136 1423.2423 1435.8990 39.9005
-600.1680 3.4747 -621.4119 1424.2426 1436.8987 39.3826
-600.2288 3.4784 -622.4102 1425.2427 1437.8979 38.8630
-600.2892 3.4818 -623.4085 1426.2428 1438.8967 38.3417
-600.3494 3.4848 -624.4069 1427.2430 1439.8954 37.8186
-600.4092 3.4876 -625.4052 1428.2432 1440.8945 37.2937
-600.4683 3.4901 -626.4036 1429.2433 1441.8943 36.7669
-600.5261 3.4922 -627.4021 1430.2435 1442.8967 36.2382
-600.5822 3.4942 -628.4007 1431.2437 1443.9042 35.7075
-600.6358 3.4960 -629.3994 1432.2439 1444.9181 35.1747
-600.6859 3.4979 -630.3983 1433.2440 1445.9429 34.6397
-600.7308 3.4999 -631.3975 1434.2441 1446.9766 34.1025
-600.7682 3.5021 -632.3970 1435.2444 1448.0182 33.5630
-600.7960 3.5045 -633.3967 1436.2445 1449.0648 33.0211
-600.8112 3.5071 -634.3968 1437.2448 1450.1134 32.4768
-600.8118 3.5098 -635.3970 1438.2449 1451.1633 31.9298
-600.7955 3.5126 -636.3970 1439.2450 1452.2134 31.3802
-600.7614 3.5155 -637.3966 1440.2452 1453.2634 31.5070
-600.7090 3.5183 -638.3954 1441.2454 1454.3136 31.8847
-600.6392 3.5213 -639.3931 1442.2456 1455.3641 32.2619
-600.5526 3.5244 -640.3895 1443.2457 1456.4150 32.6346
-600.4495 3.5281 -641.3843 1444.2458 1457.4678 32.5732
-600.3294 3.5325 -642.3773 1445.2461 1458.5216 32.1279
-600.1920 3.5378 -643.3679 1446.2462 1459.5789 31.9258
-600.0372 3.5437 -644.3560 1447.2465 1460.6393 32.0522
-599.8650 3.5498 -645.3412 1448.2466 1461.7070 32.4016
-599.6759 3.5554 -646.3234 1449.2467 1462.7820 32.6737
-599.4702 3.5603 -647.3022 1450.2469 1463.8711 32.9139
-599.2480 3.5644 -648.2773 1451.2471 1464.9736 32.6848
-599.0103 3.5674 -649.2488 1452.2473 1466.0906 32.1388
-598.7576 3.5694 -650.2166 1453.2474 1467.2157 31.5902
-598.4911 3.5708 -651.1805 1454.2476 1468.3424 31.0389
-598.2106 3.5724 -652.1406 1455.2478 1469.4700 30.4847
-597.9146 3.5746 -653.0959 1456.2479 1470.5958 29.9275
-597.6011 3.5774 -654.0457 1457.2482 1471.7184 29.3672
-597.2687 3.5803 -654.9889 1458.2483 1472.8381 29.7766
-596.9191 3.5834 -655.9260 1459.2484 1473.9575 30.1805
-596.5552 3.5863 -656.8575 1460.2487 1475.0774 30.5790
-596.1782 3.5889 -657.7839 1461.2488 1476.1975 30.9722
-595.7880 3.5912 -658.7048 1462.2490 1477.3215 31.3605
-595.3832 3.5934 -659.6194 1463.2491 1478.4492 30.9402
-594.9630 3.5956 -660.5270 1464.2493 1479.5818 30.3855
-594.5279 3.5982 -661.4276 1465.2495 1480.7198 29.8277
-594.0786 3.6015 -662.3210 1466.2496 1481.8613 29.2669
-593.6147 3.6057 -663.2072 1467.2499 1483.0057 28.7027
-593.1349 3.6107 -664.0847 1468.2500 1484.1501 28.1351
-592.6370 3.6162 -664.9520 1469.2501 1485.2916 27.5639
-592.1194 3.6221 -665.8079 1470.2504 1486.4293 27.1291
-591.5821 3.6279 -666.6514 1471.2505 1487.5592 27.5723
-591.0265 3.6335 -667.4830 1472.2506 1488.6825 28.0083
-590.4539 3.6388 -668.3030 1473.2509 1489.8007 28.4376
-589.8657 3.6438 -669.1119 1474.2510 1490.9138 28.8604
-589.2621 3.6485 -669.9094 1475.2512 1492.0250 28.5609
-588.6438 3.6527 -670.6955 1476.2513 1493.1345 27.9924
-588.0123 3.6562 -671.4711 1477.2515 1494.2444 27.4203
-587.3696 3.6588 -672.2374 1478.2517 1495.3549 26.8444
-586.7173 3.6608 -672.9956 1479.2518 1496.4652 26.2645
-586.0554 3.6623 -673.7454 1480.2521 1497.5753 25.6803
-585.3816 3.6635 -674.4845 1481.2522 1498.6826 25.0917
-584.6926 3.6644 -675.2095 1482.2523 1499.7798 24.4984
-583.9850 3.6655 -675.9162 1483.2526 1500.8645 24.2671
-583.2586 3.6670 -676.6037 1484.2527 1501.9250 24.7620
-582.5152 3.6693 -677.2726 1485.2529 1502.9667 25.2472
-581.7585 3.6723 -677.9267 1486.2531 1503.9915 25.7232
-580.9927 3.6757 -678.5701 1487.2532 1505.0055 26.1904
-580.2211 3.6794 -679.2065 1488.2534 1506.0154 26.6493
-579.4463 3.6831 -679.8389 1489.2535 1507.0216 27.1004
-578.6693 3.6868 -680.4686 1490.2538 1508.0280 27.5440
-577.8909 3.6903 -681.0966 1491.2539 1509.0347 27.9805
-577.1110 3.6936 -681.7228 1492.2540 1510.0416 28.4102
-576.3293 3.6966 -682.3469 1493.2543 1511.0496 28.8334
-575.5454 3.6994 -682.9680 1494.2544 1512.0582 29.2505
-574.7585 3.7021 -683.5855 1495.2546 1513.0674 29.6616
-573.9683 3.7046 -684.1986 1496.2548 1514.0767 30.0670
-573.1744 3.7070 -684.8069 1497.2549 1515.0861 30.4670
-572.3772 3.7093 -685.4109 1498.2551 1516.0956 30.8617
-571.5775 3.7115 -686.0116 1499.2552 1517.1049 31.2514
-570.7762 3.7138 -686.6102 1500.2555 1518.1140 31.6362
-569.9744 3.7161 -687.2079 1501.2556 1519.1222 32.0163
-569.1724 3.7185 -687.8057 1502.2557 1520.1294 32.3920
-568.3708 3.7208 -688.4037 1503.2560 1521.1348 32.7632
-567.5696 3.7230 -689.0023 1504.2561 1522.1377 33.1303
-566.7687 3.7252 -689.6014 1505.2563 1523.1389 33.4932
-565.9679 3.7271 -690.2006 1506.2565 1524.1383 33.8522
-565.1671 3.7288 -690.7999 1507.2566 1525.1368 34.2075
-564.3663 3.7304 -691.3991 1508.2568 1526.1350 34.5590
-563.5652 3.7318 -691.9980 1509.2570 1527.1329 34.9069
-562.7640 3.7331 -692.5967 1510.2571 1528.1309 35.2513
-561.9626 3.7345 -693.1951 1511.2573 1529.1288 35.5924
-561.1611 3.7359 -693.7933 1512.2574 1530.1268 35.9301
-560.3596 3.7374 -694.3914 1513.2577 1531.1249 36.2647
-559.5579 3.7388 -694.9895 1514.2578 1532.1230 36.5946
-558.7563 3.7401 -695.5876 1515.2579 1533.1213 36.9197
-557.9547 3.7413 -696.1857 1516.2582 1534.1195 37.2400
-557.1530 3.7423 -696.7839 1517.2583 1535.1177 37.5557
-556.3514 3.7431 -697.3821 1518.2585 1536.1160 37.8670
-555.5499 3.7438 -697.9803 1519.2587 1537.1141 38.1739
-554.7483 3.7443 -698.5785 1520.2588 1538.1123 38.4767
-553.9467 3.7448 -699.1766 1521.2590 1539.1104 38.7754
-553.1451 3.7452 -699.7747 1522.2592 1540.1084 39.0702
-552.3435 3.7456 -700.3728 1523.2594 1541.1066 39.3611
-551.5419 3.7460 -700.9711 1524.2595 1542.1046 39.6483
-550.7405 3.7461 -701.5695 1525.2596 1543.1029 39.9319
-549.9394 3.7460 -702.1682 1526.2599 1544.1016 40.2119
-549.1385 3.7457 -702.7674 1527.2600 1545.1003 40.4885
-548.3380 3.7450 -703.3671 1528.2603 1546.0996 40.7617
-547.5380 3.7439 -703.9672 1529.2604 1547.0992 41.0317
-546.7382 3.7426 -704.5677 1530.2605 1548.0991 41.2985
-545.9385 3.7412 -705.1685 1531.2607 1549.0992 41.5622
-545.1390 3.7397 -705.7693 1532.2609 1550.0994 41.8228
-544.3396 3.7383 -706.3704 1533.2611 1551.0997 42.0805
-543.5403 3.7369 -706.9718 1534.2612 1552.1000 42.3353
-542.7415 3.7356 -707.5737 1535.2614 1553.1002 42.5872
-541.9432 3.7343 -708.1762 1536.2616 1554.1005 42.8364
-541.1456 3.7328 -708.7797 1537.2617 1555.1007 43.0829
-540.3489 3.7312 -709.3844 1538.2620 1556.1010 43.3268
-539.5532 3.7294 -709.9904 1539.2621 1557.1011 43.5681
-538.7586 3.7272 -710.5977 1540.2622 1558.1012 43.8068
-537.9650 3.7247 -711.2064 1541.2625 1559.1014 44.0431
-537.1724 3.7219 -711.8164 1542.2626 1560.1016 44.2769
-536.3804 3.7188 -712.4272 1543.2628 1561.1018 44.5084
-535.5889 3.7157 -713.0387 1544.2629 1562.1019 44.7376
-534.7976 3.7126 -713.6504 1545.2631 1563.1021 44.9644
-534.0063 3.7097 -714.2622 1546.2633 1564.1023 45.1891
-533.2150 3.7072 -714.8739 1547.2634 1565.1024 45.4115
-532.4235 3.7051 -715.4854 1548.2637 1566.1024 45.6319
-531.6318 3.7036 -716.0966 1549.2638 1567.1025 45.8501
-530.8398 3.7027 -716.7074 1550.2639 1568.1027 46.0662
-530.0477 3.7024 -717.3181 1551.2642 1569.1029 46.2803
-529.2554 3.7025 -717.9285 1552.2643 1570.1031 46.4925
-528.4631 3.7030 -718.5388 1553.2644 1571.1036 46.7026
-527.6707 3.7035 -719.1492 1554.2646 1572.1046 46.9109
-526.8785 3.7038 -719.7598 1555.2648 1573.1058 47.1173
-526.0866 3.7037 -720.3707 1556.2650 1574.1074 47.3218
-525.2949 3.7031 -720.9818 1557.2651 1575.1093 47.5245
-524.5034 3.7020 -721.5932 1558.2653 1576.1112 47.7255
-523.7119 3.7005 -722.2047 1559.2655 1577.1133 47.9246
-522.9204 3.6986 -722.8163 1560.2656 1578.1154 48.1221
-522.1291 3.6966 -723.4279 1561.2659 1579.1173 48.3178
-521.3378 3.6946 -724.0396 1562.2660 1580.1194 48.5119
-520.5464 3.6928 -724.6512 1563.2661 1581.1213 48.7044
-519.7552 3.6912 -725.2630 1564.2664 1582.1234 48.8952
-518.9639 3.6899 -725.8748 1565.2665 1583.1254 49.0844
-518.1727 3.6889 -726.4865 1566.2667 1584.1272 49.2721
-517.3814 3.6883 -727.0981 1567.2668 1585.1292 49.4583
-516.5898 3.6878 -727.7095 1568.2670 1586.1310 49.6429
-515.7978 3.6875 -728.3203 1569.2672 1587.1329 49.8260
-515.0050 3.6871 -728.9301 1570.2673 1588.1349 50.0077
-514.2112 3.6863 -729.5385 1571.2676 1589.1368 50.1879
-513.4160 3.6852 -730.1451 1572.2677 1590.1388 50.3667
-512.6190 3.6837 -730.7495 1573.2678 1591.1407 50.5441
-511.8206 3.6817 -731.3519 1574.2681 1592.1428 50.7202
-511.0210 3.6792 -731.9526 1575.2682 1593.1448 50.8948
-510.2205 3.6762 -732.5522 1576.2684 1594.1469 51.0681
-509.4197 3.6729 -733.1514 1577.2686 1595.1488 51.2401
-508.6188 3.6696 -733.7504 1578.2687 1596.1509 51.4108
-507.8179 3.6662 -734.3495 1579.2689 1597.1528 51.5802
-507.0172 3.6629 -734.9487 1580.2690 1598.1548 51.7484
-506.2165 3.6598 -735.5482 1581.2693 1599.1569 51.9152
-505.4159 3.6567 -736.1476 1582.2694 1600.1589 52.0809
-504.6154 3.6537 -736.7473 1583.2695 1601.1610 52.2453
-503.8149 3.6508 -737.3469 1584.2698 1602.1630 52.4086
-503.0144 3.6478 -737.9465 1585.2699 1603.1650 52.5706
-502.2139 3.6448 -738.5462 1586.2701 1604.1671 52.7315
-501.4134 3.6416 -739.1458 1587.2703 1605.1692 52.8913
-500.6129 3.6384 -739.7454 1588.2704 1606.1713 53.0499
-499.8124 3.6350 -740.3450 1589.2706 1607.1733 53.2074
-499.0119 3.6316 -740.9447 1590.2708 1608.1754 53.3637
-498.2115 3.6282 -741.5444 1591.2709 1609.1775 53.5190
-497.4111 3.6249 -742.1442 1592.2711 1610.1796 53.6732
-496.6108 3.6216 -742.7440 1593.2712 1611.1815 53.8264
-495.8106 3.6184 -743.3441 1594.2715 1612.1835 53.9785
-495.0104 3.6153 -743.9440 1595.2716 1613.1853 54.1295
-494.2101 3.6123 -744.5439 1596.2717 1614.1871 54.2795
-493.4096 3.6093 -745.1434 1597.2720 1615.1888 54.4286
-492.6084 3.6065 -745.7421 1598.2721 1616.1906 54.5766
-491.8061 3.6037 -746.3394 1599.2723 1617.1925 54.7236
-491.0023 3.6009 -746.9346 1600.2725 1618.1947 54.8696
-490.1966 3.5981 -747.5272 1601.2726 1619.1981 55.0147
-489.3884 3.5952 -748.1165 1602.2728 1620.2031 55.1588
-488.5773 3.5923 -748.7017 1603.2729 1621.2102 55.3020
-487.7632 3.5891 -749.2827 1604.2732 1622.2203 55.4443
-486.9459 3.5859 -749.8592 1605.2733 1623.2324 55.5856
-486.1255 3.5826 -750.4313 1606.2734 1624.2463 55.7260
-485.3023 3.5793 -750.9994 1607.2737 1625.2610 55.8655
-484.4767 3.5760 -751.5639 1608.2738 1626.2759 56.0042
-483.6490 3.5726 -752.1254 1609.2740 1627.2908 56.1419
-482.8197 3.5693 -752.6846 1610.2742 1628.3057 56.2788
-481.9893 3.5660 -753.2421 1611.2743 1629.3203 56.4148
-481.1581 3.5628 -753.7983 1612.2745 1630.3346 56.5500
-480.3262 3.5595 -754.3534 1613.2747 1631.3488 56.6843
-479.4935 3.5563 -754.9073 1614.2749 1632.3628 56.8178
-478.6599 3.5530 -755.4602 1615.2750 1633.3768 56.9505
-477.8257 3.5497 -756.0119 1616.2751 1634.3909 57.0823
-476.9905 3.5464 -756.5623 1617.2754 1635.4048 57.2134
-476.1544 3.5432 -757.1110 1618.2755 1636.4188 57.3436
-475.3170 3.5400 -757.6579 1619.2758 1637.4327 57.4731
-474.4782 3.5369 -758.2028 1620.2759 1638.4468 57.6018
-473.6381 3.5338 -758.7454 1621.2760 1639.4608 57.7297
-472.7963 3.5307 -759.2857 1622.2762 1640.4750 57.8569
-471.9529 3.5275 -759.8233 1623.2764 1641.4893 57.9833
-471.1076 3.5243 -760.3579 1624.2766 1642.5035 58.1089
-470.2602 3.5210 -760.8892 1625.2767 1643.5181 58.2338
-469.4106 3.5176 -761.4168 1626.2769 1644.5327 58.3580
-468.5585 3.5141 -761.9406 1627.2771 1645.5477 58.4814
-467.7040 3.5106 -762.4604 1628.2772 1646.5632 58.6042
-466.8471 3.5070 -762.9761 1629.2775 1647.5792 58.7262
-465.9877 3.5035 -763.4878 1630.2776 1648.5959 58.8475
-465.1258 3.5001 -763.9954 1631.2777 1649.6130 58.9681
-464.2616 3.4966 -764.4989 1632.2780 1650.6304 59.0881
-463.3951 3.4932 -764.9983 1633.2781 1651.6478 59.2073
-462.5263 3.4897 -765.4937 1634.2782 1652.6653 59.3259
-461.6551 3.4862 -765.9850 1635.2784 1653.6825 59.4438
-460.7815 3.4827 -766.4721 1636.2786 1654.6997 59.5610
-459.9057 3.4791 -766.9550 1637.2788 1655.7166 59.6776
-459.0274 3.4756 -767.4337 1638.2789 1656.7333 59.7935
-458.1469 3.4721 -767.9080 1639.2791 1657.7499 59.9088
-457.2640 3.4688 -768.3780 1640.2793 1658.7662 60.0234
-456.3788 3.4656 -768.8437 1641.2794 1659.7827 60.1374
-455.4914 3.4624 -769.3051 1642.2797 1660.7991 60.2508
-454.6019 3.4592 -769.7623 1643.2798 1661.8156 60.3635
-453.7102 3.4559 -770.2153 1644.2799 1662.8320 60.4757
-452.8163 3.4524 -770.6640 1645.2802 1663.8486 60.5872
-451.9203 3.4486 -771.1085 1646.2803 1664.8654 60.6981
-451.0223 3.4445 -771.5489 1647.2805 1665.8823 60.8085
-450.1224 3.4401 -771.9853 1648.2806 1666.8994 60.9182
-449.2207 3.4353 -772.4182 1649.2808 1667.9170 61.0273
-448.3177 3.4304 -772.8481 1650.2810 1668.9347 61.1359
-447.4136 3.4252 -773.2759 1651.2811 1669.9529 61.2439
-446.5090 3.4200 -773.7025 1652.2814 1670.9714 61.3513
-445.6041 3.4147 -774.1285 1653.2815 1671.9901 61.4581
-444.6992 3.4096 -774.5546 1654.2816 1673.0085 61.5644
-443.7945 3.4047 -774.9808 1655.2819 1674.0269 61.6701
-442.8898 3.4004 -775.4073 1656.2820 1675.0442 61.7753
-441.9852 3.3967 -775.8340 1657.2822 1676.0602 61.8799
-441.0807 3.3936 -776.2609 1658.2823 1677.0751 61.9840
-440.1761 3.3911 -776.6877 1659.2825 1678.0889 62.0875
-439.2716 3.3893 -777.1145 1660.2827 1679.1019 62.1905
-438.3669 3.3879 -777.5410 1661.2828 1680.1145 62.2930
-437.4619 3.3865 -777.9669 1662.2831 1681.1268 62.3949
-436.5563 3.3851 -778.3914 1663.2832 1682.1389 62.4964
-435.6498 3.3834 -778.8140 1664.2833 1683.1510 62.5973
-434.7419 3.3812 -779.2338 1665.2836 1684.1630 62.6977
-433.8326 3.3786 -779.6503 1666.2837 1685.1749 62.7975
-432.9218 3.3755 -780.0634 1667.2839 1686.1868 62.8969
-432.0092 3.3720 -780.4727 1668.2841 1687.1986 62.9958
-431.0951 3.3683 -780.8784 1669.2842 1688.2103 63.0942
-430.1792 3.3644 -781.2803 1670.2844 1689.2222 63.1921
-429.2617 3.3604 -781.6786 1671.2845 1690.2339 63.2895
-428.3426 3.3563 -782.0731 1672.2847 1691.2457 63.3864
-427.4220 3.3522 -782.4640 1673.2849 1692.2574 63.4828
-426.4998 3.3481 -782.8511 1674.2850 1693.2694 63.5788
-425.5760 3.3440 -783.2347 1675.2853 1694.2814 63.6743
-424.6508 3.3400 -783.6144 1676.2854 1695.2933 63.7693
-423.7241 3.3359 -783.9907 1677.2855 1696.3058 63.8639
-422.7961 3.3318 -784.3637 1678.2858 1697.3184 63.9580
-421.8671 3.3276 -784.7341 1679.2859 1698.3308 64.0516
-420.9373 3.3233 -785.1028 1680.2861 1699.3434 64.1448
-420.0074 3.3188 -785.4708 1681.2863 1700.3558 64.2375
-419.0775 3.3142 -785.8391 1682.2864 1701.3669 64.3298
-418.1479 3.3093 -786.2079 1683.2866 1702.3771 64.4217
-417.2186 3.3044 -786.5779 1684.2867 1703.3849 64.5131
-416.2897 3.2996 -786.9485 1685.2870 1704.3901 64.6040
-415.3609 3.2952 -787.3196 1686.2871 1705.3937 64.6945
-414.4321 3.2913 -787.6906 1687.2872 1706.3955 64.7846
-413.5032 3.2880 -788.0612 1688.2875 1707.3969 64.8743
-412.5739 3.2853 -788.4312 1689.2876 1708.3977 64.9636
-411.6443 3.2831 -788.8000 1690.2878 1709.3984 65.0524
-410.7142 3.2813 -789.1677 1691.2880 1710.3992 65.1408
-409.7836 3.2796 -789.5342 1692.2881 1711.4000 65.2288
-408.8526 3.2778 -789.8994 1693.2883 1712.4009 65.3164
-407.9209 3.2760 -790.2631 1694.2885 1713.4020 65.4035
-406.9886 3.2740 -790.6252 1695.2887 1714.4031 65.4903
-406.0556 3.2720 -790.9857 1696.2888 1715.4042 65.5767
-405.1220 3.2701 -791.3444 1697.2889 1716.4054 65.6627
-404.1878 3.2684 -791.7017 1698.2892 1717.4065 65.7482
-403.2532 3.2668 -792.0579 1699.2893 1718.4076 65.8334
-402.3185 3.2653 -792.4135 1700.2896 1719.4088 65.9182
-401.3838 3.2639 -792.7693 1701.2897 1720.4099 66.0026
-400.4493 3.2625 -793.1259 1702.2898 1721.4111 66.0866
-399.5152 3.2608 -793.4833 1703.2900 1722.4122 66.1702
-398.5814 3.2588 -793.8415 1704.2902 1723.4133 66.2535
-397.6478 3.2564 -794.2003 1705.2904 1724.4146 66.3363
-396.7144 3.2537 -794.5596 1706.2905 1725.4156 66.4188
-395.7811 3.2505 -794.9190 1707.2906 1726.4169 66.5009
-394.8477 3.2471 -795.2786 1708.2909 1727.4181 66.5827
-393.9144 3.2435 -795.6382 1709.2910 1728.4193 66.6641
-392.9812 3.2398 -795.9978 1710.2911 1729.4205 66.7451
-392.0479 3.2361 -796.3575 1711.2914 1730.4218 66.8258
-391.1147 3.2325 -796.7173 1712.2915 1731.4230 66.9061
-390.1815 3.2290 -797.0771 1713.2917 1732.4242 66.9860
-389.2483 3.2257 -797.4370 1714.2919 1733.4254 67.0656
-388.3151 3.2225 -797.7969 1715.2920 1734.4266 67.1448
-387.3820 3.2192 -798.1569 1716.2922 1735.4274 67.2237
-386.4489 3.2159 -798.5170 1717.2924 1736.4276 67.3022
-385.5157 3.2125 -798.8770 1718.2926 1737.4274 67.3804
-384.5826 3.2091 -799.2371 1719.2927 1738.4265 67.4583
-383.6495 3.2055 -799.5972 1720.2928 1739.4252 67.5358
-382.7164 3.2020 -799.9573 1721.2931 1740.4235 67.6130
-381.7833 3.1985 -800.3174 1722.2932 1741.4215 67.6898
-380.8502 3.1953 -800.6774 1723.2935 1742.4196 67.7663
-379.9171 3.1924 -801.0374 1724.2936 1743.4175 67.8425
-378.9839 3.1897 -801.3972 1725.2937 1744.4155 67.9183
-378.0506 3.1872 -801.7569 1726.2939 1745.4136 67.9938
-377.1172 3.1848 -802.1163 1727.2941 1746.4116 68.0690
-376.1837 3.1825 -802.4755 1728.2943 1747.4098 68.1439
-375.2502 3.1801 -802.8344 1729.2944 1748.4078 68.2184
-374.3165 3.1777 -803.1932 1730.2946 1749.4059 68.2926
-373.3829 3.1753 -803.5519 1731.2948 1750.4041 68.3665
-372.4492 3.1729 -803.9106 1732.2949 1751.4021 68.4401
-371.5157 3.1707 -804.2695 1733.2952 1752.4003 68.5134
-370.5823 3.1687 -804.6287 1734.2953 1753.3983 68.5864
-369.6490 3.1669 -804.9882 1735.2954 1754.3962 68.6590
-368.7158 3.1653 -805.3480 1736.2957 1755.3943 68.7314
-367.7826 3.1640 -805.7078 1737.2958 1756.3923 68.8034
-366.8495 3.1628 -806.0679 1738.2960 1757.3904 68.8752
-365.9164 3.1616 -806.4279 1739.2961 1758.3884 68.9466
-364.9833 3.1605 -806.7880 1740.2963 1759.3866 69.0178
-364.0502 3.1593 -807.1481 1741.2965 1760.3846 69.0886
-363.1171 3.1580 -807.5081 1742.2966 1761.3828 69.1592
-362.1839 3.1565 -807.8680 1743.2969 1762.3810 69.2294
-361.2507 3.1548 -808.2280 1744.2970 1763.3793 69.2994
-360.3175 3.1528 -808.5878 1745.2971 1764.3774 69.3691
-359.3843 3.1505 -808.9477 1746.2974 1765.3756 69.4385
-358.4512 3.1478 -809.3077 1747.2975 1766.3735 69.5076
-357.5181 3.1448 -809.6680 1748.2977 1767.3708 69.5764
-356.5853 3.1415 -810.0289 1749.2979 1768.3677 69.6449
-355.6529 3.1379 -810.3907 1750.2980 1769.3633 69.7132
-354.7208 3.1342 -810.7535 1751.2982 1770.3578 69.7811
-353.7892 3.1304 -811.1176 1752.2983 1771.3516 69.8488
-352.8581 3.1266 -811.4827 1753.2985 1772.3445 69.9162
-351.9273 3.1229 -811.8488 1754.2987 1773.3372 69.9834
-350.9970 3.1193 -812.2159 1755.2988 1774.3296 69.7727
-350.0671 3.1160 -812.5842 1756.2991 1775.3220 69.4039
-349.1377 3.1127 -812.9536 1757.2992 1776.3145 69.0337
-348.2087 3.1096 -813.3243 1758.2993 1777.3069 68.6621
-347.2802 3.1066 -813.6960 1759.2996 1778.2993 68.2892
-346.3522 3.1036 -814.0689 1760.2997 1779.2917 67.9148
-345.4246 3.1007 -814.4429 1761.2999 1780.2843 67.5390
-344.4975 3.0979 -814.8182 1762.3000 1781.2767 67.1617
-343.5710 3.0950 -815.1948 1763.3002 1782.2694 66.7830
-342.6450 3.0921 -815.5728 1764.3004 1783.2620 66.4027
-341.7196 3.0893 -815.9524 1765.3005 1784.2548 66.0209
-340.7951 3.0864 -816.3339 1766.3008 1785.2476 65.6376
-339.8714 3.0835 -816.7176 1767.3009 1786.2402 65.2527
-338.9488 3.0806 -817.1038 1768.3010 1787.2330 64.8662
-338.0272 3.0777 -817.4924 1769.3013 1788.2258 64.4781
-337.1067 3.0749 -817.8834 1770.3014 1789.2183 64.0883
-336.1871 3.0720 -818.2767 1771.3016 1790.2102 63.6968
-335.2686 3.0691 -818.6725 1772.3018 1791.2017 63.3036
-334.3511 3.0663 -819.0707 1773.3019 1792.1923 62.9087
-333.4348 3.0635 -819.4715 1774.3021 1793.1823 62.5120
-332.5196 3.0607 -819.8750 1775.3022 1794.1719 62.1136
-331.6059 3.0579 -820.2817 1776.3025 1795.1611 61.7132
-330.6938 3.0552 -820.6920 1777.3026 1796.1503 61.3111
-329.7834 3.0526 -821.1063 1778.3027 1797.1393 60.9070
-328.8748 3.0500 -821.5242 1779.3030 1798.1283 60.5010
-327.9676 3.0475 -821.9455 1780.3031 1799.1172 60.0931
-327.0617 3.0450 -822.3693 1781.3033 1800.1062 59.6831
-326.1566 3.0425 -822.7949 1782.3035 1801.0951 59.2711
-325.2523 3.0400 -823.2222 1783.3036 1802.0841 58.8570
-324.3489 3.0376 -823.6514 1784.3038 1803.0730 58.4408
-323.4464 3.0352 -824.0826 1785.3040 1804.0620 58.0225
-322.5451 3.0328 -824.5162 1786.3042 1805.0511 57.6019
-321.6447 3.0304 -824.9518 1787.3043 1806.0402 57.1791
-320.7453 3.0280 -825.3892 1788.3044 1807.0293 56.7540
-319.8466 3.0257 -825.8282 1789.3047 1808.0184 56.3266
-318.9487 3.0233 -826.2687 1790.3048 1809.0077 55.8968
-318.0513 3.0209 -826.7104 1791.3049 1809.9971 55.4645
-317.1545 3.0185 -827.1531 1792.3052 1810.9865 55.0298
-316.2581 3.0161 -827.5967 1793.3053 1811.9761 54.5925
-315.3620 3.0136 -828.0410 1794.3055 1812.9659 54.1526
-314.4664 3.0111 -828.4863 1795.3057 1813.9559 53.7100
-313.5714 3.0086 -828.9325 1796.3058 1814.9460 53.2647
-312.6769 3.0061 -829.3800 1797.3060 1815.9362 52.8167
-311.7831 3.0035 -829.8288 1798.3062 1816.9263 52.3658
-310.8900 3.0009 -830.2792 1799.3064 1817.9165 51.9119
-309.9980 2.9984 -830.7314 1800.3065 1818.9065 51.4551
-309.1070 2.9957 -831.1859 1801.3066 1819.8962 50.9952
-308.2175 2.9931 -831.6431 1802.3069 1820.8860 50.5322
-307.3294 2.9905 -832.1031 1803.3070 1821.8755 50.0660
-306.4429 2.9878 -832.5662 1804.3073 1822.8650 49.5965
-305.5579 2.9851 -833.0324 1805.3074 1823.8542 49.1236
-304.6746 2.9823 -833.5016 1806.3075 1824.8435 48.6472
-303.7930 2.9794 -833.9739 1807.3077 1825.8326 48.1672
-302.9131 2.9764 -834.4493 1808.3079 1826.8217 47.6836
-302.0349 2.9734 -834.9280 1809.3081 1827.8107 47.1962
-301.1584 2.9703 -835.4099 1810.3082 1828.7997 46.7049
-300.2838 2.9672 -835.8950 1811.3083 1829.7886 46.2096
-299.4109 2.9640 -836.3832 1812.3086 1830.7775 45.7102
-298.5397 2.9609 -836.8745 1813.3087 1831.7665 45.2083
-297.6700 2.9577 -837.3685 1814.3090 1832.7554 44.7052
-296.8018 2.9546 -837.8650 1815.3091 1833.7444 44.2008
-295.9348 2.9514 -838.3636 1816.3092 1834.7334 43.6952
-295.0689 2.9482 -838.8643 1817.3094 1835.7224 43.1882
-294.2040 2.9450 -839.3666 1818.3096 1836.7115 42.6799
-293.3401 2.9418 -839.8707 1819.3098 1837.7006 42.1702
-292.4772 2.9386 -840.3763 1820.3099 1838.6897 41.6591
-291.6153 2.9353 -840.8836 1821.3101 1839.6787 41.1465
-290.7542 2.9321 -841.3924 1822.3103 1840.6677 40.6324
-289.8940 2.9288 -841.9028 1823.3104 1841.6569 40.1168
-289.0347 2.9256 -842.4144 1824.3107 1842.6462 39.5995
-288.1760 2.9223 -842.9273 1825.3108 1843.6361 39.0806
-287.3178 2.9190 -843.4410 1826.3109 1844.6267 38.5600
-286.4601 2.9157 -843.9555 1827.3112 1845.6193 38.0377
-285.6028 2.9123 -844.4708 1828.3113 1846.6136 37.5136
-284.7463 2.9088 -844.9872 1829.3115 1847.6112 36.9876
-283.8911 2.9052 -845.5058 1830.3116 1848.6118 36.4597
-283.0378 2.9015 -846.0276 1831.3118 1849.6140 35.9298
-282.1871 2.8976 -846.5536 1832.3120 1850.6178 35.3979
-281.3394 2.8937 -847.0844 1833.3121 1851.6219 34.8638
-280.4944 2.8896 -847.6196 1834.3123 1852.6261 34.3276
-279.6525 2.8856 -848.1594 1835.3125 1853.6302 33.7890
-278.8137 2.8815 -848.7042 1836.3126 1854.6342 33.2482
-277.9787 2.8774 -849.2547 1837.3129 1855.6373 32.7048
-277.1479 2.8735 -849.8116 1838.3130 1856.6401 32.1590
-276.3213 2.8697 -850.3748 1839.3131 1857.6423 31.6105
-275.4985 2.8661 -850.9435 1840.3134 1858.6439 31.0592
-274.6791 2.8625 -851.5170 1841.3135 1859.6449 30.5051
-273.8625 2.8591 -852.0946 1842.3137 1860.6453 29.9481
-273.0478 2.8557 -852.6747 1843.3138 1861.6454 29.3879
-272.2335 2.8523 -853.2554 1844.3140 1862.6454 28.8244
