VERSION 0.7
FIELDS x y z arclength lapdistance speed
SIZE 4 4 4 4 4 4
TYPE F F F F F F
COUNT 1 1 1 1 1 1
WIDTH 903
HEIGHT 1
VIEWPOINT 0.000 0.000 0.000 1.000 0.000 0.000 0.000
POINTS 903
DATA ascii
77.9118 3.2736 56.3370 3080.7383 3060.1179 75.1001
78.4581 3.2700 57.1748 3081.7385 3061.1316 75.1612
79.0068 3.2662 58.0110 3082.7388 3062.1450 75.2220
79.5582 3.2623 58.8455 3083.7390 3063.1584 75.2825
80.1122 3.2585 59.6784 3084.7393 3064.1716 75.3428
80.6683 3.2547 60.5099 3085.7395 3065.1846 75.4028
81.2262 3.2512 61.3401 3086.7397 3066.1970 75.4625
81.7855 3.2479 62.1692 3087.7400 3067.2097 75.5219
82.3461 3.2449 62.9976 3088.7402 3068.2222 75.5811
82.9080 3.2423 63.8252 3089.7405 3069.2344 75.6400
83.4710 3.2399 64.6519 3090.7407 3070.2466 75.6986
84.0353 3.2377 65.4778 3091.7410 3071.2588 75.7570
84.6010 3.2357 66.3026 3092.7412 3072.2708 75.8151
85.1685 3.2336 67.1263 3093.7412 3073.2830 75.8730
85.7381 3.2316 67.9485 3094.7415 3074.2947 75.9306
86.3104 3.2295 68.7688 3095.7417 3075.3066 75.9880
86.8859 3.2273 69.5868 3096.7419 3076.3184 76.0450
87.4649 3.2250 70.4024 3097.7422 3077.3303 76.1019
88.0475 3.2227 71.2154 3098.7424 3078.3423 76.1585
88.6337 3.2204 72.0259 3099.7427 3079.3542 76.2148
89.2231 3.2182 72.8341 3100.7429 3080.3662 76.2709
89.8155 3.2162 73.6400 3101.7432 3081.3782 76.3268
90.4107 3.2143 74.4439 3102.7434 3082.3904 76.3824
91.0087 3.2125 75.2456 3103.7437 3083.4026 76.4377
91.6093 3.2106 76.0454 3104.7439 3084.4150 76.4928
92.2126 3.2087 76.8432 3105.7441 3085.4275 76.5477
92.8185 3.2066 77.6391 3106.7444 3086.4399 76.6023
93.4270 3.2043 78.4330 3107.7446 3087.4529 76.6567
94.0380 3.2018 79.2249 3108.7449 3088.4658 76.7109
94.6513 3.1990 80.0150 3109.7451 3089.4792 76.7648
95.2670 3.1960 80.8033 3110.7454 3090.4927 76.8185
95.8847 3.1927 81.5899 3111.7456 3091.5063 76.8720
96.5044 3.1892 82.3751 3112.7458 3092.5208 76.9252
97.1259 3.1854 83.1588 3113.7461 3093.5354 76.9782
97.7492 3.1815 83.9411 3114.7463 3094.5508 77.0310
98.3742 3.1773 84.7220 3115.7466 3095.5662 77.0835
99.0009 3.1729 85.5015 3116.7468 3096.5818 77.1358
99.6295 3.1684 86.2796 3117.7471 3097.5974 77.1879
100.2598 3.1638 87.0563 3118.7473 3098.6130 77.2397
100.8920 3.1593 87.8314 3119.7476 3099.6282 77.2914
101.5262 3.1550 88.6050 3120.7478 3100.6431 77.3428
102.1625 3.1509 89.3768 3121.7480 3101.6577 77.3940
102.8009 3.1472 90.1468 3122.7483 3102.6721 77.4450
103.4416 3.1438 90.9148 3123.7485 3103.6863 77.4957
104.0845 3.1406 91.6810 3124.7488 3104.7004 77.5463
104.7297 3.1377 92.4454 3125.7490 3105.7141 77.5966
105.3770 3.1348 93.2080 3126.7493 3106.7278 77.6467
106.0264 3.1319 93.9687 3127.7495 3107.7415 77.6966
106.6779 3.1290 94.7277 3128.7498 3108.7549 77.7463
107.3314 3.1260 95.4848 3129.7500 3109.7683 77.7958
107.9871 3.1229 96.2401 3130.7502 3110.7815 77.8451
108.6449 3.1198 96.9936 3131.7505 3111.7947 77.8941
109.3047 3.1167 97.7453 3132.7507 3112.8079 77.9430
109.9667 3.1137 98.4951 3133.7510 3113.8210 77.9917
110.6307 3.1108 99.2432 3134.7512 3114.8345 78.0401
111.2967 3.1079 99.9895 3135.7515 3115.8477 78.0883
111.9647 3.1051 100.7340 3136.7517 3116.8608 78.1364
112.6345 3.1023 101.4767 3137.7520 3117.8740 78.1842
113.3064 3.0995 102.2178 3138.7522 3118.8875 78.2319
113.9802 3.0968 102.9570 3139.7524 3119.9009 78.2793
114.6560 3.0941 103.6944 3140.7527 3120.9146 78.3265
115.3338 3.0915 104.4299 3141.7529 3121.9282 78.3736
116.0136 3.0890 105.1636 3142.7532 3122.9419 78.4204
116.6955 3.0865 105.8955 3143.7534 3123.9561 78.4671
117.3794 3.0842 106.6253 3144.7537 3124.9702 78.5135
118.0654 3.0819 107.3532 3145.7539 3125.9849 78.5598
118.7534 3.0798 108.0792 3146.7542 3126.9995 78.6059
119.4435 3.0778 108.8032 3147.7544 3128.0144 78.6518
120.1356 3.0760 109.5253 3148.7544 3129.0298 78.6975
120.8298 3.0745 110.2454 3149.7546 3130.0449 78.7430
121.5260 3.0733 110.9635 3150.7549 3131.0601 78.7883
122.2242 3.0724 111.6797 3151.7551 3132.0750 78.8334
122.9245 3.0717 112.3940 3152.7554 3133.0891 78.8784
123.6267 3.0711 113.1063 3153.7556 3134.1025 78.9231
124.3309 3.0706 113.8166 3154.7559 3135.1150 78.9677
125.0371 3.0702 114.5249 3155.7561 3136.1270 79.0121
125.7452 3.0697 115.2314 3156.7563 3137.1387 79.0563
126.4553 3.0691 115.9359 3157.7566 3138.1499 79.1003
127.1672 3.0685 116.6386 3158.7568 3139.1609 79.1442
127.8809 3.0679 117.3393 3159.7571 3140.1719 79.1878
128.5964 3.0674 118.0383 3160.7573 3141.1826 79.2313
129.3137 3.0671 118.7355 3161.7576 3142.1931 79.2746
130.0327 3.0671 119.4308 3162.7578 3143.2036 79.3178
130.7535 3.0673 120.1243 3163.7581 3144.2141 79.3607
131.4762 3.0678 120.8158 3164.7583 3145.2244 79.4035
132.2007 3.0686 121.5053 3165.7585 3146.2346 79.4461
132.9271 3.0697 122.1929 3166.7588 3147.2446 79.4886
133.6555 3.0711 122.8785 3167.7590 3148.2546 79.5309
134.3857 3.0726 123.5620 3168.7593 3149.2646 79.5730
135.1178 3.0742 124.2436 3169.7595 3150.2747 79.6149
135.8517 3.0761 124.9231 3170.7598 3151.2844 79.6566
136.5876 3.0780 125.6006 3171.7600 3152.2944 79.6982
137.3254 3.0799 126.2761 3172.7603 3153.3042 79.7396
138.0650 3.0819 126.9495 3173.7605 3154.3140 79.7809
138.8064 3.0838 127.6209 3174.7607 3155.3237 79.8220
139.5496 3.0858 128.2903 3175.7610 3156.3335 79.8629
140.2946 3.0877 128.9578 3176.7612 3157.3433 79.9037
141.0414 3.0897 129.6233 3177.7615 3158.3533 79.9443
141.7899 3.0916 130.2867 3178.7617 3159.3630 79.9847
142.5402 3.0937 130.9481 3179.7620 3160.3730 80.0250
143.2923 3.0959 131.6074 3180.7622 3161.3828 80.0651
144.0463 3.0984 132.2646 3181.7625 3162.3931 80.1050
144.8021 3.1011 132.9197 3182.7627 3163.4031 80.1448
145.5597 3.1039 133.5727 3183.7629 3164.4136 80.1845
146.3191 3.1068 134.2236 3184.7632 3165.4241 80.2239
147.0803 3.1098 134.8724 3185.7634 3166.4348 80.2633
147.8432 3.1126 135.5192 3186.7637 3167.4458 80.3024
148.6078 3.1152 136.1641 3187.7639 3168.4565 80.3414
149.3737 3.1175 136.8074 3188.7642 3169.4668 80.3803
150.1406 3.1196 137.4494 3189.7644 3170.4763 80.4190
150.9082 3.1215 138.0907 3190.7646 3171.4844 80.4575
151.6762 3.1233 138.7316 3191.7649 3172.4905 80.4959
152.4444 3.1251 139.3723 3192.7651 3173.4946 80.5341
153.2126 3.1271 140.0129 3193.7654 3174.4973 80.5722
153.9808 3.1293 140.6535 3194.7656 3175.4993 80.6102
154.7490 3.1319 141.2941 3195.7659 3176.5007 80.6480
155.5173 3.1349 141.9347 3196.7661 3177.5020 80.6856
156.2855 3.1380 142.5753 3197.7664 3178.5032 80.7231
157.0536 3.1413 143.2160 3198.7666 3179.5044 80.7604
157.8218 3.1446 143.8566 3199.7668 3180.5056 80.7976
158.5898 3.1478 144.4973 3200.7671 3181.5068 80.8347
159.3579 3.1509 145.1380 3201.7673 3182.5083 80.8716
160.1259 3.1538 145.7788 3202.7673 3183.5098 80.9084
160.8939 3.1565 146.4197 3203.7676 3184.5112 80.9450
161.6618 3.1590 147.0605 3204.7678 3185.5127 80.9815
162.4298 3.1615 147.7014 3205.7681 3186.5142 81.0178
163.1978 3.1639 148.3422 3206.7683 3187.5156 81.0540
163.9659 3.1664 148.9829 3207.7686 3188.5171 81.0900
164.7340 3.1690 149.6236 3208.7688 3189.5186 81.1260
165.5021 3.1716 150.2643 3209.7690 3190.5200 81.1617
166.2702 3.1743 150.9050 3210.7693 3191.5215 81.1974
167.0383 3.1770 151.5456 3211.7695 3192.5229 81.2328
167.8065 3.1798 152.1862 3212.7698 3193.5244 81.2682
168.5748 3.1827 152.8266 3213.7700 3194.5259 81.3034
169.3433 3.1857 153.4669 3214.7703 3195.5273 81.3385
170.1119 3.1889 154.1069 3215.7705 3196.5288 81.3735
170.8807 3.1922 154.7467 3216.7708 3197.5303 81.4083
171.6495 3.1956 155.3864 3217.7710 3198.5317 81.4429
172.4185 3.1991 156.0260 3218.7712 3199.5332 81.4775
173.1873 3.2025 156.6657 3219.7715 3200.5347 81.5119
173.9561 3.2057 157.3056 3220.7717 3201.5361 81.5462
174.7249 3.2087 157.9456 3221.7720 3202.5376 81.5803
175.4936 3.2114 158.5856 3222.7722 3203.5388 81.6143
176.2624 3.2139 159.2255 3223.7725 3204.5398 81.6482
177.0313 3.2162 159.8652 3224.7727 3205.5403 81.6820
177.8004 3.2186 160.5047 3225.7729 3206.5405 81.7156
178.5697 3.2212 161.1440 3226.7732 3207.5408 81.7491
179.3391 3.2239 161.7833 3227.7734 3208.5405 81.7825
180.1082 3.2270 162.4228 3228.7737 3209.5405 81.8157
180.8768 3.2302 163.0628 3229.7739 3210.5403 81.8488
181.6448 3.2336 163.7036 3230.7742 3211.5400 81.8818
182.4120 3.2370 164.3454 3231.7744 3212.5398 81.9147
183.1783 3.2405 164.9883 3232.7747 3213.5398 81.9474
183.9437 3.2441 165.6323 3233.7749 3214.5396 81.9800
184.7083 3.2476 166.2773 3234.7751 3215.5396 82.0125
185.4722 3.2511 166.9231 3235.7754 3216.5393 81.9298
186.2356 3.2546 167.5694 3236.7756 3217.5393 81.5039
186.9989 3.2581 168.2159 3237.7759 3218.5391 81.0766
187.7621 3.2617 168.8625 3238.7761 3219.5391 80.6477
188.5252 3.2652 169.5091 3239.7764 3220.5388 80.2174
189.2884 3.2687 170.1557 3240.7766 3221.5386 79.7856
190.0516 3.2721 170.8023 3241.7769 3222.5386 79.3522
190.8148 3.2754 171.4489 3242.7771 3223.5383 78.9172
191.5779 3.2786 172.0956 3243.7773 3224.5383 78.4807
192.3409 3.2817 172.7424 3244.7776 3225.5381 78.0425
193.1038 3.2846 173.3893 3245.7778 3226.5381 77.6027
193.8666 3.2875 174.0364 3246.7781 3227.5378 77.1612
194.6292 3.2902 174.6837 3247.7783 3228.5378 76.7181
195.3917 3.2929 175.3311 3248.7786 3229.5376 76.2732
196.1540 3.2953 175.9788 3249.7788 3230.5376 75.8266
196.9161 3.2977 176.6267 3250.7791 3231.5374 75.3782
197.6782 3.2999 177.2746 3251.7793 3232.5374 74.9281
198.4402 3.3022 177.9226 3252.7795 3233.5371 74.4761
199.2021 3.3044 178.5706 3253.7798 3234.5371 74.0222
199.9641 3.3068 179.2185 3254.7800 3235.5369 73.5665
200.7260 3.3093 179.8665 3255.7803 3236.5369 73.1088
201.4880 3.3119 180.5145 3256.7805 3237.5371 72.6492
202.2500 3.3146 181.1625 3257.7805 3238.5371 72.1876
203.0120 3.3173 181.8104 3258.7808 3239.5374 71.7240
203.7740 3.3200 182.4584 3259.7810 3240.5378 71.2583
204.5359 3.3225 183.1065 3260.7812 3241.5381 70.7906
205.2977 3.3248 183.7548 3261.7815 3242.5386 70.3207
206.0594 3.3269 184.4032 3262.7817 3243.5388 69.8487
206.8209 3.3286 185.0518 3263.7820 3244.5393 69.3744
207.5822 3.3301 185.7006 3264.7822 3245.5396 68.8979
208.3433 3.3312 186.3496 3265.7825 3246.5398 68.4191
209.1044 3.3319 186.9986 3266.7827 3247.5400 67.9380
209.8653 3.3324 187.6476 3267.7830 3248.5403 67.4545
210.6264 3.3326 188.2966 3268.7832 3249.5405 66.9686
211.3875 3.3326 188.9456 3269.7834 3250.5408 66.4803
212.1487 3.3323 189.5945 3270.7837 3251.5413 65.9894
212.9100 3.3319 190.2435 3271.7839 3252.5417 65.4959
213.6713 3.3314 190.8923 3272.7842 3253.5420 64.9998
214.4326 3.3308 191.5411 3273.7844 3254.5422 64.5010
215.1940 3.3302 192.1899 3274.7847 3255.5427 63.9995
215.9555 3.3294 192.8385 3275.7849 3256.5430 63.4953
216.7170 3.3286 193.4871 3276.7852 3257.5435 62.9881
217.4785 3.3277 194.1357 3277.7854 3258.5437 62.4781
218.2400 3.3266 194.7841 3278.7856 3259.5439 61.9650
219.0014 3.3253 195.4327 3279.7859 3260.5442 61.4489
219.7627 3.3239 196.0813 3280.7861 3261.5444 60.9297
220.5240 3.3223 196.7300 3281.7864 3262.5447 60.4074
221.2854 3.3206 197.3787 3282.7866 3263.5449 59.8817
222.0467 3.3189 198.0272 3283.7869 3264.5452 59.3527
222.8083 3.3172 198.6756 3284.7871 3265.5454 58.8203
223.5700 3.3157 199.3239 3285.7874 3266.5457 58.2843
224.3319 3.3144 199.9720 3286.7876 3267.5461 57.7448
225.0942 3.3131 200.6197 3287.7878 3268.5464 57.2016
225.8570 3.3120 201.2668 3288.7881 3269.5469 56.6546
226.6205 3.3109 201.9131 3289.7883 3270.5471 56.1037
227.3848 3.3097 202.5584 3290.7886 3271.5476 55.5488
228.1500 3.3084 203.2026 3291.7888 3272.5479 54.9898
228.9162 3.3070 203.8456 3292.7891 3273.5483 54.4265
229.6834 3.3055 204.4875 3293.7893 3274.5486 53.8590
230.4513 3.3039 205.1284 3294.7896 3275.5491 53.2869
231.2199 3.3021 205.7687 3295.7898 3276.5493 52.7103
231.9888 3.3001 206.4085 3296.7900 3277.5498 52.1289
232.7577 3.2980 207.0481 3297.7903 3278.5500 51.5426
233.5266 3.2957 207.6878 3298.7905 3279.5503 50.9513
234.2955 3.2931 208.3276 3299.7908 3280.5505 50.3548
235.0642 3.2902 208.9675 3300.7910 3281.5505 49.7529
235.8329 3.2869 209.6075 3301.7913 3282.5505 49.1455
236.6015 3.2832 210.2475 3302.7915 3283.5505 48.5323
237.3701 3.2790 210.8876 3303.7917 3284.5503 47.9131
238.1387 3.2745 211.5277 3304.7920 3285.5500 47.2878
238.9073 3.2697 212.1678 3305.7922 3286.5498 46.6561
239.6759 3.2647 212.8080 3306.7925 3287.5493 46.0178
240.4445 3.2598 213.4481 3307.7927 3288.5491 45.3725
241.2130 3.2551 214.0883 3308.7930 3289.5488 44.7251
241.9815 3.2506 214.7285 3309.7932 3290.5486 44.0756
242.7500 3.2465 215.3687 3310.7935 3291.5483 43.4240
243.5186 3.2427 216.0089 3311.7937 3292.5481 42.7701
244.2872 3.2393 216.6490 3312.7937 3293.5474 42.1139
245.0560 3.2361 217.2888 3313.7939 3294.5461 41.4553
245.8254 3.2330 217.9281 3314.7942 3295.5439 40.7943
246.5958 3.2300 218.5661 3315.7944 3296.5415 40.1307
247.3681 3.2268 219.2018 3316.7947 3297.5383 39.4644
248.1434 3.2235 219.8338 3317.7949 3298.5359 38.7954
248.9229 3.2201 220.4608 3318.7952 3299.5356 38.1235
249.7076 3.2165 221.0810 3319.7954 3300.5386 37.4486
250.4990 3.2127 221.6928 3320.7957 3301.5530 36.7706
251.2984 3.2088 222.2940 3321.7959 3302.5781 36.0894
252.1072 3.2046 222.8826 3322.7961 3303.6223 35.4047
252.9265 3.2002 223.4562 3323.7964 3304.6841 34.7166
253.7570 3.1954 224.0136 3324.7966 3305.7566 34.0290
254.5986 3.1903 224.5540 3325.7969 3306.8389 34.0884
255.4511 3.1848 225.0772 3326.7971 3307.9236 34.3519
256.3138 3.1789 225.5832 3327.7974 3309.0110 34.7001
257.1864 3.1726 226.0721 3328.7976 3310.0989 35.0781
258.0682 3.1660 226.5440 3329.7979 3311.1885 35.5182
258.9589 3.1594 226.9993 3330.7981 3312.2793 35.9528
259.8576 3.1530 227.4383 3331.7983 3313.3743 36.3821
260.7636 3.1473 227.8619 3332.7986 3314.4724 36.8036
261.6761 3.1430 228.2715 3333.7988 3315.5781 37.2171
262.5941 3.1404 228.6685 3334.7991 3316.6904 37.6230
263.5170 3.1395 229.0542 3335.7993 3317.8142 38.0215
264.4442 3.1395 229.4296 3336.7996 3318.9485 37.7649
265.3757 3.1398 229.7938 3337.7998 3320.0969 37.0883
266.3120 3.1402 230.1456 3338.8000 3321.2549 36.4086
267.2536 3.1402 230.4828 3339.8003 3322.4163 35.7256
268.2010 3.1394 230.8037 3340.8005 3323.5798 35.0391
269.1543 3.1374 231.1070 3341.8008 3324.7402 34.3490
270.1132 3.1342 231.3915 3342.8010 3325.8962 33.6551
271.0777 3.1301 231.6567 3343.8013 3327.0479 32.9573
272.0475 3.1254 231.9015 3344.8015 3328.1985 32.2552
273.0224 3.1198 232.1251 3345.8018 3329.3486 31.5488
274.0022 3.1131 232.3260 3346.8020 3330.4998 30.9468
274.9866 3.1056 232.5034 3347.8022 3331.6555 30.8921
275.9749 3.0982 232.6573 3348.8025 3332.8159 31.3917
276.9662 3.0908 232.7897 3349.8027 3333.9780 31.8835
277.9599 3.0832 232.9041 3350.8030 3335.1375 32.3677
278.9551 3.0761 233.0045 3351.8032 3336.2930 32.8446
279.9513 3.0703 233.0943 3352.8035 3337.4255 33.3146
280.9482 3.0661 233.1751 3353.8037 3338.5337 33.7780
281.9458 3.0635 233.2472 3354.8040 3339.6174 34.2351
282.9441 3.0618 233.3098 3355.8042 3340.6790 34.6860
283.9430 3.0605 233.3611 3356.8044 3341.7322 35.1311
284.9426 3.0595 233.3987 3357.8047 3342.7761 35.5705
285.9426 3.0584 233.4202 3358.8049 3343.8181 36.0045
286.9428 3.0573 233.4236 3359.8052 3344.8582 35.7596
287.9430 3.0561 233.4082 3360.8054 3345.8977 35.9404
288.9427 3.0548 233.3746 3361.8057 3346.9370 36.3699
289.9418 3.0536 233.3256 3362.8059 3347.9761 36.7916
290.9402 3.0524 233.2648 3363.8062 3349.0149 37.2053
291.9380 3.0513 233.1958 3364.8064 3350.0535 37.6114
292.9355 3.0505 233.1216 3365.8066 3351.0916 38.0102
293.9326 3.0497 233.0432 3366.8069 3352.1296 38.4019
294.9294 3.0492 232.9607 3367.8069 3353.1667 38.7869
295.9258 3.0487 232.8733 3368.8071 3354.2034 39.1653
296.9217 3.0482 232.7802 3369.8074 3355.2371 39.5374
297.9170 3.0479 232.6810 3370.8076 3356.2681 39.9034
298.9117 3.0476 232.5753 3371.8079 3357.2927 40.2636
299.9057 3.0474 232.4631 3372.8081 3358.3101 40.6181
300.8989 3.0472 232.3442 3373.8083 3359.3210 40.9671
301.8911 3.0472 232.2181 3374.8086 3360.3254 41.3108
302.8824 3.0473 232.0848 3375.8088 3361.3274 41.6493
303.8728 3.0475 231.9444 3376.8091 3362.3267 41.9829
304.8622 3.0477 231.7976 3377.8093 3363.3252 42.3116
305.8508 3.0481 231.6457 3378.8096 3364.3237 42.6356
306.8389 3.0485 231.4905 3379.8098 3365.3220 42.9551
307.8268 3.0490 231.3337 3380.8101 3366.3206 43.2701
308.8147 3.0494 231.1768 3381.8103 3367.3196 43.5809
309.8027 3.0499 231.0206 3382.8105 3368.3188 43.8875
310.7908 3.0502 230.8656 3383.8108 3369.3181 44.1900
311.7790 3.0505 230.7118 3384.8110 3370.3174 44.4885
312.7675 3.0506 230.5591 3385.8113 3371.3167 44.7832
313.7562 3.0507 230.4073 3386.8115 3372.3162 45.0741
314.7450 3.0509 230.2561 3387.8118 3373.3157 45.3614
315.7338 3.0512 230.1053 3388.8120 3374.3152 45.6451
316.7226 3.0517 229.9548 3389.8123 3375.3145 45.9253
317.7114 3.0527 229.8043 3390.8125 3376.3140 46.2022
318.7003 3.0543 229.6537 3391.8127 3377.3132 46.4757
319.6891 3.0567 229.5032 3392.8130 3378.3127 46.7459
320.6780 3.0599 229.3526 3393.8132 3379.3120 47.0131
321.6669 3.0642 229.2022 3394.8135 3380.3115 47.2771
322.6558 3.0694 229.0523 3395.8137 3381.3108 47.5381
323.6448 3.0756 228.9032 3396.8140 3382.3103 47.7961
324.6341 3.0824 228.7553 3397.8142 3383.3096 48.0513
325.6235 3.0898 228.6091 3398.8145 3384.3091 48.3036
326.6133 3.0975 228.4649 3399.8147 3385.3083 48.5532
327.6033 3.1054 228.3228 3400.8149 3386.3079 48.8000
328.5937 3.1134 228.1824 3401.8152 3387.3074 49.0443
329.5843 3.1215 228.0434 3402.8154 3388.3069 49.2859
330.5750 3.1300 227.9051 3403.8157 3389.3064 49.5249
331.5657 3.1388 227.7672 3404.8159 3390.3062 49.7615
332.5564 3.1482 227.6293 3405.8162 3391.3059 49.9957
333.5471 3.1581 227.4913 3406.8164 3392.3057 50.2274
334.5379 3.1684 227.3534 3407.8167 3393.3057 50.4568
335.5286 3.1790 227.2157 3408.8169 3394.3054 50.6839
336.5193 3.1898 227.0782 3409.8171 3395.3049 50.9087
337.5100 3.2007 226.9410 3410.8174 3396.3042 51.1313
338.5009 3.2115 226.8043 3411.8176 3397.3025 51.3517
339.4918 3.2223 226.6679 3412.8179 3398.2993 51.5700
340.4827 3.2331 226.5318 3413.8181 3399.2942 51.6204
341.4736 3.2437 226.3959 3414.8184 3400.2869 51.0298
342.4646 3.2541 226.2601 3415.8186 3401.2781 50.4340
343.4556 3.2643 226.1246 3416.8188 3402.2676 49.8328
344.4467 3.2743 225.9893 3417.8191 3403.2568 49.2261
345.4377 3.2840 225.8543 3418.8193 3404.2456 48.6137
346.4288 3.2932 225.7197 3419.8196 3405.2341 47.9953
347.4199 3.3020 225.5853 3420.8198 3406.2229 47.3709
348.4112 3.3105 225.4512 3421.8198 3407.2117 46.7400
349.4025 3.3186 225.3175 3422.8201 3408.2007 46.1026
350.3938 3.3266 225.1840 3423.8203 3409.1899 45.4582
351.3852 3.3345 225.0509 3424.8206 3410.1790 44.8111
352.3766 3.3425 224.9180 3425.8208 3411.1682 44.1619
353.3681 3.3508 224.7853 3426.8210 3412.1575 43.5105
354.3595 3.3593 224.6528 3427.8213 3413.1467 42.8569
355.3509 3.3683 224.5203 3428.8215 3414.1360 42.2011
356.3423 3.3777 224.3879 3429.8218 3415.1252 41.5428
357.3336 3.3873 224.2555 3430.8220 3416.1145 40.8821
358.3250 3.3969 224.1232 3431.8223 3417.1038 40.2189
359.3165 3.4063 223.9910 3432.8225 3418.0930 39.5529
360.3079 3.4152 223.8590 3433.8228 3419.0823 38.8843
361.2994 3.4233 223.7272 3434.8230 3420.0715 38.2128
362.2909 3.4306 223.5956 3435.8232 3421.0610 37.5383
363.2825 3.4369 223.4642 3436.8235 3422.0505 36.8607
364.2741 3.4422 223.3330 3437.8237 3423.0405 36.1799
365.2657 3.4467 223.2019 3438.8240 3424.0310 35.4957
366.2573 3.4505 223.0708 3439.8242 3425.0225 34.8080
367.2489 3.4539 222.9396 3440.8245 3426.0149 34.1167
368.2405 3.4570 222.8083 3441.8247 3427.0083 33.4215
369.2321 3.4599 222.6769 3442.8250 3428.0020 32.7222
370.2236 3.4628 222.5453 3443.8252 3428.9932 32.0188
371.2151 3.4656 222.4136 3444.8254 3429.9817 31.3109
372.2066 3.4685 222.2814 3445.8257 3430.9609 30.5983
373.1981 3.4715 222.1488 3446.8259 3431.9250 29.8807
374.1894 3.4746 222.0157 3447.8262 3432.8733 29.1579
375.1807 3.4778 221.8819 3448.8264 3433.7986 28.4296
376.1719 3.4811 221.7474 3449.8267 3434.7061 27.6955
377.1630 3.4846 221.6126 3450.8269 3435.6025 26.9551
378.1540 3.4883 221.4779 3451.8271 3436.4863 26.2081
379.1453 3.4921 221.3443 3452.8274 3437.3669 25.4540
380.1369 3.4959 221.2134 3453.8276 3438.2454 24.6923
381.1292 3.4997 221.0877 3454.8279 3439.1218 23.9224
382.1225 3.5035 220.9704 3455.8281 3439.9990 23.1437
383.1172 3.5070 220.8653 3456.8284 3440.8792 22.3555
384.1136 3.5104 220.7773 3457.8286 3441.7627 21.5570
385.1117 3.5135 220.7118 3458.8289 3442.6506 20.7472
386.1113 3.5164 220.6756 3459.8291 3443.5483 19.9251
387.1115 3.5190 220.6765 3460.8293 3444.4534 19.0892
388.1106 3.5214 220.7222 3461.8296 3445.3696 18.2383
389.1058 3.5236 220.8202 3462.8298 3446.2996 17.4025
390.0940 3.5255 220.9747 3463.8301 3447.2373 17.5972
391.0719 3.5273 221.1843 3464.8303 3448.1819 18.0540
392.0373 3.5290 221.4452 3465.8306 3449.1313 18.9005
392.9906 3.5310 221.7482 3466.8308 3450.0801 19.7104
393.9322 3.5331 222.0854 3467.8311 3451.0237 20.4881
394.8620 3.5356 222.4539 3468.8313 3451.9626 21.2371
395.7794 3.5383 222.8524 3469.8315 3452.8921 21.9603
396.6830 3.5411 223.2811 3470.8318 3453.8091 22.6603
397.5713 3.5442 223.7405 3471.8320 3454.7166 23.3391
398.4446 3.5474 224.2281 3472.8323 3455.6138 23.9985
399.3040 3.5508 224.7399 3473.8325 3456.5005 24.6401
400.1512 3.5545 225.2715 3474.8328 3457.3813 25.2653
400.9891 3.5586 225.8178 3475.8330 3458.2534 25.8752
401.8199 3.5632 226.3749 3476.8330 3459.1213 26.4709
402.6453 3.5682 226.9398 3477.8333 3459.9875 27.0534
403.4669 3.5736 227.5103 3478.8335 3460.8511 27.6235
404.2850 3.5794 228.0857 3479.8337 3461.7139 28.1819
405.0998 3.5853 228.6658 3480.8340 3462.5801 28.7293
405.9112 3.5913 229.2507 3481.8342 3463.4539 29.2664
406.7187 3.5972 229.8410 3482.8345 3464.3340 29.7937
407.5218 3.6029 230.4373 3483.8347 3465.2358 30.3117
408.3201 3.6083 231.0400 3484.8350 3466.1606 30.8209
409.1132 3.6134 231.6495 3485.8352 3467.1074 31.3217
409.9008 3.6182 232.2661 3486.8354 3468.0798 31.8146
410.6825 3.6227 232.8900 3487.8357 3469.0664 32.2998
411.4585 3.6269 233.5210 3488.8359 3470.0610 32.7777
412.2289 3.6306 234.1590 3489.8362 3471.0618 33.2487
412.9944 3.6340 234.8029 3490.8364 3472.0620 33.7130
413.7559 3.6372 235.4516 3491.8367 3473.0620 34.1710
414.5150 3.6401 236.1029 3492.8369 3474.0613 34.6228
415.2738 3.6428 236.7547 3493.8372 3475.0588 35.0686
416.0343 3.6454 237.4044 3494.8374 3476.0554 35.5089
416.7986 3.6480 238.0496 3495.8376 3477.0518 35.9436
417.5684 3.6507 238.6883 3496.8379 3478.0479 36.3731
418.3448 3.6536 239.3189 3497.8381 3479.0439 36.7947
419.1284 3.6566 239.9407 3498.8384 3480.0400 37.2084
419.9191 3.6598 240.5533 3499.8386 3481.0359 37.6144
420.7168 3.6632 241.1567 3500.8389 3482.0308 38.0131
421.5214 3.6667 241.7509 3501.8391 3483.0251 38.4048
422.3327 3.6702 242.3359 3502.8394 3484.0181 38.7897
423.1504 3.6737 242.9120 3503.8396 3485.0100 39.1681
423.9740 3.6769 243.4796 3504.8398 3486.0015 39.5401
424.8029 3.6799 244.0394 3505.8401 3486.9934 39.9061
425.6362 3.6826 244.5927 3506.8403 3487.9856 40.2662
426.4725 3.6849 245.1414 3507.8406 3488.9824 40.6207
427.3107 3.6868 245.6873 3508.8408 3489.9873 40.9696
428.1494 3.6885 246.2323 3509.8411 3491.0017 41.3133
428.9881 3.6900 246.7775 3510.8413 3492.0259 41.6518
429.8262 3.6913 247.3234 3511.8416 3493.0557 41.9853
430.6639 3.6925 247.8702 3512.8418 3494.0923 42.3140
431.5009 3.6940 248.4177 3513.8420 3495.1357 42.6380
432.3372 3.6958 248.9666 3514.8423 3496.1907 42.9574
433.1720 3.6982 249.5174 3515.8425 3497.2522 43.2725
434.0047 3.7010 250.0716 3516.8428 3498.3132 43.5832
434.8343 3.7040 250.6306 3517.8430 3499.3735 43.8897
435.6596 3.7067 251.1957 3518.8433 3500.4321 44.1922
436.4799 3.7087 251.7680 3519.8435 3501.4807 44.4907
437.2951 3.7097 252.3474 3520.8438 3502.5220 44.7854
438.1057 3.7095 252.9333 3521.8440 3503.5569 45.0763
438.9129 3.7078 253.5240 3522.8442 3504.5850 45.3635
439.7174 3.7048 254.1182 3523.8445 3505.6084 45.6472
440.5199 3.7009 254.7153 3524.8447 3506.6267 45.9274
441.3200 3.6962 255.3156 3525.8450 3507.6409 46.2042
442.1171 3.6912 255.9198 3526.8452 3508.6501 46.4777
442.9109 3.6862 256.5284 3527.8455 3509.6550 46.7479
443.7012 3.6817 257.1414 3528.8457 3510.6555 47.0150
444.4883 3.6781 257.7587 3529.8459 3511.6521 47.2790
445.2726 3.6752 258.3796 3530.8462 3512.6445 47.5400
446.0538 3.6730 259.0042 3531.8462 3513.6335 47.7980
446.8319 3.6710 259.6328 3532.8464 3514.6187 48.0532
447.6065 3.6691 260.2655 3533.8467 3515.6006 48.3055
448.3773 3.6670 260.9028 3534.8469 3516.5786 48.5550
449.1444 3.6648 261.5446 3535.8472 3517.5537 48.8019
449.9083 3.6623 262.1904 3536.8474 3518.5256 49.0461
450.6692 3.6596 262.8397 3537.8477 3519.4951 49.2877
451.4277 3.6568 263.4918 3538.8479 3520.4617 49.5267
452.1840 3.6541 264.1464 3539.8481 3521.4263 49.7633
452.9384 3.6517 264.8032 3540.8484 3522.3882 49.9974
453.6912 3.6498 265.4620 3541.8486 3523.3481 50.2291
454.4426 3.6484 266.1222 3542.8489 3524.3054 50.4585
455.1930 3.6476 266.7835 3543.8491 3525.2607 50.6855
455.9427 3.6475 267.4455 3544.8494 3526.2146 50.9103
456.6924 3.6477 268.1077 3545.8496 3527.1667 51.1329
457.4424 3.6479 268.7696 3546.8499 3528.1191 51.3533
458.1930 3.6477 269.4308 3547.8501 3529.0732 51.5716
458.9444 3.6471 270.0910 3548.8503 3530.0288 51.7878
459.6967 3.6463 270.7503 3549.8506 3530.9905 52.0019
460.4494 3.6453 271.4089 3550.8508 3531.9614 52.2140
461.2022 3.6441 272.0676 3551.8511 3532.9407 52.4241
461.9545 3.6427 272.7269 3552.8513 3533.9294 52.6322
462.7057 3.6413 273.3874 3553.8516 3534.9243 52.8385
463.4560 3.6394 274.0490 3554.8518 3535.9221 53.0428
464.2054 3.6370 274.7114 3555.8521 3536.9226 53.2453
464.9546 3.6342 275.3740 3556.8523 3537.9229 53.4459
465.7041 3.6314 276.0365 3557.8525 3538.9231 53.6448
466.4539 3.6285 276.6985 3558.8528 3539.9233 53.8418
467.2039 3.6253 277.3604 3559.8530 3540.9229 54.0372
467.9537 3.6220 278.0225 3560.8533 3541.9216 54.2308
468.7025 3.6189 278.6857 3561.8535 3542.9202 54.4227
469.4497 3.6157 279.3507 3562.8538 3543.9182 54.6130
470.1949 3.6122 280.0179 3563.8540 3544.9158 54.8017
470.9382 3.6086 280.6873 3564.8542 3545.9131 54.9887
471.6797 3.6050 281.3585 3565.8545 3546.9099 55.1742
472.4201 3.6013 282.0310 3566.8547 3547.9067 55.3581
473.1598 3.5973 282.7044 3567.8550 3548.9036 55.5405
473.8992 3.5931 283.3780 3568.8552 3549.8999 55.7213
474.6385 3.5888 284.0517 3569.8555 3550.8965 55.9007
475.3781 3.5845 284.7251 3570.8557 3551.8928 56.0786
476.1177 3.5803 285.3984 3571.8560 3552.8889 56.2551
476.8576 3.5763 286.0715 3572.8562 3553.8853 56.4301
477.5976 3.5722 286.7444 3573.8564 3554.8813 56.6037
478.3381 3.5681 287.4167 3574.8567 3555.8774 56.7759
479.0795 3.5640 288.0881 3575.8569 3556.8738 56.9468
479.8222 3.5599 288.7582 3576.8572 3557.8701 57.1163
480.5663 3.5558 289.4266 3577.8574 3558.8665 57.2845
481.3118 3.5516 290.0935 3578.8577 3559.8630 57.4514
482.0583 3.5475 290.7592 3579.8579 3560.8591 57.6170
482.8054 3.5433 291.4243 3580.8582 3561.8547 57.7813
483.5526 3.5392 292.0892 3581.8584 3562.8496 57.9443
484.2997 3.5352 292.7543 3582.8586 3563.8425 58.1061
485.0467 3.5311 293.4195 3583.8589 3564.8330 58.2667
485.7935 3.5269 294.0848 3584.8591 3565.8215 58.4261
486.5403 3.5226 294.7502 3585.8591 3566.8083 58.5843
487.2873 3.5182 295.4154 3586.8594 3567.7944 58.7413
488.0345 3.5136 296.0803 3587.8596 3568.7832 58.8971
488.7823 3.5090 296.7446 3588.8599 3569.7749 59.0518
489.5308 3.5044 297.4081 3589.8601 3570.7693 59.2053
490.2802 3.4999 298.0705 3590.8604 3571.7654 59.3577
491.0308 3.4956 298.7317 3591.8606 3572.7632 59.5090
491.7827 3.4914 299.3914 3592.8608 3573.7612 59.6593
492.5360 3.4874 300.0494 3593.8611 3574.7598 59.8084
493.2906 3.4836 300.7060 3594.8613 3575.7581 59.9565
494.0462 3.4798 301.3615 3595.8616 3576.7563 60.1035
494.8024 3.4760 302.0161 3596.8618 3577.7546 60.2495
495.5590 3.4722 302.6704 3597.8621 3578.7529 60.3945
496.3157 3.4684 303.3245 3598.8623 3579.7510 60.5384
497.0724 3.4646 303.9786 3599.8625 3580.7493 60.6813
497.8291 3.4608 304.6328 3600.8628 3581.7480 60.8233
498.5857 3.4571 305.2870 3601.8630 3582.7471 60.9642
499.3422 3.4534 305.9415 3602.8633 3583.7466 61.1042
500.0984 3.4498 306.5962 3603.8635 3584.7463 61.2432
500.8544 3.4463 307.2511 3604.8638 3585.7466 61.3813
501.6101 3.4429 307.9064 3605.8640 3586.7471 61.5184
502.3656 3.4395 308.5621 3606.8643 3587.7476 61.6546
503.1207 3.4360 309.2180 3607.8645 3588.7480 61.7899
503.8758 3.4324 309.8741 3608.8647 3589.7485 61.9243
504.6307 3.4287 310.5301 3609.8650 3590.7490 62.0578
505.3858 3.4247 311.1862 3610.8652 3591.7495 62.1904
506.1411 3.4207 311.8421 3611.8655 3592.7500 62.3221
506.8965 3.4166 312.4977 3612.8657 3593.7505 62.4530
507.6523 3.4125 313.1530 3613.8660 3594.7507 62.5830
508.4082 3.4086 313.8078 3614.8662 3595.7512 62.7121
509.1645 3.4050 314.4625 3615.8665 3596.7517 62.8405
509.9208 3.4019 315.1171 3616.8667 3597.7522 62.9679
510.6772 3.3994 315.7716 3617.8669 3598.7524 63.0946
511.4334 3.3974 316.4261 3618.8672 3599.7529 63.2204
512.1898 3.3958 317.0807 3619.8674 3600.7534 63.3455
512.9461 3.3948 317.7353 3620.8677 3601.7539 63.4697
513.7026 3.3941 318.3897 3621.8679 3602.7542 63.5931
514.4594 3.3936 319.0436 3622.8682 3603.7546 63.7158
515.2169 3.3933 319.6967 3623.8684 3604.7549 63.8377
515.9753 3.3930 320.3487 3624.8687 3605.7554 63.9588
516.7351 3.3925 320.9993 3625.8689 3606.7556 64.0792
517.4962 3.3919 321.6484 3626.8691 3607.7563 64.1988
518.2586 3.3909 322.2959 3627.8694 3608.7566 64.3177
519.0222 3.3897 322.9419 3628.8696 3609.7571 64.4358
519.7870 3.3882 323.5865 3629.8699 3610.7573 64.5532
520.5529 3.3864 324.2298 3630.8701 3611.7578 64.6699
521.3196 3.3844 324.8722 3631.8704 3612.7581 64.7859
522.0869 3.3822 325.5140 3632.8706 3613.7585 64.9012
522.8543 3.3799 326.1555 3633.8708 3614.7588 65.0158
523.6219 3.3775 326.7968 3634.8711 3615.7590 65.1296
524.3896 3.3751 327.4380 3635.8713 3616.7595 65.2428
525.1572 3.3728 328.0793 3636.8716 3617.7598 65.3553
525.9248 3.3707 328.7207 3637.8718 3618.7603 65.4672
526.6924 3.3686 329.3622 3638.8721 3619.7605 65.5783
527.4598 3.3667 330.0037 3639.8723 3620.7610 65.6888
528.2272 3.3649 330.6452 3640.8723 3621.7612 65.7987
528.9946 3.3633 331.2870 3641.8726 3622.7617 65.9079
529.7617 3.3617 331.9289 3642.8728 3623.7620 66.0164
530.5285 3.3601 332.5711 3643.8730 3624.7625 66.1244
531.2951 3.3587 333.2136 3644.8733 3625.7627 66.2316
532.0614 3.3573 333.8564 3645.8735 3626.7632 66.3383
532.8275 3.3561 334.4996 3646.8738 3627.7634 66.4443
533.5931 3.3552 335.1432 3647.8740 3628.7639 66.5498
534.3583 3.3546 335.7873 3648.8743 3629.7642 66.6546
535.1231 3.3543 336.4319 3649.8745 3630.7646 66.7588
535.8875 3.3544 337.0770 3650.8748 3631.7649 66.8624
536.6514 3.3549 337.7226 3651.8750 3632.7654 66.9654
537.4151 3.3556 338.3686 3652.8752 3633.7656 67.0679
538.1785 3.3565 339.0148 3653.8755 3634.7661 67.1697
538.9418 3.3574 339.6612 3654.8757 3635.7664 67.2710
539.7049 3.3583 340.3078 3655.8760 3636.7668 67.3717
540.4678 3.3591 340.9546 3656.8762 3637.7671 67.4718
541.2305 3.3599 341.6017 3657.8765 3638.7676 67.5714
541.9930 3.3608 342.2490 3658.8767 3639.7678 67.6704
542.7553 3.3621 342.8966 3659.8770 3640.7683 67.7689
543.5175 3.3639 343.5444 3660.8772 3641.7688 67.8668
544.2795 3.3661 344.1923 3661.8774 3642.7693 67.9641
545.0414 3.3689 344.8402 3662.8777 3643.7700 68.0610
545.8034 3.3720 345.4882 3663.8779 3644.7710 68.1572
546.5654 3.3754 346.1363 3664.8782 3645.7722 68.2530
547.3273 3.3792 346.7843 3665.8784 3646.7737 68.3482
548.0894 3.3831 347.4323 3666.8787 3647.7749 68.4429
548.8513 3.3872 348.0803 3667.8789 3648.7761 68.5371
549.6133 3.3915 348.7283 3668.8792 3649.7776 68.6308
550.3752 3.3959 349.3763 3669.8794 3650.7788 68.7240
551.1371 3.4005 350.0243 3670.8796 3651.7803 68.8167
551.8992 3.4051 350.6722 3671.8799 3652.7815 68.9088
552.6612 3.4097 351.3202 3672.8801 3653.7830 69.0005
553.4232 3.4145 351.9682 3673.8804 3654.7842 69.0917
554.1851 3.4193 352.6161 3674.8806 3655.7856 69.1823
554.9471 3.4243 353.2641 3675.8809 3656.7869 69.2725
555.7092 3.4293 353.9121 3676.8811 3657.7883 69.3623
556.4711 3.4344 354.5602 3677.8813 3658.7896 69.4515
557.2332 3.4395 355.2082 3678.8816 3659.7910 69.5403
557.9951 3.4447 355.8562 3679.8818 3660.7922 69.6286
558.7571 3.4500 356.5043 3680.8821 3661.7937 69.7164
559.5190 3.4553 357.1524 3681.8823 3662.7949 69.8038
560.2809 3.4606 357.8006 3682.8826 3663.7964 69.8907
561.0427 3.4659 358.4488 3683.8828 3664.7976 69.9771
561.8044 3.4713 359.0969 3684.8831 3665.7988 70.0631
562.5663 3.4768 359.7449 3685.8833 3666.8000 70.1487
563.3286 3.4822 360.3925 3686.8835 3667.8013 70.2338
564.0914 3.4877 361.0395 3687.8838 3668.8025 70.3185
564.8550 3.4931 361.6855 3688.8840 3669.8040 70.4027
565.6199 3.4985 362.3302 3689.8843 3670.8052 70.4865
566.3859 3.5038 362.9733 3690.8845 3671.8064 70.5699
567.1531 3.5090 363.6150 3691.8848 3672.8076 70.6528
567.9216 3.5143 364.2552 3692.8850 3673.8088 70.7353
568.6912 3.5195 364.8942 3693.8853 3674.8101 70.8174
569.4618 3.5249 365.5320 3694.8855 3675.8113 70.8991
570.2332 3.5303 366.1688 3695.8855 3676.8123 70.9803
571.0052 3.5357 366.8047 3696.8857 3677.8135 71.0612
571.7778 3.5412 367.4400 3697.8860 3678.8145 71.1416
572.5507 3.5467 368.0749 3698.8862 3679.8157 71.2216
573.3236 3.5520 368.7097 3699.8865 3680.8167 71.3012
574.0964 3.5571 369.3447 3700.8867 3681.8181 71.3805
574.8688 3.5619 369.9803 3701.8870 3682.8193 71.4593
575.6403 3.5665 370.6169 3702.8872 3683.8208 71.4800
576.4105 3.5709 371.2550 3703.8875 3684.8225 71.0133
577.1794 3.5752 371.8946 3704.8877 3685.8242 70.5444
577.9470 3.5795 372.5361 3705.8879 3686.8259 70.0734
578.7128 3.5838 373.1797 3706.8882 3687.8271 69.6002
579.4768 3.5882 373.8253 3707.8884 3688.8271 69.1248
580.2389 3.5929 374.4732 3708.8887 3689.8252 68.6471
580.9990 3.5980 375.1234 3709.8889 3690.8206 68.1671
581.7569 3.6034 375.7761 3710.8892 3691.8123 67.6847
582.5128 3.6091 376.4312 3711.8894 3692.8013 67.2000
583.2669 3.6150 377.0883 3712.8896 3693.7878 66.7128
584.0195 3.6212 377.7472 3713.8899 3694.7727 66.2231
584.7711 3.6276 378.4073 3714.8901 3695.7568 65.7309
585.5219 3.6342 379.0683 3715.8904 3696.7400 65.2360
586.2722 3.6411 379.7298 3716.8906 3697.7229 64.7385
587.0219 3.6482 380.3919 3717.8909 3698.7051 64.2383
587.7708 3.6556 381.0549 3718.8911 3699.6868 63.7354
588.5183 3.6634 381.7194 3719.8914 3700.6685 63.2296
589.2637 3.6715 382.3862 3720.8916 3701.6494 62.7210
590.0062 3.6800 383.0564 3721.8918 3702.6304 62.2093
590.7448 3.6886 383.7307 3722.8921 3703.6108 61.6947
591.4789 3.6973 384.4101 3723.8923 3704.5913 61.1770
592.2080 3.7057 385.0950 3724.8926 3705.5715 60.6561
592.9318 3.7136 385.7855 3725.8928 3706.5515 60.1320
593.6499 3.7207 386.4817 3726.8931 3707.5315 60.1234
594.3626 3.7269 387.1835 3727.8933 3708.5112 60.1240
595.0697 3.7322 387.8911 3728.8936 3709.4910 60.1252
595.7711 3.7367 388.6042 3729.8938 3710.4709 60.2710
596.4669 3.7403 389.3228 3730.8940 3711.4507 60.4158
597.1571 3.7435 390.0467 3731.8943 3712.4304 60.5596
597.8418 3.7463 390.7759 3732.8945 3713.4104 60.7024
598.5211 3.7489 391.5102 3733.8948 3714.3906 60.8442
599.1953 3.7514 392.2491 3734.8950 3715.3711 60.9850
599.8648 3.7540 392.9921 3735.8953 3716.3516 61.1248
600.5306 3.7567 393.7385 3736.8955 3717.3325 61.2637
601.1936 3.7598 394.4873 3737.8958 3718.3137 61.4017
601.8550 3.7632 395.2377 3738.8960 3719.2957 61.5387
602.5154 3.7670 395.9889 3739.8962 3720.2778 61.6747
603.1755 3.7711 396.7404 3740.8965 3721.2607 61.8099
603.8356 3.7754 397.4919 3741.8967 3722.2444 61.9442
604.4957 3.7799 398.2434 3742.8970 3723.2285 62.0775
605.1555 3.7844 398.9951 3743.8972 3724.2131 61.8141
605.8145 3.7888 399.7476 3744.8975 3725.1982 61.2972
606.4721 3.7931 400.5013 3745.8977 3726.1831 60.7770
607.1279 3.7971 401.2565 3746.8979 3727.1680 60.2537
607.7816 3.8010 402.0136 3747.8982 3728.1531 59.7271
608.4330 3.8049 402.7726 3748.8984 3729.1372 59.1971
609.0820 3.8088 403.5338 3749.8987 3730.1208 58.6636
609.7283 3.8130 404.2972 3750.8987 3731.1038 58.1267
610.3712 3.8176 405.0634 3751.8989 3732.0862 57.5860
611.0103 3.8227 405.8328 3752.8992 3733.0681 57.0417
611.6447 3.8282 406.6062 3753.8994 3734.0493 56.4936
612.2733 3.8340 407.3841 3754.8997 3735.0303 55.9415
612.8955 3.8399 408.1671 3755.8999 3736.0107 55.3854
613.5107 3.8459 408.9558 3756.9001 3736.9912 55.5676
614.1188 3.8517 409.7500 3757.9004 3737.9712 55.7482
614.7198 3.8570 410.5495 3758.9006 3738.9509 55.9273
615.3147 3.8620 411.3536 3759.9009 3739.9302 56.1050
615.9042 3.8665 412.1616 3760.9011 3740.9097 56.2813
616.4897 3.8706 412.9726 3761.9014 3741.8889 56.4561
617.0723 3.8745 413.7857 3762.9016 3742.8682 56.6295
617.6530 3.8782 414.6002 3763.9019 3743.8477 56.8015
618.2320 3.8818 415.4158 3764.9021 3744.8269 56.9722
618.8097 3.8855 416.2324 3765.9023 3745.8066 57.1415
619.3860 3.8894 417.0499 3766.9026 3746.7864 57.3095
619.9611 3.8935 417.8683 3767.9028 3747.7661 57.4762
620.5347 3.8980 418.6877 3768.9031 3748.7461 57.6416
621.1068 3.9029 419.5081 3769.9033 3749.7263 57.8057
621.6775 3.9082 420.3295 3770.9036 3750.7068 57.9685
622.2466 3.9139 421.1520 3771.9038 3751.6873 58.1302
622.8141 3.9200 421.9756 3772.9041 3752.6682 58.2906
623.3801 3.9264 422.8004 3773.9043 3753.6497 58.4498
623.9442 3.9328 423.6264 3774.9045 3754.6311 58.6077
624.5064 3.9392 424.4537 3775.9048 3755.6128 58.7646
625.0664 3.9455 425.2825 3776.9050 3756.5950 58.9202
625.6238 3.9515 426.1131 3777.9053 3757.5776 59.0747
626.1782 3.9572 426.9456 3778.9055 3758.5608 59.2281
626.7293 3.9625 427.7802 3779.9058 3759.5444 59.3804
627.2767 3.9674 428.6173 3780.9060 3760.5286 59.5315
627.8200 3.9720 429.4571 3781.9062 3761.5132 59.6816
628.3590 3.9763 430.2997 3782.9065 3762.4988 59.8306
628.8932 3.9803 431.1454 3783.9067 3763.4844 59.9785
629.4223 3.9840 431.9943 3784.9070 3764.4705 60.1254
629.9456 3.9876 432.8467 3785.9072 3765.4568 60.2712
630.4629 3.9909 433.7029 3786.9075 3766.4429 60.4160
630.9738 3.9942 434.5627 3787.9077 3767.4287 60.5598
631.4785 3.9974 435.4262 3788.9080 3768.4141 60.7025
631.9774 4.0006 436.2931 3789.9082 3769.3992 60.8443
632.4710 4.0039 437.1630 3790.9084 3770.3840 60.9851
632.9602 4.0074 438.0355 3791.9087 3771.3687 61.1250
633.4458 4.0111 438.9100 3792.9089 3772.3528 61.2639
633.9282 4.0151 439.7863 3793.9092 3773.3369 61.4018
634.4078 4.0194 440.6641 3794.9094 3774.3208 61.5388
634.8846 4.0239 441.5434 3795.9097 3775.3044 61.6749
635.3586 4.0286 442.4243 3796.9099 3776.2881 61.8100
635.8296 4.0335 443.3067 3797.9102 3777.2715 61.9443
636.2976 4.0384 444.1908 3798.9104 3778.2549 62.0776
636.7625 4.0434 445.0763 3799.9106 3779.2380 62.2101
637.2244 4.0484 445.9634 3800.9109 3780.2212 62.3417
637.6834 4.0534 446.8521 3801.9111 3781.2043 62.4724
638.1397 4.0583 447.7422 3802.9114 3782.1875 62.6023
638.5934 4.0633 448.6337 3803.9116 3783.1709 62.7313
639.0450 4.0683 449.5262 3804.9116 3784.1543 62.8595
639.4948 4.0735 450.4197 3805.9119 3785.1377 62.9869
639.9427 4.0789 451.3140 3806.9121 3786.1211 63.1134
640.3890 4.0844 452.2092 3807.9124 3787.1047 63.2391
640.8336 4.0901 453.1053 3808.9126 3788.0884 63.3640
641.2764 4.0959 454.0022 3809.9128 3789.0723 63.4882
641.7175 4.1017 454.9000 3810.9131 3790.0564 63.6115
642.1567 4.1075 455.7986 3811.9133 3791.0405 63.7340
642.5941 4.1132 456.6982 3812.9136 3792.0249 63.8558
643.0297 4.1187 457.5986 3813.9138 3793.0093 63.9768
643.4637 4.1242 458.4998 3814.9141 3793.9941 64.0971
643.8960 4.1296 459.4018 3815.9143 3794.9790 64.2166
644.3266 4.1350 460.3047 3816.9146 3795.9644 64.3354
644.7556 4.1405 461.2083 3817.9148 3796.9497 64.4534
645.1829 4.1462 462.1127 3818.9150 3797.9355 64.5707
645.6087 4.1520 463.0179 3819.9153 3798.9219 64.6873
646.0326 4.1582 463.9238 3820.9155 3799.9089 64.8032
646.4545 4.1646 464.8307 3821.9158 3800.8967 64.9183
646.8741 4.1711 465.7386 3822.9160 3801.8860 65.0328
647.2913 4.1777 466.6476 3823.9163 3802.8762 65.1466
647.7059 4.1843 467.5579 3824.9165 3803.8674 65.2596
648.1176 4.1907 468.4694 3825.9167 3804.8591 65.3720
648.5261 4.1970 469.3823 3826.9170 3805.8508 65.4838
648.9313 4.2032 470.2968 3827.9172 3806.8428 65.5948
649.3329 4.2092 471.2129 3828.9175 3807.8345 65.7053
649.7304 4.2150 472.1307 3829.9177 3808.8259 65.8150
650.1236 4.2206 473.0503 3830.9180 3809.8171 65.9241
650.5123 4.2260 473.9719 3831.9182 3810.8081 66.0326
650.8965 4.2311 474.8953 3832.9185 3811.7988 66.1404
651.2759 4.2358 475.8207 3833.9187 3812.7893 66.2476
651.6508 4.2401 476.7480 3834.9189 3813.7798 66.3542
652.0211 4.2442 477.6772 3835.9192 3814.7700 66.4601
652.3867 4.2482 478.6083 3836.9194 3815.7603 66.5654
652.7478 4.2520 479.5411 3837.9197 3816.7502 66.6702
653.1044 4.2558 480.4756 3838.9199 3817.7400 66.7743
653.4565 4.2596 481.4117 3839.9202 3818.7297 66.8778
653.8044 4.2634 482.3494 3840.9204 3819.7192 66.9808
654.1484 4.2671 483.2886 3841.9207 3820.7087 67.0831
654.4888 4.2706 484.2292 3842.9209 3821.6982 67.1849
654.8260 4.2740 485.1709 3843.9211 3822.6877 67.2860
655.1605 4.2772 486.1136 3844.9214 3823.6770 67.3867
655.4926 4.2802 487.0571 3845.9216 3824.6663 67.4867
655.8222 4.2830 488.0013 3846.9219 3825.6555 67.5862
656.1495 4.2854 488.9464 3847.9221 3826.6448 67.6851
656.4745 4.2876 489.8924 3848.9224 3827.6340 67.7835
656.7970 4.2895 490.8392 3849.9226 3828.6235 67.8813
657.1171 4.2912 491.7868 3850.9229 3829.6128 67.9786
657.4349 4.2926 492.7352 3851.9231 3830.6023 68.0753
657.7505 4.2937 493.6843 3852.9233 3831.5916 68.1716
658.0645 4.2946 494.6340 3853.9236 3832.5811 68.2672
658.3772 4.2952 495.5842 3854.9238 3833.5706 68.3624
658.6891 4.2956 496.5345 3855.9241 3834.5603 68.4570
659.0006 4.2958 497.4850 3856.9243 3835.5500 68.5511
659.3121 4.2958 498.4355 3857.9246 3836.5400 68.6447
659.6236 4.2956 499.3860 3858.9248 3837.5300 68.7378
659.9352 4.2954 500.3365 3859.9248 3838.5203 68.8304
660.2468 4.2952 501.2869 3860.9250 3839.5105 68.9225
660.5586 4.2948 502.2374 3861.9253 3840.5010 69.0141
660.8704 4.2945 503.1878 3862.9255 3841.4917 69.1052
661.1821 4.2941 504.1382 3863.9258 3842.4827 69.1958
661.4940 4.2937 505.0886 3864.9260 3843.4734 69.2860
661.8057 4.2931 506.0390 3865.9263 3844.4644 69.3756
662.1176 4.2923 506.9894 3866.9265 3845.4553 69.4648
662.4293 4.2911 507.9398 3867.9268 3846.4465 69.5535
662.7411 4.2896 508.8902 3868.9270 3847.4375 69.6417
663.0530 4.2876 509.8406 3869.9272 3848.4287 69.7295
663.3649 4.2852 510.7909 3870.9275 3849.4204 69.8168
663.6771 4.2822 511.7412 3871.9277 3850.4121 69.9036
663.9893 4.2788 512.6915 3872.9280 3851.4048 69.9900
664.3018 4.2752 513.6418 3873.9282 3852.3979 70.0759
664.6143 4.2714 514.5920 3874.9285 3853.3928 70.1614
664.9269 4.2677 515.5421 3875.9287 3854.3894 70.2465
665.2393 4.2642 516.4923 3876.9290 3855.3870 70.3311
665.5514 4.2610 517.4426 3877.9292 3856.3862 70.4152
665.8629 4.2582 518.3932 3878.9294 3857.3860 70.4990
666.1732 4.2556 519.3441 3879.9297 3858.3860 70.5823
666.4821 4.2532 520.2955 3880.9299 3859.3862 70.6651
666.7892 4.2508 521.2474 3881.9302 3860.3865 70.7476
667.0944 4.2482 522.2000 3882.9304 3861.3867 70.8296
667.3977 4.2453 523.1532 3883.9307 3862.3870 70.9112
667.6993 4.2422 524.1069 3884.9309 3863.3872 70.9924
667.9996 4.2389 525.0610 3885.9312 3864.3872 71.0732
668.2988 4.2354 526.0154 3886.9314 3865.3872 71.1536
668.5968 4.2318 526.9702 3887.9316 3866.3872 71.2335
668.8939 4.2281 527.9252 3888.9319 3867.3872 71.3131
669.1900 4.2244 528.8806 3889.9321 3868.3872 71.3923
669.4854 4.2208 529.8361 3890.9324 3869.3872 71.4710
669.7804 4.2171 530.7918 3891.9326 3870.3872 71.5494
670.0751 4.2133 531.7476 3892.9329 3871.3872 71.6273
670.3696 4.2092 532.7035 3893.9331 3872.3870 71.7049
670.6640 4.2050 533.6594 3894.9333 3873.3870 71.7821
670.9585 4.2004 534.6152 3895.9336 3874.3872 71.8590
671.2530 4.1957 535.5712 3896.9338 3875.3872 71.9354
671.5475 4.1907 536.5272 3897.9341 3876.3872 72.0114
671.8420 4.1857 537.4830 3898.9343 3877.3872 72.0871
672.1366 4.1809 538.4388 3899.9346 3878.3872 72.1624
672.4312 4.1762 539.3947 3900.9348 3879.3872 72.2374
672.7258 4.1719 540.3505 3901.9351 3880.3872 72.3120
673.0203 4.1679 541.3063 3902.9353 3881.3872 72.3862
673.3149 4.1643 542.2621 3903.9355 3882.3872 72.4600
673.6094 4.1609 543.2180 3904.9358 3883.3872 72.5335
673.9040 4.1576 544.1738 3905.9360 3884.3872 72.6066
674.1984 4.1542 545.1298 3906.9363 3885.3872 72.6794
674.4929 4.1505 546.0856 3907.9365 3886.3872 72.7518
674.7873 4.1463 547.0415 3908.9368 3887.3872 72.8239
675.0818 4.1415 547.9974 3909.9370 3888.3872 72.8956
675.3764 4.1361 548.9532 3910.9373 3889.3872 72.9670
675.6713 4.1301 549.9089 3911.9375 3890.3872 73.0380
675.9669 4.1237 550.8646 3912.9377 3891.3875 73.1087
676.2632 4.1170 551.8199 3913.9380 3892.3875 73.1790
676.5604 4.1102 552.7750 3914.9380 3893.3875 73.2491
676.8583 4.1036 553.7297 3915.9382 3894.3875 73.3187
677.1567 4.0972 554.6844 3916.9385 3895.3875 73.3881
677.4551 4.0912 555.6391 3917.9387 3896.3875 73.4571
677.7531 4.0857 556.5938 3918.9390 3897.3875 73.5258
678.0509 4.0807 557.5486 3919.9392 3898.3875 73.5942
678.3485 4.0762 558.5035 3920.9395 3899.3875 73.6622
678.6465 4.0720 559.4584 3921.9397 3900.3875 73.7299
678.9449 4.0682 560.4131 3922.9399 3901.3877 73.7973
679.2436 4.0647 561.3677 3923.9402 3902.3877 73.8644
679.5422 4.0613 562.3223 3924.9404 3903.3877 73.9312
679.8402 4.0579 563.2771 3925.9407 3904.3877 73.9977
680.1375 4.0544 564.2321 3926.9409 3905.3877 74.0638
680.4339 4.0507 565.1874 3927.9412 3906.3877 74.1296
680.7297 4.0466 566.1428 3928.9414 3907.3877 74.1952
681.0249 4.0423 567.0984 3929.9417 3908.3877 74.2604
681.3197 4.0377 568.0542 3930.9419 3909.3877 74.3253
681.6141 4.0330 569.0101 3931.9421 3910.3877 74.3900
681.9080 4.0282 569.9662 3932.9424 3911.3877 74.4543
682.2009 4.0234 570.9225 3933.9426 3912.3877 74.5183
682.4926 4.0187 571.8793 3934.9429 3913.3877 74.5821
682.7829 4.0140 572.8364 3935.9431 3914.3877 74.6455
683.0718 4.0095 573.7939 3936.9434 3915.3877 74.7086
683.3599 4.0050 574.7518 3937.9436 3916.3877 74.7715
683.6477 4.0005 575.7097 3938.9438 3917.3877 74.8341
683.9358 3.9959 576.6675 3939.9441 3918.3879 74.8964
684.2246 3.9911 577.6251 3940.9443 3919.3882 74.9584
684.5148 3.9861 578.5823 3941.9446 3920.3884 75.0201
684.8063 3.9809 579.5391 3942.9448 3921.3887 75.0815
685.0991 3.9755 580.4955 3943.9451 3922.3892 75.1427
685.3928 3.9700 581.4517 3944.9453 3923.3896 75.2036
685.6871 3.9645 582.4077 3945.9456 3924.3901 75.2642
685.9818 3.9592 583.3636 3946.9458 3925.3906 75.3245
686.2764 3.9539 584.3195 3947.9460 3926.3911 75.3846
686.5710 3.9489 585.2753 3948.9463 3927.3916 75.4444
686.8656 3.9440 586.2312 3949.9465 3928.3918 75.5039
687.1601 3.9392 587.1871 3950.9468 3929.3923 75.5631
687.4545 3.9344 588.1429 3951.9470 3930.3926 75.6221
687.7490 3.9296 589.0988 3952.9473 3931.3928 75.6808
688.0435 3.9248 590.0547 3953.9475 3932.3933 75.7393
688.3380 3.9198 591.0106 3954.9478 3933.3936 75.7975
688.6325 3.9148 591.9664 3955.9480 3934.3940 75.8555
688.9270 3.9098 592.9223 3956.9482 3935.3943 75.9131
689.2216 3.9047 593.8782 3957.9485 3936.3948 75.9706
689.5162 3.8997 594.8342 3958.9487 3937.3953 76.0277
689.8107 3.8948 595.7900 3959.9490 3938.3958 76.0847
690.1053 3.8901 596.7459 3960.9492 3939.3960 76.1413
690.3999 3.8856 597.7017 3961.9495 3940.3965 76.1977
690.6945 3.8814 598.6576 3962.9497 3941.3967 76.2539
690.9890 3.8773 599.6135 3963.9500 3942.3972 76.3098
691.2836 3.8735 600.5693 3964.9502 3943.3975 76.3655
691.5781 3.8698 601.5252 3965.9504 3944.3979 76.4209
691.8727 3.8662 602.4811 3966.9507 3945.3982 76.4761
692.1672 3.8626 603.4369 3967.9509 3946.3987 76.5311
692.4618 3.8590 604.3928 3968.9512 3947.3989 76.5858
692.7563 3.8551 605.3486 3969.9512 3948.3994 76.6403
693.0509 3.8511 606.3044 3970.9514 3949.3997 76.6945
693.3455 3.8469 607.2603 3971.9517 3950.4001 76.7485
693.6400 3.8425 608.2161 3972.9519 3951.4004 76.8022
693.9346 3.8379 609.1719 3973.9521 3952.4009 76.8558
694.2292 3.8331 610.1277 3974.9524 3953.4011 76.9090
694.5237 3.8284 611.0836 3975.9526 3954.4016 76.9621
694.8182 3.8237 612.0394 3976.9529 3955.4019 77.0150
695.1129 3.8192 612.9953 3977.9531 3956.4023 77.0676
695.4074 3.8147 613.9512 3978.9534 3957.4026 77.1199
695.7020 3.8103 614.9070 3979.9536 3958.4031 77.1721
695.9966 3.8059 615.8629 3980.9539 3959.4033 77.2240
696.2913 3.8016 616.8187 3981.9541 3960.4036 77.2757
696.5859 3.7973 617.7745 3982.9543 3961.4041 77.3272
