VERSION 0.7
FIELDS x y z arclength lapdistance speed
SIZE 4 4 4 4 4 4
TYPE F F F F F F
COUNT 1 1 1 1 1 1
WIDTH 908
HEIGHT 1
VIEWPOINT 0.000 0.000 0.000 1.000 0.000 0.000 0.000
POINTS 908
DATA ascii
98.1180 3.3117 -452.9110 2494.3889 2522.7629 87.9921
97.9367 3.3133 -451.9274 2495.3892 2523.7781 88.0045
97.7531 3.3150 -450.9442 2496.3892 2524.7935 88.0169
97.5672 3.3167 -449.9615 2497.3894 2525.8091 88.0292
97.3790 3.3185 -448.9792 2498.3896 2526.8247 88.0414
97.1885 3.3203 -447.9973 2499.3896 2527.8406 88.0536
96.9957 3.3222 -447.0159 2500.3899 2528.8562 88.0658
96.8006 3.3240 -446.0350 2501.3899 2529.8721 88.0779
96.6032 3.3259 -445.0545 2502.3901 2530.8882 88.0900
96.4036 3.3279 -444.0744 2503.3904 2531.9041 88.1020
96.2016 3.3298 -443.0949 2504.3904 2532.9202 88.1140
95.9973 3.3318 -442.1158 2505.3906 2533.9365 88.1260
95.7907 3.3337 -441.1372 2506.3909 2534.9534 88.1379
95.5817 3.3357 -440.1591 2507.3909 2535.9705 88.1497
95.3704 3.3377 -439.1815 2508.3911 2536.9878 88.1616
95.1567 3.3397 -438.2044 2509.3914 2538.0051 88.1733
94.9406 3.3417 -437.2279 2510.3914 2539.0222 88.1851
94.7221 3.3438 -436.2519 2511.3916 2540.0393 88.1967
94.5011 3.3459 -435.2765 2512.3916 2541.0557 88.2084
94.2776 3.3480 -434.3016 2513.3918 2542.0718 88.2200
94.0517 3.3502 -433.3273 2514.3921 2543.0876 88.2315
93.8233 3.3524 -432.3536 2515.3921 2544.1033 88.2430
93.5925 3.3547 -431.3804 2516.3923 2545.1189 88.2545
93.3592 3.3569 -430.4079 2517.3926 2546.1343 88.2660
93.1235 3.3592 -429.4359 2518.3926 2547.1497 88.2773
92.8854 3.3615 -428.4645 2519.3928 2548.1646 88.2887
92.6448 3.3639 -427.4937 2520.3931 2549.1794 88.3000
92.4019 3.3662 -426.5236 2521.3931 2550.1941 88.3113
92.1565 3.3685 -425.5540 2522.3933 2551.2087 88.3225
91.9089 3.3709 -424.5850 2523.3936 2552.2234 88.3337
91.6589 3.3733 -423.6165 2524.3936 2553.2380 88.3448
91.4067 3.3757 -422.6487 2525.3938 2554.2527 88.3559
91.1524 3.3781 -421.6814 2526.3938 2555.2673 88.3670
90.8958 3.3806 -420.7147 2527.3940 2556.2820 88.3780
90.6372 3.3832 -419.7486 2528.3943 2557.2964 88.3890
90.3765 3.3858 -418.7830 2529.3943 2558.3110 88.3999
90.1138 3.3884 -417.8179 2530.3945 2559.3257 88.4108
89.8491 3.3911 -416.8535 2531.3948 2560.3403 88.4217
89.5823 3.3936 -415.8895 2532.3948 2561.3550 88.4325
89.3135 3.3961 -414.9261 2533.3950 2562.3696 88.4433
89.0427 3.3984 -413.9633 2534.3953 2563.3843 88.4540
88.7699 3.4005 -413.0011 2535.3953 2564.3989 88.4647
88.4952 3.4024 -412.0394 2536.3955 2565.4133 88.4754
88.2184 3.4041 -411.0783 2537.3955 2566.4275 88.4860
87.9397 3.4054 -410.1178 2538.3958 2567.4390 88.4966
87.6590 3.4064 -409.1579 2539.3960 2568.4485 88.5072
87.3764 3.4071 -408.1985 2540.3960 2569.4561 88.5177
87.0918 3.4075 -407.2397 2541.3962 2570.4626 88.5281
86.8054 3.4076 -406.2814 2542.3965 2571.4685 88.5386
86.5171 3.4074 -405.3237 2543.3965 2572.4741 88.5490
86.2270 3.4069 -404.3665 2544.3967 2573.4800 88.5593
85.9350 3.4061 -403.4099 2545.3970 2574.4866 88.5696
85.6412 3.4050 -402.4539 2546.3970 2575.4934 88.5799
85.3455 3.4037 -401.4984 2547.3972 2576.5005 88.5902
85.0479 3.4021 -400.5435 2548.3972 2577.5071 88.6004
84.7484 3.4004 -399.5893 2549.3975 2578.5139 88.6106
84.4470 3.3985 -398.6356 2550.3977 2579.5205 88.6207
84.1435 3.3965 -397.6826 2551.3977 2580.5271 88.6308
83.8381 3.3945 -396.7302 2552.3979 2581.5332 88.6409
83.5306 3.3923 -395.7785 2553.3982 2582.5393 88.6509
83.2212 3.3902 -394.8275 2554.3982 2583.5452 88.6609
82.9097 3.3880 -393.8770 2555.3984 2584.5510 88.6708
82.5965 3.3858 -392.9272 2556.3987 2585.5569 88.6807
82.2815 3.3835 -391.9780 2557.3987 2586.5625 88.6906
81.9649 3.3811 -391.0293 2558.3989 2587.5681 88.7005
81.6467 3.3786 -390.0811 2559.3992 2588.5737 88.7103
81.3271 3.3761 -389.1334 2560.3992 2589.5789 88.7201
81.0061 3.3735 -388.1862 2561.3994 2590.5842 88.7298
80.6837 3.3707 -387.2394 2562.3994 2591.5894 88.7395
80.3601 3.3679 -386.2930 2563.3997 2592.5942 88.7492
80.0352 3.3651 -385.3471 2564.3999 2593.5994 88.7588
79.7090 3.3621 -384.4016 2565.3999 2594.6045 88.7684
79.3816 3.3592 -383.4566 2566.4001 2595.6094 88.7780
79.0529 3.3562 -382.5120 2567.4004 2596.6145 88.7875
78.7230 3.3533 -381.5678 2568.4004 2597.6194 88.7970
78.3919 3.3503 -380.6241 2569.4006 2598.6245 88.8065
78.0595 3.3474 -379.6808 2570.4009 2599.6294 88.8159
77.7260 3.3445 -378.7379 2571.4009 2600.6348 88.8253
77.3914 3.3416 -377.7954 2572.4011 2601.6399 88.8346
77.0558 3.3387 -376.8532 2573.4011 2602.6448 88.8440
76.7191 3.3357 -375.9115 2574.4014 2603.6499 88.8533
76.3815 3.3327 -374.9700 2575.4016 2604.6545 88.8625
76.0429 3.3296 -374.0289 2576.4016 2605.6589 88.8717
75.7035 3.3264 -373.0881 2577.4019 2606.6628 88.8809
75.3633 3.3231 -372.1476 2578.4021 2607.6658 88.8901
75.0223 3.3198 -371.2074 2579.4021 2608.6680 88.8992
74.6804 3.3163 -370.2675 2580.4023 2609.6689 88.9083
74.3376 3.3128 -369.3279 2581.4026 2610.6694 88.9174
73.9940 3.3092 -368.3886 2582.4026 2611.6694 88.9264
73.6496 3.3057 -367.4496 2583.4028 2612.6692 88.9354
73.3042 3.3021 -366.5109 2584.4028 2613.6689 88.9444
72.9580 3.2985 -365.5726 2585.4031 2614.6689 88.9533
72.6109 3.2950 -364.6346 2586.4033 2615.6692 88.9622
72.2629 3.2915 -363.6969 2587.4033 2616.6692 88.9711
71.9142 3.2881 -362.7595 2588.4036 2617.6694 88.9799
71.5648 3.2846 -361.8224 2589.4038 2618.6697 88.9887
71.2147 3.2812 -360.8855 2590.4038 2619.6697 88.9975
70.8641 3.2778 -359.9488 2591.4041 2620.6699 89.0062
70.5130 3.2745 -359.0123 2592.4043 2621.6702 89.0149
70.1614 3.2711 -358.0759 2593.4043 2622.6702 89.0236
69.8095 3.2678 -357.1397 2594.4045 2623.6704 89.0323
69.4572 3.2645 -356.2036 2595.4048 2624.6707 89.0409
69.1047 3.2611 -355.2677 2596.4048 2625.6707 89.0495
68.7519 3.2577 -354.3318 2597.4050 2626.6709 89.0580
68.3989 3.2543 -353.3960 2598.4050 2627.6709 89.0665
68.0458 3.2508 -352.4603 2599.4053 2628.6711 89.0750
67.6926 3.2472 -351.5245 2600.4055 2629.6714 89.0835
67.3394 3.2434 -350.5888 2601.4055 2630.6714 89.0919
66.9861 3.2396 -349.6531 2602.4058 2631.6716 89.1003
66.6329 3.2356 -348.7174 2603.4060 2632.6719 89.1087
66.2797 3.2315 -347.7817 2604.4060 2633.6719 89.1170
65.9265 3.2275 -346.8460 2605.4062 2634.6721 89.1254
65.5733 3.2234 -345.9103 2606.4065 2635.6724 89.1336
65.2201 3.2193 -344.9746 2607.4065 2636.6726 89.1419
64.8668 3.2154 -344.0389 2608.4067 2637.6729 89.1501
64.5136 3.2115 -343.1032 2609.4067 2638.6729 89.1583
64.1604 3.2078 -342.1675 2610.4070 2639.6731 89.1665
63.8071 3.2042 -341.2318 2611.4072 2640.6733 89.1746
63.4539 3.2008 -340.2961 2612.4072 2641.6736 89.1827
63.1008 3.1973 -339.3603 2613.4075 2642.6736 89.1908
62.7479 3.1939 -338.4245 2614.4077 2643.6738 89.1988
62.3951 3.1905 -337.4886 2615.4077 2644.6741 89.2069
62.0425 3.1869 -336.5526 2616.4080 2645.6743 89.2148
61.6902 3.1833 -335.6166 2617.4082 2646.6743 89.2228
61.3382 3.1794 -334.6804 2618.4082 2647.6746 89.2307
60.9865 3.1755 -333.7441 2619.4084 2648.6748 89.2386
60.6351 3.1715 -332.8077 2620.4084 2649.6750 89.2465
60.2840 3.1676 -331.8712 2621.4087 2650.6750 89.2544
59.9332 3.1638 -330.9346 2622.4089 2651.6753 89.2622
59.5825 3.1604 -329.9980 2623.4089 2652.6753 89.2700
59.2321 3.1573 -329.0612 2624.4092 2653.6755 89.2777
58.8819 3.1546 -328.1244 2625.4094 2654.6755 89.2855
58.5318 3.1526 -327.1875 2626.4094 2655.6755 89.2932
58.1818 3.1512 -326.2506 2627.4097 2656.6755 89.3009
57.8320 3.1502 -325.3136 2628.4099 2657.6755 89.3085
57.4821 3.1496 -324.3766 2629.4099 2658.6755 89.3162
57.1322 3.1492 -323.4397 2630.4102 2659.6755 89.3238
56.7823 3.1489 -322.5027 2631.4102 2660.6755 89.3313
56.4322 3.1486 -321.5659 2632.4104 2661.6755 89.3389
56.0819 3.1481 -320.6291 2633.4106 2662.6755 89.3464
55.7313 3.1473 -319.6924 2634.4106 2663.6755 89.3539
55.3805 3.1462 -318.7558 2635.4109 2664.6755 89.3614
55.0295 3.1447 -317.8192 2636.4111 2665.6755 89.3688
54.6782 3.1429 -316.8828 2637.4111 2666.6755 89.3762
54.3267 3.1410 -315.9465 2638.4114 2667.6755 89.3836
53.9750 3.1389 -315.0103 2639.4116 2668.6755 89.3910
53.6231 3.1368 -314.0740 2640.4116 2669.6755 89.3983
53.2711 3.1347 -313.1379 2641.4119 2670.6755 89.4056
52.9190 3.1326 -312.2018 2642.4121 2671.6755 89.4129
52.5668 3.1307 -311.2657 2643.4121 2672.6755 89.4201
52.2145 3.1288 -310.3297 2644.4124 2673.6755 89.4274
51.8623 3.1271 -309.3936 2645.4124 2674.6755 89.4346
51.5102 3.1254 -308.4575 2646.4126 2675.6755 89.4417
51.1582 3.1238 -307.5213 2647.4128 2676.6758 89.4489
50.8065 3.1222 -306.5851 2648.4128 2677.6758 89.4560
50.4550 3.1205 -305.6487 2649.4131 2678.6758 89.4631
50.1039 3.1188 -304.7122 2650.4133 2679.6760 89.4702
49.7531 3.1170 -303.7756 2651.4133 2680.6760 89.4773
49.4028 3.1152 -302.8388 2652.4136 2681.6760 89.4843
49.0530 3.1132 -301.9018 2653.4138 2682.6760 89.4913
48.7036 3.1112 -300.9647 2654.4138 2683.6760 89.4983
48.3548 3.1092 -300.0273 2655.4141 2684.6760 89.5052
48.0065 3.1070 -299.0898 2656.4141 2685.6760 89.5121
47.6588 3.1048 -298.1520 2657.4143 2686.6760 89.5191
47.3117 3.1025 -297.2140 2658.4146 2687.6760 89.5259
46.9652 3.1002 -296.2757 2659.4146 2688.6760 89.5328
46.6195 3.0978 -295.3372 2660.4148 2689.6758 89.5396
46.2745 3.0953 -294.3984 2661.4150 2690.6750 89.5464
45.9304 3.0928 -293.4594 2662.4150 2691.6746 89.5532
45.5873 3.0903 -292.5199 2663.4153 2692.6736 89.5600
45.2452 3.0877 -291.5800 2664.4155 2693.6724 89.5667
44.9043 3.0851 -290.6398 2665.4155 2694.6709 89.5734
44.5646 3.0825 -289.6991 2666.4158 2695.6694 89.5801
44.2263 3.0799 -288.7580 2667.4158 2696.6677 89.5868
43.8893 3.0772 -287.8163 2668.4160 2697.6658 89.5934
43.5536 3.0744 -286.8742 2669.4163 2698.6636 89.6000
43.2193 3.0715 -285.9315 2670.4163 2699.6614 89.6066
42.8863 3.0685 -284.9885 2671.4165 2700.6592 89.6132
42.5547 3.0652 -284.0449 2672.4167 2701.6570 89.6197
42.2243 3.0616 -283.1009 2673.4167 2702.6550 89.6262
41.8953 3.0577 -282.1564 2674.4170 2703.6528 89.6327
41.5675 3.0534 -281.2115 2675.4172 2704.6511 89.6392
41.2411 3.0488 -280.2661 2676.4172 2705.6492 89.6457
40.9160 3.0439 -279.3202 2677.4175 2706.6475 89.6521
40.5925 3.0389 -278.3738 2678.4177 2707.6455 89.6585
40.2707 3.0339 -277.4268 2679.4177 2708.6438 89.6649
39.9506 3.0291 -276.4793 2680.4180 2709.6421 89.6712
39.6323 3.0245 -275.5311 2681.4180 2710.6404 89.6776
39.3160 3.0204 -274.5822 2682.4182 2711.6387 89.6839
39.0018 3.0168 -273.6327 2683.4185 2712.6370 89.6902
38.6898 3.0138 -272.6825 2684.4185 2713.6355 89.6965
38.3800 3.0114 -271.7315 2685.4187 2714.6340 89.7027
38.0725 3.0096 -270.7798 2686.4189 2715.6328 89.7089
37.7672 3.0083 -269.8273 2687.4189 2716.6316 89.7151
37.4643 3.0074 -268.8741 2688.4192 2717.6304 89.7213
37.1637 3.0070 -267.9202 2689.4194 2718.6292 89.7275
36.8655 3.0068 -266.9655 2690.4194 2719.6279 89.7336
36.5698 3.0070 -266.0100 2691.4197 2720.6270 89.7398
36.2765 3.0075 -265.0539 2692.4197 2721.6257 89.7459
35.9856 3.0082 -264.0970 2693.4199 2722.6248 89.7519
35.6972 3.0091 -263.1393 2694.4202 2723.6238 89.7580
35.4112 3.0104 -262.1809 2695.4202 2724.6230 89.7640
35.1276 3.0119 -261.2218 2696.4204 2725.6226 89.7700
34.8464 3.0138 -260.2620 2697.4207 2726.6221 89.7760
34.5675 3.0159 -259.3015 2698.4207 2727.6218 89.7820
34.2911 3.0185 -258.3403 2699.4209 2728.6218 89.7879
34.0169 3.0213 -257.3784 2700.4211 2729.6221 89.7939
33.7451 3.0245 -256.4160 2701.4211 2730.6228 89.7998
33.4757 3.0280 -255.4528 2702.4214 2731.6238 89.8057
33.2086 3.0316 -254.4889 2703.4214 2732.6255 89.8115
32.9438 3.0354 -253.5245 2704.4216 2733.6272 89.8174
32.6814 3.0393 -252.5593 2705.4219 2734.6292 89.8232
32.4213 3.0432 -251.5936 2706.4219 2735.6316 89.8290
32.1636 3.0471 -250.6272 2707.4221 2736.6340 89.8348
31.9082 3.0509 -249.6602 2708.4224 2737.6365 89.8405
31.6552 3.0546 -248.6926 2709.4224 2738.6394 89.8463
31.4045 3.0581 -247.7244 2710.4226 2739.6426 89.8520
31.1561 3.0616 -246.7556 2711.4229 2740.6460 89.8577
30.9101 3.0651 -245.7862 2712.4229 2741.6494 89.8634
30.6664 3.0685 -244.8162 2713.4231 2742.6526 89.8690
30.4250 3.0719 -243.8456 2714.4233 2743.6555 89.8747
30.1859 3.0754 -242.8745 2715.4233 2744.6582 89.8803
29.9492 3.0789 -241.9028 2716.4236 2745.6606 89.8859
29.7147 3.0825 -240.9305 2717.4236 2746.6626 89.8915
29.4825 3.0861 -239.9577 2718.4238 2747.6646 89.8970
29.2525 3.0897 -238.9843 2719.4241 2748.6663 89.9026
29.0247 3.0935 -238.0105 2720.4241 2749.6682 89.9081
28.7991 3.0972 -237.0361 2721.4243 2750.6699 89.9136
28.5755 3.1009 -236.0612 2722.4246 2751.6716 89.9191
28.3541 3.1047 -235.0859 2723.4246 2752.6733 89.9246
28.1347 3.1085 -234.1101 2724.4248 2753.6748 89.9300
27.9174 3.1122 -233.1338 2725.4250 2754.6763 89.9354
27.7021 3.1160 -232.1571 2726.4250 2755.6777 89.9408
27.4890 3.1197 -231.1799 2727.4253 2756.6792 89.9462
27.2780 3.1235 -230.2023 2728.4253 2757.6807 89.9516
27.0693 3.1273 -229.2241 2729.4255 2758.6819 89.9570
26.8629 3.1311 -228.2455 2730.4258 2759.6833 89.9623
26.6588 3.1349 -227.2664 2731.4258 2760.6848 89.9676
26.4571 3.1388 -226.2868 2732.4260 2761.6863 89.9729
26.2578 3.1427 -225.3067 2733.4263 2762.6877 89.9782
26.0611 3.1466 -224.3261 2734.4263 2763.6895 89.9834
25.8668 3.1506 -223.3450 2735.4265 2764.6912 89.9887
25.6752 3.1546 -222.3634 2736.4268 2765.6929 89.9939
25.4863 3.1586 -221.3813 2737.4268 2766.6948 89.9991
25.3000 3.1626 -220.3986 2738.4270 2767.6968 90.0000
25.1164 3.1666 -219.4155 2739.4270 2768.6987 90.0000
24.9357 3.1706 -218.4318 2740.4272 2769.7007 90.0000
24.7577 3.1746 -217.4476 2741.4275 2770.7026 90.0000
24.5827 3.1786 -216.4629 2742.4275 2771.7051 90.0000
24.4104 3.1826 -215.4777 2743.4277 2772.7080 90.0000
24.2409 3.1866 -214.4920 2744.4280 2773.7109 90.0000
24.0742 3.1905 -213.5058 2745.4280 2774.7144 90.0000
23.9103 3.1944 -212.5191 2746.4282 2775.7180 90.0000
23.7490 3.1983 -211.5320 2747.4285 2776.7219 90.0000
23.5905 3.2022 -210.5445 2748.4285 2777.7261 90.0000
23.4347 3.2060 -209.5565 2749.4287 2778.7302 90.0000
23.2816 3.2099 -208.5682 2750.4290 2779.7349 90.0000
23.1310 3.2136 -207.5794 2751.4290 2780.7397 90.0000
22.9830 3.2174 -206.5903 2752.4292 2781.7449 90.0000
22.8376 3.2211 -205.6008 2753.4292 2782.7505 90.0000
22.6947 3.2248 -204.6109 2754.4294 2783.7563 90.0000
22.5542 3.2284 -203.6206 2755.4297 2784.7627 90.0000
22.4161 3.2319 -202.6301 2756.4297 2785.7693 90.0000
22.2803 3.2354 -201.6391 2757.4299 2786.7764 90.0000
22.1469 3.2388 -200.6479 2758.4302 2787.7839 90.0000
22.0159 3.2421 -199.6564 2759.4302 2788.7917 90.0000
21.8872 3.2454 -198.6646 2760.4304 2789.7998 90.0000
21.7608 3.2486 -197.6724 2761.4307 2790.8081 90.0000
21.6368 3.2518 -196.6800 2762.4307 2791.8162 90.0000
21.5151 3.2549 -195.6872 2763.4309 2792.8242 90.0000
21.3959 3.2581 -194.6942 2764.4309 2793.8318 90.0000
21.2790 3.2612 -193.7009 2765.4312 2794.8391 90.0000
21.1645 3.2644 -192.7073 2766.4314 2795.8459 90.0000
21.0525 3.2675 -191.7135 2767.4314 2796.8530 90.0000
20.9429 3.2705 -190.7193 2768.4316 2797.8599 90.0000
20.8358 3.2734 -189.7249 2769.4319 2798.8669 90.0000
20.7312 3.2762 -188.7303 2770.4319 2799.8738 90.0000
20.6292 3.2789 -187.7354 2771.4321 2800.8806 90.0000
20.5298 3.2813 -186.7401 2772.4324 2801.8877 90.0000
20.4330 3.2835 -185.7447 2773.4324 2802.8945 90.0000
20.3389 3.2854 -184.7490 2774.4326 2803.9014 90.0000
20.2475 3.2870 -183.7530 2775.4326 2804.9082 90.0000
20.1588 3.2884 -182.7568 2776.4329 2805.9150 90.0000
20.0727 3.2895 -181.7603 2777.4331 2806.9219 90.0000
19.9893 3.2904 -180.7636 2778.4331 2807.9287 90.0000
19.9084 3.2911 -179.7667 2779.4333 2808.9355 90.0000
19.8303 3.2916 -178.7696 2780.4336 2809.9424 90.0000
19.7547 3.2919 -177.7723 2781.4336 2810.9492 90.0000
19.6817 3.2921 -176.7748 2782.4338 2811.9561 90.0000
19.6114 3.2922 -175.7771 2783.4341 2812.9631 90.0000
19.5436 3.2922 -174.7792 2784.4341 2813.9705 90.0000
19.4783 3.2921 -173.7812 2785.4343 2814.9778 90.0000
19.4157 3.2920 -172.7830 2786.4346 2815.9856 90.0000
19.3556 3.2919 -171.7846 2787.4346 2816.9934 90.0000
19.2980 3.2918 -170.7861 2788.4348 2818.0012 90.0000
19.2430 3.2917 -169.7875 2789.4348 2819.0093 90.0000
19.1904 3.2917 -168.7887 2790.4351 2820.0173 90.0000
19.1404 3.2918 -167.7898 2791.4353 2821.0259 90.0000
19.0929 3.2920 -166.7908 2792.4353 2822.0347 90.0000
19.0480 3.2922 -165.7916 2793.4355 2823.0439 90.0000
19.0055 3.2923 -164.7924 2794.4358 2824.0535 90.0000
18.9657 3.2924 -163.7930 2795.4358 2825.0632 90.0000
18.9284 3.2924 -162.7935 2796.4360 2826.0732 90.0000
18.8937 3.2924 -161.7940 2797.4363 2827.0837 90.0000
18.8616 3.2921 -160.7943 2798.4363 2828.0942 90.0000
18.8321 3.2917 -159.7946 2799.4365 2829.1052 90.0000
18.8051 3.2911 -158.7948 2800.4365 2830.1169 90.0000
18.7807 3.2903 -157.7950 2801.4368 2831.1289 90.0000
18.7587 3.2892 -156.7950 2802.4370 2832.1411 90.0000
18.7391 3.2879 -155.7951 2803.4370 2833.1531 90.0000
18.7219 3.2862 -154.7950 2804.4373 2834.1650 90.0000
18.7071 3.2843 -153.7950 2805.4375 2835.1765 90.0000
18.6945 3.2821 -152.7949 2806.4375 2836.1873 90.0000
18.6841 3.2795 -151.7948 2807.4377 2837.1975 90.0000
18.6760 3.2766 -150.7946 2808.4380 2838.2078 90.0000
18.6701 3.2735 -149.7945 2809.4380 2839.2178 90.0000
18.6664 3.2701 -148.7944 2810.4382 2840.2278 90.0000
18.6649 3.2666 -147.7942 2811.4382 2841.2375 90.0000
18.6655 3.2629 -146.7940 2812.4385 2842.2473 90.0000
18.6683 3.2592 -145.7939 2813.4387 2843.2568 90.0000
18.6733 3.2555 -144.7937 2814.4387 2844.2664 90.0000
18.6804 3.2518 -143.7936 2815.4390 2845.2759 90.0000
18.6897 3.2481 -142.7935 2816.4392 2846.2852 90.0000
18.7013 3.2446 -141.7934 2817.4392 2847.2944 90.0000
18.7152 3.2411 -140.7933 2818.4395 2848.3037 90.0000
18.7315 3.2378 -139.7932 2819.4397 2849.3130 90.0000
18.7503 3.2346 -138.7933 2820.4397 2850.3223 90.0000
18.7717 3.2316 -137.7933 2821.4399 2851.3315 90.0000
18.7957 3.2288 -136.7935 2822.4399 2852.3411 90.0000
18.8224 3.2262 -135.7937 2823.4402 2853.3503 90.0000
18.8519 3.2238 -134.7940 2824.4404 2854.3599 90.0000
18.8842 3.2215 -133.7943 2825.4404 2855.3694 90.0000
18.9192 3.2193 -132.7948 2826.4407 2856.3789 90.0000
18.9571 3.2170 -131.7954 2827.4409 2857.3887 90.0000
18.9978 3.2146 -130.7961 2828.4409 2858.3984 90.0000
19.0413 3.2120 -129.7969 2829.4412 2859.4082 90.0000
19.0876 3.2091 -128.7978 2830.4414 2860.4180 90.0000
19.1368 3.2059 -127.7989 2831.4414 2861.4275 90.0000
19.1889 3.2022 -126.8001 2832.4417 2862.4375 90.0000
19.2438 3.1982 -125.8015 2833.4419 2863.4475 90.0000
19.3014 3.1940 -124.8030 2834.4419 2864.4578 90.0000
19.3617 3.1895 -123.8047 2835.4421 2865.4683 90.0000
19.4247 3.1850 -122.8065 2836.4421 2866.4792 90.0000
19.4903 3.1804 -121.8085 2837.4424 2867.4907 90.0000
19.5584 3.1759 -120.8107 2838.4426 2868.5029 90.0000
19.6290 3.1715 -119.8130 2839.4426 2869.5156 90.0000
19.7020 3.1674 -118.8155 2840.4429 2870.5291 90.0000
19.7774 3.1634 -117.8182 2841.4431 2871.5432 90.0000
19.8552 3.1597 -116.8211 2842.4431 2872.5581 90.0000
19.9354 3.1562 -115.8241 2843.4434 2873.5730 90.0000
20.0179 3.1529 -114.8274 2844.4436 2874.5881 90.0000
20.1028 3.1497 -113.8308 2845.4436 2875.6033 90.0000
20.1900 3.1466 -112.8344 2846.4438 2876.6182 90.0000
20.2795 3.1437 -111.8383 2847.4438 2877.6323 90.0000
20.3712 3.1409 -110.8424 2848.4441 2878.6462 90.0000
20.4653 3.1381 -109.8466 2849.4443 2879.6599 90.0000
20.5617 3.1354 -108.8511 2850.4443 2880.6736 90.0000
20.6604 3.1327 -107.8559 2851.4446 2881.6873 90.0000
20.7615 3.1300 -106.8608 2852.4448 2882.7009 90.0000
20.8649 3.1272 -105.8661 2853.4448 2883.7146 90.0000
20.9707 3.1243 -104.8715 2854.4451 2884.7283 90.0000
21.0790 3.1214 -103.8773 2855.4453 2885.7419 90.0000
21.1897 3.1182 -102.8833 2856.4453 2886.7559 90.0000
21.3028 3.1150 -101.8895 2857.4456 2887.7695 90.0000
21.4184 3.1116 -100.8961 2858.4456 2888.7834 90.0000
21.5365 3.1081 -99.9029 2859.4458 2889.7974 90.0000
21.6570 3.1046 -98.9100 2860.4460 2890.8115 90.0000
21.7801 3.1011 -97.9175 2861.4460 2891.8254 90.0000
21.9056 3.0976 -96.9252 2862.4463 2892.8396 90.0000
22.0336 3.0942 -95.9333 2863.4465 2893.8535 90.0000
22.1642 3.0909 -94.9417 2864.4465 2894.8677 90.0000
22.2973 3.0878 -93.9505 2865.4468 2895.8823 90.0000
22.4329 3.0848 -92.9595 2866.4470 2896.8972 90.0000
22.5711 3.0819 -91.9690 2867.4470 2897.9124 90.0000
22.7118 3.0790 -90.9787 2868.4473 2898.9280 90.0000
22.8550 3.0763 -89.9889 2869.4475 2899.9434 90.0000
23.0007 3.0735 -88.9994 2870.4475 2900.9585 90.0000
23.1489 3.0708 -88.0103 2871.4478 2901.9736 90.0000
23.2997 3.0680 -87.0215 2872.4478 2902.9883 90.0000
23.4529 3.0653 -86.0332 2873.4480 2904.0027 90.0000
23.6087 3.0625 -85.0452 2874.4482 2905.0171 90.0000
23.7670 3.0597 -84.0577 2875.4482 2906.0312 90.0000
23.9277 3.0571 -83.0705 2876.4485 2907.0452 90.0000
24.0910 3.0545 -82.0837 2877.4487 2908.0588 90.0000
24.2567 3.0521 -81.0974 2878.4487 2909.0725 90.0000
24.4249 3.0499 -80.1115 2879.4490 2910.0857 90.0000
24.5956 3.0479 -79.1260 2880.4492 2911.0986 90.0000
24.7688 3.0462 -78.1410 2881.4492 2912.1113 90.0000
24.9445 3.0448 -77.1564 2882.4495 2913.1238 90.0000
25.1226 3.0437 -76.1722 2883.4495 2914.1365 90.0000
25.3032 3.0427 -75.1885 2884.4497 2915.1489 90.0000
25.4863 3.0420 -74.2053 2885.4500 2916.1616 90.0000
25.6718 3.0414 -73.2225 2886.4500 2917.1741 90.0000
25.8598 3.0409 -72.2402 2887.4502 2918.1868 90.0000
26.0503 3.0406 -71.2583 2888.4504 2919.1992 90.0000
26.2433 3.0404 -70.2770 2889.4504 2920.2119 90.0000
26.4388 3.0402 -69.2961 2890.4507 2921.2246 90.0000
26.6368 3.0402 -68.3157 2891.4509 2922.2371 90.0000
26.8373 3.0404 -67.3359 2892.4509 2923.2498 90.0000
27.0403 3.0408 -66.3565 2893.4512 2924.2625 90.0000
27.2458 3.0414 -65.3777 2894.4512 2925.2749 90.0000
27.4538 3.0424 -64.3994 2895.4514 2926.2876 90.0000
27.6644 3.0436 -63.4217 2896.4517 2927.3003 90.0000
27.8775 3.0453 -62.4445 2897.4517 2928.3130 90.0000
28.0932 3.0474 -61.4679 2898.4519 2929.3257 90.0000
28.3114 3.0497 -60.4918 2899.4521 2930.3391 90.0000
28.5321 3.0524 -59.5163 2900.4521 2931.3525 90.0000
28.7554 3.0552 -58.5414 2901.4524 2932.3662 90.0000
28.9811 3.0582 -57.5671 2902.4526 2933.3801 90.0000
29.2094 3.0611 -56.5933 2903.4526 2934.3940 90.0000
29.4401 3.0641 -55.6202 2904.4529 2935.4080 90.0000
29.6733 3.0669 -54.6476 2905.4531 2936.4219 90.0000
29.9089 3.0696 -53.6756 2906.4531 2937.4360 90.0000
30.1471 3.0721 -52.7042 2907.4534 2938.4502 90.0000
30.3876 3.0745 -51.7334 2908.4534 2939.4648 90.0000
30.6306 3.0769 -50.7633 2909.4536 2940.4792 90.0000
30.8761 3.0794 -49.7937 2910.4539 2941.4939 90.0000
31.1241 3.0819 -48.8248 2911.4539 2942.5083 90.0000
31.3745 3.0846 -47.8565 2912.4541 2943.5225 90.0000
31.6273 3.0875 -46.8889 2913.4543 2944.5364 90.0000
31.8827 3.0906 -45.9218 2914.4543 2945.5498 90.0000
32.1405 3.0940 -44.9555 2915.4546 2946.5630 90.0000
32.4007 3.0976 -43.9898 2916.4548 2947.5759 90.0000
32.6634 3.1012 -43.0247 2917.4548 2948.5889 90.0000
32.9285 3.1048 -42.0603 2918.4551 2949.6013 90.0000
33.1961 3.1084 -41.0966 2919.4551 2950.6135 90.0000
33.4661 3.1119 -40.1336 2920.4553 2951.6257 90.0000
33.7386 3.1151 -39.1712 2921.4556 2952.6377 90.0000
34.0135 3.1181 -38.2096 2922.4556 2953.6497 90.0000
34.2908 3.1208 -37.2486 2923.4558 2954.6616 90.0000
34.5705 3.1232 -36.2884 2924.4561 2955.6733 90.0000
34.8526 3.1255 -35.3288 2925.4561 2956.6851 90.0000
35.1372 3.1276 -34.3700 2926.4563 2957.6965 90.0000
35.4241 3.1296 -33.4119 2927.4565 2958.7083 90.0000
35.7135 3.1316 -32.4545 2928.4565 2959.7200 90.0000
36.0053 3.1337 -31.4979 2929.4568 2960.7319 90.0000
36.2994 3.1358 -30.5419 2930.4568 2961.7437 90.0000
36.5960 3.1381 -29.5867 2931.4570 2962.7556 90.0000
36.8950 3.1405 -28.6323 2932.4573 2963.7673 90.0000
37.1964 3.1431 -27.6786 2933.4573 2964.7793 90.0000
37.5001 3.1458 -26.7257 2934.4575 2965.7913 90.0000
37.8063 3.1486 -25.7735 2935.4578 2966.8032 90.0000
38.1148 3.1515 -24.8221 2936.4578 2967.8154 90.0000
38.4257 3.1546 -23.8715 2937.4580 2968.8279 90.0000
38.7390 3.1577 -22.9217 2938.4583 2969.8403 90.0000
39.0547 3.1609 -21.9727 2939.4583 2970.8530 90.0000
39.3728 3.1643 -21.0245 2940.4585 2971.8660 90.0000
39.6932 3.1677 -20.0770 2941.4587 2972.8792 90.0000
40.0161 3.1713 -19.1304 2942.4587 2973.8923 90.0000
40.3413 3.1751 -18.1847 2943.4590 2974.9058 90.0000
40.6690 3.1790 -17.2397 2944.4590 2975.9189 90.0000
40.9990 3.1832 -16.2956 2945.4592 2976.9324 90.0000
41.3315 3.1875 -15.3523 2946.4595 2977.9453 90.0000
41.6663 3.1920 -14.4099 2947.4595 2978.9585 90.0000
42.0036 3.1967 -13.4683 2948.4597 2979.9717 90.0000
42.3433 3.2016 -12.5276 2949.4600 2980.9846 90.0000
42.6854 3.2064 -11.5878 2950.4600 2981.9978 90.0000
43.0300 3.2112 -10.6489 2951.4602 2983.0107 90.0000
43.3769 3.2158 -9.7108 2952.4604 2984.0234 90.0000
43.7264 3.2202 -8.7737 2953.4604 2985.0364 90.0000
44.0783 3.2244 -7.8375 2954.4607 2986.0488 90.0000
44.4327 3.2281 -6.9022 2955.4607 2987.0613 90.0000
44.7895 3.2315 -5.9679 2956.4609 2988.0732 90.0000
45.1488 3.2345 -5.0345 2957.4612 2989.0850 90.0000
45.5106 3.2374 -4.1020 2958.4612 2990.0962 90.0000
45.8749 3.2402 -3.1706 2959.4614 2991.1074 90.0000
46.2417 3.2429 -2.2401 2960.4617 2992.1184 90.0000
46.6110 3.2457 -1.3106 2961.4617 2993.1292 90.0000
46.9828 3.2487 -0.3821 2962.4619 2994.1401 90.0000
47.3571 3.2519 0.5454 2963.4622 2995.1511 90.0000
47.7340 3.2554 1.4718 2964.4622 2996.1619 90.0000
48.1133 3.2592 2.3973 2965.4624 2997.1726 90.0000
48.4952 3.2631 3.3217 2966.4624 2998.1833 90.0000
48.8795 3.2672 4.2450 2967.4626 2999.1941 90.0000
49.2664 3.2713 5.1674 2968.4629 3000.2048 90.0000
49.6557 3.2754 6.0886 2969.4629 3001.2156 90.0000
50.0475 3.2795 7.0089 2970.4631 3002.2263 90.0000
50.4417 3.2834 7.9281 2971.4634 3003.2373 90.0000
50.8384 3.2870 8.8462 2972.4634 3004.2483 90.0000
51.2376 3.2905 9.7633 2973.4636 3005.2598 90.0000
51.6391 3.2938 10.6793 2974.4639 3006.2712 90.0000
52.0430 3.2969 11.5943 2975.4639 3007.2827 90.0000
52.4493 3.2998 12.5082 2976.4641 3008.2942 90.0000
52.8580 3.3026 13.4211 2977.4641 3009.3059 90.0000
53.2689 3.3052 14.3329 2978.4644 3010.3174 90.0000
53.6821 3.3077 15.2438 2979.4646 3011.3286 90.0000
54.0976 3.3101 16.1535 2980.4646 3012.3401 90.0000
54.5153 3.3124 17.0623 2981.4648 3013.3513 90.0000
54.9353 3.3146 17.9700 2982.4651 3014.3623 90.0000
55.3575 3.3168 18.8767 2983.4651 3015.3733 90.0000
55.7818 3.3190 19.7824 2984.4653 3016.3843 90.0000
56.2084 3.3213 20.6870 2985.4656 3017.3948 90.0000
56.6372 3.3235 21.5906 2986.4656 3018.4050 90.0000
57.0681 3.3259 22.4932 2987.4658 3019.4148 90.0000
57.5011 3.3284 23.3947 2988.4661 3020.4243 90.0000
57.9363 3.3310 24.2952 2989.4661 3021.4336 90.0000
58.3737 3.3336 25.1947 2990.4663 3022.4421 90.0000
58.8133 3.3362 26.0930 2991.4663 3023.4502 90.0000
59.2552 3.3388 26.9903 2992.4666 3024.4580 90.0000
59.6993 3.3412 27.8864 2993.4668 3025.4656 90.0000
60.1458 3.3435 28.7813 2994.4668 3026.4729 90.0000
60.5945 3.3455 29.6751 2995.4670 3027.4797 90.0000
61.0457 3.3472 30.5677 2996.4673 3028.4868 90.0000
61.4993 3.3486 31.4591 2997.4673 3029.4937 90.0000
61.9552 3.3496 32.3493 2998.4675 3030.5005 90.0000
62.4137 3.3503 33.2382 2999.4678 3031.5073 90.0000
62.8745 3.3507 34.1258 3000.4678 3032.5139 90.0000
63.3379 3.3509 35.0121 3001.4680 3033.5208 90.0000
63.8037 3.3507 35.8972 3002.4680 3034.5276 90.0000
64.2721 3.3503 36.7809 3003.4683 3035.5344 90.0000
64.7430 3.3496 37.6632 3004.4685 3036.5413 90.0000
65.2164 3.3487 38.5443 3005.4685 3037.5481 90.0000
65.6923 3.3476 39.4239 3006.4688 3038.5547 90.0000
66.1707 3.3462 40.3023 3007.4690 3039.5615 90.0000
66.6516 3.3446 41.1793 3008.4690 3040.5684 90.0000
67.1348 3.3428 42.0550 3009.4692 3041.5750 90.0000
67.6204 3.3407 42.9293 3010.4695 3042.5818 90.0000
68.1083 3.3384 43.8024 3011.4695 3043.5884 90.0000
68.5986 3.3359 44.6742 3012.4697 3044.5952 90.0000
69.0911 3.3331 45.5447 3013.4697 3045.6021 90.0000
69.5858 3.3301 46.4139 3014.4700 3046.6091 90.0000
70.0827 3.3270 47.2819 3015.4702 3047.6165 90.0000
70.5818 3.3238 48.1486 3016.4702 3048.6238 90.0000
71.0831 3.3206 49.0140 3017.4705 3049.6313 90.0000
71.5865 3.3175 49.8782 3018.4707 3050.6389 90.0000
72.0920 3.3144 50.7412 3019.4707 3051.6465 90.0000
72.5997 3.3115 51.6029 3020.4709 3052.6543 90.0000
73.1094 3.3088 52.4634 3021.4712 3053.6619 90.0000
73.6212 3.3063 53.3227 3022.4712 3054.6697 90.0000
74.1351 3.3041 54.1808 3023.4714 3055.6780 90.0000
74.6511 3.3020 55.0376 3024.4717 3056.6863 90.0000
75.1691 3.3000 55.8931 3025.4717 3057.6948 90.0000
75.6892 3.2981 56.7474 3026.4719 3058.7031 90.0000
76.2114 3.2962 57.6005 3027.4719 3059.7114 90.0000
76.7357 3.2942 58.4522 3028.4722 3060.7192 90.0000
77.2620 3.2923 59.3027 3029.4724 3061.7268 90.0000
77.7904 3.2902 60.1519 3030.4724 3062.7339 90.0000
78.3209 3.2881 60.9997 3031.4727 3063.7407 90.0000
78.8535 3.2860 61.8463 3032.4729 3064.7471 90.0000
79.3882 3.2839 62.6915 3033.4729 3065.7532 90.0000
79.9250 3.2819 63.5354 3034.4731 3066.7590 90.0000
80.4639 3.2799 64.3779 3035.4734 3067.7646 90.0000
81.0050 3.2781 65.2190 3036.4734 3068.7700 90.0000
81.5481 3.2764 66.0588 3037.4736 3069.7754 90.0000
82.0934 3.2750 66.8973 3038.4736 3070.7803 90.0000
82.6409 3.2737 67.7343 3039.4739 3071.7854 90.0000
83.1904 3.2725 68.5700 3040.4741 3072.7903 90.0000
83.7421 3.2713 69.4042 3041.4741 3073.7952 90.0000
84.2958 3.2702 70.2371 3042.4744 3074.8000 90.0000
84.8517 3.2691 71.0686 3043.4746 3075.8049 90.0000
85.4096 3.2679 71.8987 3044.4746 3076.8096 90.0000
85.9696 3.2666 72.7274 3045.4749 3077.8142 90.0000
86.5316 3.2651 73.5547 3046.4751 3078.8188 90.0000
87.0957 3.2635 74.3806 3047.4751 3079.8232 90.0000
87.6618 3.2617 75.2051 3048.4753 3080.8276 90.0000
88.2300 3.2598 76.0282 3049.4753 3081.8320 90.0000
88.8002 3.2579 76.8499 3050.4756 3082.8364 90.0000
89.3724 3.2559 77.6702 3051.4758 3083.8408 90.0000
89.9466 3.2539 78.4891 3052.4758 3084.8452 90.0000
90.5228 3.2519 79.3066 3053.4761 3085.8499 90.0000
91.1010 3.2500 80.1227 3054.4763 3086.8545 90.0000
91.6812 3.2481 80.9373 3055.4763 3087.8594 90.0000
92.2633 3.2463 81.7506 3056.4766 3088.8645 90.0000
92.8475 3.2444 82.5624 3057.4768 3089.8699 90.0000
93.4336 3.2426 83.3728 3058.4768 3090.8752 90.0000
94.0217 3.2408 84.1818 3059.4771 3091.8809 90.0000
94.6118 3.2389 84.9893 3060.4773 3092.8862 90.0000
95.2039 3.2370 85.7953 3061.4773 3093.8914 90.0000
95.7979 3.2351 86.6000 3062.4775 3094.8965 90.0000
96.3940 3.2331 87.4031 3063.4775 3095.9014 90.0000
96.9920 3.2311 88.2048 3064.4778 3096.9062 90.0000
97.5919 3.2290 89.0051 3065.4780 3097.9109 90.0000
98.1938 3.2269 89.8039 3066.4780 3098.9153 90.0000
98.7976 3.2248 90.6012 3067.4783 3099.9194 90.0000
99.4034 3.2227 91.3971 3068.4785 3100.9233 90.0000
100.0111 3.2207 92.1915 3069.4785 3101.9270 90.0000
100.6207 3.2186 92.9844 3070.4788 3102.9302 90.0000
101.2321 3.2167 93.7759 3071.4790 3103.9331 90.0000
101.8455 3.2147 94.5659 3072.4790 3104.9355 90.0000
102.4608 3.2128 95.3544 3073.4792 3105.9377 90.0000
103.0780 3.2109 96.1414 3074.4792 3106.9395 90.0000
103.6970 3.2090 96.9270 3075.4795 3107.9409 90.0000
104.3180 3.2071 97.7111 3076.4797 3108.9419 90.0000
104.9408 3.2051 98.4936 3077.4797 3109.9429 90.0000
105.5655 3.2031 99.2747 3078.4800 3110.9434 90.0000
106.1920 3.2010 100.0543 3079.4802 3111.9438 90.0000
106.8205 3.1988 100.8324 3080.4802 3112.9443 90.0000
107.4508 3.1967 101.6089 3081.4805 3113.9448 90.0000
108.0829 3.1946 102.3840 3082.4807 3114.9451 90.0000
108.7169 3.1926 103.1575 3083.4807 3115.9456 90.0000
109.3527 3.1908 103.9295 3084.4810 3116.9456 90.0000
109.9904 3.1891 104.7001 3085.4810 3117.9456 90.0000
110.6298 3.1877 105.4691 3086.4812 3118.9453 90.0000
111.2711 3.1866 106.2366 3087.4814 3119.9451 90.0000
111.9142 3.1858 107.0026 3088.4814 3120.9446 90.0000
112.5591 3.1852 107.7671 3089.4817 3121.9441 90.0000
113.2057 3.1849 108.5300 3090.4819 3122.9438 90.0000
113.8542 3.1847 109.2915 3091.4819 3123.9434 90.0000
114.5044 3.1846 110.0514 3092.4822 3124.9429 90.0000
115.1564 3.1845 110.8098 3093.4824 3125.9424 90.0000
115.8102 3.1845 111.5667 3094.4824 3126.9419 90.0000
116.4658 3.1845 112.3220 3095.4827 3127.9417 90.0000
117.1231 3.1843 113.0759 3096.4829 3128.9412 90.0000
117.7821 3.1841 113.8282 3097.4829 3129.9407 90.0000
118.4428 3.1840 114.5790 3098.4832 3130.9404 90.0000
119.1052 3.1838 115.3284 3099.4832 3131.9402 90.0000
119.7691 3.1836 116.0764 3100.4834 3132.9397 90.0000
120.4347 3.1836 116.8229 3101.4836 3133.9395 90.0000
121.1018 3.1836 117.5681 3102.4836 3134.9390 90.0000
121.7704 3.1838 118.3119 3103.4839 3135.9385 90.0000
122.4405 3.1842 119.0544 3104.4841 3136.9380 90.0000
123.1121 3.1848 119.7956 3105.4841 3137.9368 90.0000
123.7851 3.1855 120.5354 3106.4844 3138.9351 90.0000
124.4596 3.1865 121.2739 3107.4846 3139.9329 90.0000
125.1356 3.1876 122.0110 3108.4846 3140.9302 90.0000
125.8131 3.1889 122.7468 3109.4849 3141.9272 90.0000
126.4920 3.1904 123.4812 3110.4849 3142.9238 90.0000
127.1724 3.1921 124.2142 3111.4851 3143.9204 90.0000
127.8543 3.1941 124.9459 3112.4854 3144.9167 90.0000
128.5376 3.1962 125.6762 3113.4854 3145.9131 90.0000
129.2224 3.1985 126.4051 3114.4856 3146.9089 90.0000
129.9087 3.2010 127.1326 3115.4858 3147.9048 90.0000
130.5965 3.2036 127.8588 3116.4858 3148.9006 90.0000
131.2857 3.2063 128.5835 3117.4861 3149.8960 90.0000
131.9763 3.2092 129.3069 3118.4863 3150.8911 90.0000
132.6684 3.2122 130.0289 3119.4863 3151.8860 90.0000
133.3619 3.2153 130.7496 3120.4866 3152.8806 90.0000
134.0569 3.2184 131.4688 3121.4866 3153.8752 90.0000
134.7534 3.2217 132.1866 3122.4868 3154.8696 90.0000
135.4515 3.2252 132.9029 3123.4871 3155.8640 90.0000
136.1510 3.2288 133.6177 3124.4871 3156.8584 90.0000
136.8522 3.2326 134.3309 3125.4873 3157.8525 90.0000
137.5551 3.2367 135.0424 3126.4875 3158.8467 90.0000
138.2596 3.2411 135.7523 3127.4875 3159.8411 90.0000
138.9659 3.2457 136.4604 3128.4878 3160.8352 90.0000
139.6739 3.2507 137.1669 3129.4880 3161.8291 90.0000
140.3836 3.2560 137.8716 3130.4880 3162.8228 90.0000
141.0950 3.2615 138.5746 3131.4883 3163.8164 90.0000
141.8079 3.2671 139.2760 3132.4885 3164.8101 90.0000
142.5224 3.2728 139.9758 3133.4885 3165.8035 90.0000
143.2384 3.2785 140.6742 3134.4888 3166.7971 90.0000
143.9558 3.2841 141.3710 3135.4888 3167.7913 90.0000
144.6745 3.2896 142.0665 3136.4890 3168.7854 90.0000
145.3946 3.2948 142.7607 3137.4893 3169.7800 90.0000
146.1159 3.2999 143.4535 3138.4893 3170.7756 90.0000
146.8383 3.3049 144.1451 3139.4895 3171.7715 90.0000
147.5619 3.3097 144.8355 3140.4897 3172.7681 90.0000
148.2865 3.3144 145.5249 3141.4897 3173.7649 90.0000
149.0121 3.3191 146.2133 3142.4900 3174.7622 90.0000
149.7386 3.3237 146.9007 3143.4902 3175.7598 90.0000
150.4659 3.3284 147.5872 3144.4902 3176.7576 90.0000
151.1940 3.3332 148.2729 3145.4905 3177.7556 90.0000
151.9228 3.3380 148.9578 3146.4905 3178.7534 90.0000
152.6523 3.3428 149.6419 3147.4907 3179.7515 90.0000
153.3827 3.3477 150.3253 3148.4910 3180.7495 90.0000
154.1137 3.3525 151.0078 3149.4910 3181.7476 90.0000
154.8456 3.3573 151.6894 3150.4912 3182.7456 90.0000
155.5782 3.3619 152.3702 3151.4915 3183.7439 90.0000
156.3117 3.3665 153.0502 3152.4915 3184.7422 90.0000
157.0460 3.3708 153.7292 3153.4917 3185.7402 90.0000
157.7811 3.3750 154.4074 3154.4919 3186.7385 90.0000
158.5170 3.3790 155.0847 3155.4919 3187.7371 90.0000
159.2538 3.3830 155.7610 3156.4922 3188.7354 90.0000
159.9916 3.3870 156.4363 3157.4922 3189.7336 90.0000
160.7302 3.3910 157.1106 3158.4924 3190.7319 90.0000
161.4698 3.3951 157.7839 3159.4927 3191.7302 90.0000
162.2104 3.3993 158.4561 3160.4927 3192.7285 90.0000
162.9520 3.4037 159.1272 3161.4929 3193.7271 90.0000
163.6946 3.4084 159.7972 3162.4932 3194.7253 90.0000
164.4382 3.4133 160.4660 3163.4932 3195.7236 90.0000
165.1828 3.4182 161.1338 3164.4934 3196.7222 90.0000
165.9284 3.4231 161.8004 3165.4937 3197.7207 90.0000
166.6749 3.4279 162.4660 3166.4937 3198.7192 90.0000
167.4224 3.4325 163.1306 3167.4939 3199.7178 90.0000
168.1708 3.4367 163.7941 3168.4939 3200.7166 90.0000
168.9201 3.4406 164.4566 3169.4941 3201.7156 90.0000
169.6702 3.4439 165.1181 3170.4944 3202.7146 90.0000
170.4212 3.4467 165.7786 3171.4944 3203.7141 90.0000
171.1730 3.4492 166.4382 3172.4946 3204.7136 90.0000
171.9256 3.4515 167.0969 3173.4949 3205.7134 90.0000
172.6789 3.4537 167.7548 3174.4949 3206.7134 90.0000
173.4329 3.4559 168.4118 3175.4951 3207.7134 90.0000
174.1876 3.4584 169.0681 3176.4954 3208.7136 90.0000
174.9430 3.4611 169.7236 3177.4954 3209.7139 90.0000
175.6990 3.4643 170.3784 3178.4956 3210.7141 90.0000
176.4556 3.4680 171.0326 3179.4958 3211.7144 90.0000
177.2127 3.4720 171.6861 3180.4958 3212.7146 90.0000
177.9703 3.4762 172.3391 3181.4961 3213.7148 90.0000
178.7284 3.4806 172.9915 3182.4961 3214.7153 90.0000
179.4869 3.4850 173.6434 3183.4963 3215.7156 90.0000
180.2459 3.4892 174.2948 3184.4966 3216.7161 90.0000
181.0052 3.4932 174.9458 3185.4966 3217.7163 90.0000
181.7648 3.4968 175.5965 3186.4968 3218.7168 90.0000
182.5247 3.5000 176.2467 3187.4971 3219.7173 90.0000
183.2849 3.5027 176.8967 3188.4971 3220.7178 90.0000
184.0453 3.5052 177.5464 3189.4973 3221.7183 90.0000
184.8060 3.5074 178.1957 3190.4976 3222.7188 90.0000
185.5669 3.5096 178.8449 3191.4976 3223.7192 90.0000
186.3280 3.5117 179.4937 3192.4978 3224.7197 90.0000
187.0892 3.5139 180.1424 3193.4978 3225.7205 90.0000
187.8507 3.5162 180.7908 3194.4980 3226.7209 90.0000
188.6123 3.5188 181.4391 3195.4983 3227.7214 90.0000
189.3741 3.5217 182.0872 3196.4983 3228.7222 90.0000
190.1359 3.5247 182.7352 3197.4985 3229.7227 90.0000
190.8980 3.5278 183.3829 3198.4988 3230.7234 90.0000
191.6601 3.5310 184.0306 3199.4988 3231.7241 90.0000
192.4224 3.5342 184.6780 3200.4990 3232.7249 90.0000
193.1849 3.5374 185.3253 3201.4993 3233.7253 90.0000
193.9474 3.5405 185.9725 3202.4993 3234.7258 90.0000
194.7101 3.5434 186.6196 3203.4995 3235.7261 90.0000
195.4728 3.5461 187.2665 3204.4995 3236.7263 89.7980
196.2358 3.5486 187.9132 3205.4998 3237.7266 89.3610
196.9989 3.5510 188.5597 3206.5000 3238.7266 88.9220
197.7622 3.5532 189.2060 3207.5000 3239.7268 88.4809
198.5257 3.5552 189.8521 3208.5002 3240.7268 88.0377
199.2895 3.5571 190.4978 3209.5005 3241.7268 87.5924
200.0536 3.5589 191.1432 3210.5005 3242.7271 87.1449
200.8179 3.5606 191.7883 3211.5007 3243.7271 86.6953
201.5826 3.5621 192.4330 3212.5010 3244.7271 86.2434
202.3475 3.5635 193.0773 3213.5010 3245.7273 85.7893
203.1129 3.5648 193.7213 3214.5012 3246.7273 85.3329
203.8785 3.5659 194.3648 3215.5015 3247.7273 84.8742
204.6445 3.5668 195.0079 3216.5015 3248.7273 84.4131
205.4109 3.5676 195.6505 3217.5017 3249.7275 83.9496
206.1776 3.5681 196.2928 3218.5017 3250.7275 83.4838
206.9447 3.5684 196.9345 3219.5020 3251.7275 83.0163
207.7122 3.5685 197.5759 3220.5022 3252.7275 82.5471
208.4802 3.5684 198.2166 3221.5022 3253.7275 82.0761
209.2487 3.5680 198.8566 3222.5024 3254.7275 81.6033
210.0180 3.5674 199.4958 3223.5027 3255.7275 81.1288
210.7880 3.5665 200.1340 3224.5027 3256.7275 80.6524
211.5589 3.5654 200.7712 3225.5029 3257.7275 80.1742
212.3308 3.5642 201.4072 3226.5032 3258.7275 79.6941
213.1038 3.5627 202.0418 3227.5032 3259.7273 79.2121
213.8780 3.5610 202.6750 3228.5034 3260.7273 78.7281
214.6535 3.5591 203.3066 3229.5034 3261.7273 78.2422
215.4305 3.5570 203.9363 3230.5037 3262.7271 77.7542
216.2091 3.5547 204.5642 3231.5039 3263.7268 77.2642
216.9894 3.5523 205.1898 3232.5039 3264.7266 76.7722
217.7715 3.5498 205.8132 3233.5042 3265.7263 76.2780
218.5556 3.5472 206.4341 3234.5044 3266.7261 75.7817
219.3419 3.5445 207.0522 3235.5044 3267.7258 75.2831
220.1304 3.5417 207.6676 3236.5046 3268.7256 74.7824
220.9212 3.5389 208.2798 3237.5049 3269.7249 74.2794
221.7147 3.5359 208.8887 3238.5049 3270.7239 73.7741
222.5108 3.5328 209.4941 3239.5051 3271.7224 73.2664
223.3099 3.5296 210.0956 3240.5051 3272.7209 72.7563
224.1119 3.5261 210.6931 3241.5054 3273.7192 72.2438
224.9172 3.5223 211.2862 3242.5056 3274.7175 71.7288
225.7258 3.5183 211.8748 3243.5056 3275.7156 71.2113
226.5379 3.5140 212.4585 3244.5059 3276.7134 70.6912
227.3536 3.5094 213.0372 3245.5061 3277.7102 70.1685
228.1729 3.5044 213.6108 3246.5061 3278.7063 69.6430
228.9959 3.4991 214.1792 3247.5063 3279.7019 69.1149
229.8226 3.4935 214.7421 3248.5066 3280.6968 68.5839
230.6530 3.4875 215.2995 3249.5066 3281.6912 68.0500
231.4872 3.4811 215.8512 3250.5068 3282.6855 67.5133
232.3253 3.4744 216.3970 3251.5071 3283.6794 66.9735
233.1672 3.4673 216.9370 3252.5071 3284.6719 66.4308
234.0130 3.4598 217.4708 3253.5073 3285.6631 65.8848
234.8627 3.4521 217.9984 3254.5073 3286.6531 65.3440
235.7164 3.4442 218.5196 3255.5076 3287.6418 64.8145
236.5739 3.4361 219.0343 3256.5078 3288.6299 64.2960
237.4354 3.4278 219.5424 3257.5078 3289.6169 63.7881
238.3008 3.4195 220.0438 3258.5081 3290.6030 63.3260
239.1702 3.4110 220.5382 3259.5083 3291.5867 62.9035
240.0436 3.4024 221.0256 3260.5083 3292.5684 62.4871
240.9209 3.3936 221.5059 3261.5085 3293.5481 62.0765
241.8021 3.3847 221.9789 3262.5088 3294.5266 61.6719
242.6873 3.3756 222.4445 3263.5088 3295.5039 61.2732
243.5764 3.3663 222.9025 3264.5090 3296.4812 60.8802
244.4694 3.3568 223.3529 3265.5090 3297.4563 60.6275
245.3663 3.3471 223.7955 3266.5093 3298.4265 60.4152
246.2670 3.3372 224.2303 3267.5095 3299.3933 60.2026
247.1715 3.3273 224.6571 3268.5095 3300.3589 59.9899
248.0797 3.3173 225.0759 3269.5098 3301.3247 59.7770
248.9917 3.3075 225.4865 3270.5100 3302.2930 59.5642
249.9072 3.2978 225.8890 3271.5100 3303.2656 59.3977
250.8264 3.2882 226.2831 3272.5103 3304.2454 59.4382
251.7491 3.2788 226.6690 3273.5105 3305.2329 59.4764
252.6753 3.2694 227.0465 3274.5105 3306.2266 59.5123
253.6048 3.2601 227.4157 3275.5107 3307.2256 59.5458
254.5376 3.2508 227.7765 3276.5107 3308.2283 59.5770
255.4736 3.2413 228.1289 3277.5110 3309.2334 59.6058
256.4127 3.2318 228.4729 3278.5112 3310.2412 59.5576
257.3549 3.2221 228.8084 3279.5112 3311.2544 59.4752
258.3000 3.2123 229.1354 3280.5115 3312.2764 59.3907
259.2481 3.2026 229.4539 3281.5117 3313.3093 59.3041
260.1991 3.1928 229.7637 3282.5117 3314.3560 59.2157
261.1528 3.1832 230.0649 3283.5120 3315.4194 59.1253
262.1093 3.1736 230.3574 3284.5122 3316.5015 58.9772
263.0683 3.1643 230.6411 3285.5122 3317.5940 58.6692
264.0300 3.1555 230.9159 3286.5125 3318.6926 58.3629
264.9942 3.1473 231.1817 3287.5127 3319.7966 58.0429
265.9608 3.1399 231.4384 3288.5127 3320.9055 57.6584
266.9299 3.1337 231.6857 3289.5129 3322.0188 57.2773
267.9012 3.1288 231.9238 3290.5129 3323.1357 56.8998
268.8748 3.1254 232.1523 3291.5132 3324.2549 57.0885
269.8506 3.1231 232.3717 3292.5134 3325.3748 57.2756
270.8282 3.1214 232.5823 3293.5134 3326.4954 57.4611
271.8077 3.1198 232.7844 3294.5137 3327.6162 57.6449
272.7889 3.1176 232.9785 3295.5139 3328.7375 57.8272
273.7716 3.1144 233.1649 3296.5139 3329.8594 58.0079
274.7557 3.1096 233.3440 3297.5142 3330.9829 58.1871
275.7411 3.1033 233.5159 3298.5144 3332.1174 58.1360
276.7277 3.0962 233.6799 3299.5144 3333.2593 57.5351
277.7156 3.0889 233.8357 3300.5146 3334.4014 56.9296
278.7048 3.0822 233.9827 3301.5146 3335.5369 56.3194
279.6954 3.0767 234.1205 3302.5149 3336.6587 55.7043
280.6872 3.0733 234.2485 3303.5151 3337.7605 55.0842
281.6802 3.0724 234.3665 3304.5151 3338.8347 55.2893
282.6745 3.0736 234.4745 3305.5154 3339.8840 55.4926
283.6698 3.0762 234.5729 3306.5156 3340.9150 55.6939
284.6660 3.0798 234.6618 3307.5156 3341.9341 55.8934
285.6631 3.0836 234.7416 3308.5159 3342.9480 56.0911
286.6608 3.0871 234.8125 3309.5161 3343.9631 56.2870
287.6591 3.0898 234.8748 3310.5161 3344.9839 56.4811
288.6578 3.0915 234.9284 3311.5164 3346.0056 56.6735
289.6570 3.0926 234.9734 3312.5164 3347.0271 56.8642
290.6565 3.0931 235.0096 3313.5166 3348.0483 57.0533
291.6562 3.0935 235.0370 3314.5168 3349.0688 57.2406
292.6562 3.0939 235.0554 3315.5168 3350.0881 57.4264
293.6563 3.0946 235.0648 3316.5171 3351.1062 57.6105
294.6564 3.0958 235.0651 3317.5173 3352.1248 57.7931
295.6565 3.0973 235.0565 3318.5173 3353.1431 57.9741
296.6565 3.0990 235.0390 3319.5176 3354.1602 58.1536
297.6564 3.1009 235.0127 3320.5178 3355.1748 58.3316
298.6559 3.1028 234.9779 3321.5178 3356.1858 58.5081
299.6552 3.1046 234.9345 3322.5181 3357.1914 58.6831
300.6540 3.1062 234.8828 3323.5181 3358.1921 58.8567
301.6523 3.1075 234.8227 3324.5183 3359.1907 59.0289
302.6501 3.1087 234.7544 3325.5186 3360.1880 59.1996
303.6473 3.1097 234.6777 3326.5186 3361.1848 59.3690
304.6438 3.1106 234.5929 3327.5188 3362.1816 59.5370
305.6396 3.1115 234.4999 3328.5190 3363.1794 59.7036
306.6346 3.1123 234.3987 3329.5190 3364.1787 59.8690
307.6288 3.1130 234.2895 3330.5193 3365.1785 60.0330
308.6221 3.1137 234.1725 3331.5195 3366.1782 60.1957
309.6144 3.1144 234.0479 3332.5195 3367.1780 60.3571
310.6059 3.1149 233.9158 3333.5198 3368.1780 60.5173
311.5963 3.1154 233.7766 3334.5200 3369.1775 60.6763
312.5858 3.1158 233.6303 3335.5200 3370.1772 60.8340
313.5741 3.1161 233.4773 3336.5203 3371.1765 60.9905
314.5615 3.1163 233.3179 3337.5203 3372.1763 61.1458
315.5478 3.1166 233.1523 3338.5205 3373.1755 61.2999
316.5332 3.1169 232.9809 3339.5208 3374.1750 61.4529
317.5176 3.1172 232.8040 3340.5208 3375.1741 61.6047
318.5010 3.1178 232.6221 3341.5210 3376.1729 61.7553
319.4836 3.1186 232.4353 3342.5212 3377.1714 61.9049
320.4653 3.1196 232.2441 3343.5212 3378.1697 62.0533
321.4462 3.1209 232.0492 3344.5215 3379.1675 62.2007
322.4266 3.1225 231.8513 3345.5217 3380.1653 62.3469
323.4065 3.1243 231.6510 3346.5217 3381.1628 62.4921
324.3860 3.1264 231.4490 3347.5220 3382.1604 62.6362
325.3654 3.1286 231.2459 3348.5220 3383.1580 62.7793
326.3446 3.1312 231.0424 3349.5222 3384.1555 62.9214
327.3238 3.1340 230.8389 3350.5225 3385.1528 63.0624
328.3031 3.1371 230.6360 3351.5225 3386.1501 63.2024
329.2827 3.1407 230.4340 3352.5227 3387.1475 63.3415
330.2625 3.1447 230.2333 3353.5229 3388.1448 63.4795
331.2426 3.1493 230.0343 3354.5229 3389.1421 63.6166
332.2232 3.1546 229.8375 3355.5232 3390.1394 63.7527
333.2044 3.1604 229.6433 3356.5234 3391.1375 63.8878
334.1861 3.1669 229.4523 3357.5234 3392.1360 64.0220
335.1686 3.1739 229.2648 3358.5237 3393.1345 64.1553
336.1518 3.1813 229.0813 3359.5237 3394.1333 64.2877
337.1358 3.1891 228.9025 3360.5239 3395.1316 64.4191
338.1208 3.1972 228.7288 3361.5242 3396.1294 64.5497
339.1067 3.2054 228.5606 3362.5242 3397.1265 64.6793
340.0936 3.2138 228.3983 3363.5244 3398.1226 64.8081
341.0814 3.2221 228.2421 3364.5247 3399.1179 64.9360
342.0703 3.2304 228.0921 3365.5247 3400.1125 65.0631
343.0601 3.2386 227.9484 3366.5249 3401.1069 65.1892
344.0508 3.2464 227.8112 3367.5251 3402.1011 65.3146
345.0424 3.2539 227.6807 3368.5251 3403.0947 65.4391
346.0349 3.2609 227.5569 3369.5254 3404.0884 65.5628
347.0282 3.2674 227.4401 3370.5256 3405.0818 65.6856
348.0223 3.2736 227.3304 3371.5256 3406.0752 65.5068
349.0172 3.2795 227.2280 3372.5259 3407.0684 64.9555
350.0129 3.2851 227.1330 3373.5259 3408.0618 64.4008
351.0092 3.2904 227.0456 3374.5261 3409.0554 63.8428
352.0062 3.2956 226.9660 3375.5264 3410.0493 63.2813
353.0038 3.3007 226.8943 3376.5264 3411.0432 63.3778
354.0019 3.3056 226.8306 3377.5266 3412.0371 63.4727
355.0005 3.3102 226.7747 3378.5269 3413.0312 63.5662
355.9995 3.3146 226.7267 3379.5269 3414.0254 63.6582
356.9988 3.3186 226.6866 3380.5271 3415.0195 63.7485
357.9984 3.3222 226.6543 3381.5273 3416.0137 63.8373
358.9983 3.3253 226.6299 3382.5273 3417.0078 63.8710
359.9983 3.3278 226.6133 3383.5276 3418.0022 63.7665
360.9984 3.3298 226.6045 3384.5276 3418.9966 63.6605
361.9985 3.3311 226.6036 3385.5278 3419.9910 63.5531
362.9987 3.3318 226.6105 3386.5281 3420.9856 63.4444
363.9987 3.3319 226.6255 3387.5281 3421.9800 63.3343
364.9986 3.3312 226.6483 3388.5283 3422.9744 63.2229
365.9983 3.3297 226.6791 3389.5286 3423.9688 63.0452
366.9977 3.3276 226.7180 3390.5286 3424.9629 62.8039
367.9967 3.3248 226.7649 3391.5288 3425.9573 62.5630
368.9954 3.3215 226.8200 3392.5291 3426.9514 62.3228
369.9935 3.3177 226.8832 3393.5291 3427.9456 62.0832
370.9911 3.3135 226.9548 3394.5293 3428.9397 61.8443
371.9881 3.3091 227.0346 3395.5293 3429.9338 61.6061
372.9843 3.3044 227.1228 3396.5295 3430.9265 61.4617
373.9798 3.2997 227.2194 3397.5298 3431.9146 61.3516
374.9744 3.2948 227.3244 3398.5298 3432.8992 61.2399
375.9681 3.2899 227.4379 3399.5300 3433.8821 61.1267
376.9608 3.2851 227.5599 3400.5303 3434.8647 61.0120
377.9524 3.2803 227.6904 3401.5303 3435.8489 60.8958
