VERSION 0.7
FIELDS x y z arclength speed lapdistance
SIZE 4 4 4 4 4 4
TYPE F F F F F F
COUNT 1 1 1 1 1 1
WIDTH 886
HEIGHT 1
VIEWPOINT 0.000 0.000 0.000 1.000 0.000 0.000 0.000
POINTS 886
DATA ascii
-249.2511 0.9034 -459.0443 3499.9856 71.5941 3499.9878
-248.6275 0.9014 -457.6797 3501.4858 71.6847 3501.4880
-248.0042 0.8993 -456.3151 3502.9861 71.7749 3502.9883
-247.3811 0.8972 -454.9504 3504.4863 71.8646 3504.4885
-246.7582 0.8952 -453.5857 3505.9866 71.9537 3505.9888
-246.1353 0.8932 -452.2209 3507.4868 72.0423 3507.4890
-245.5126 0.8914 -450.8560 3508.9868 72.1304 3508.9890
-244.8900 0.8896 -449.4911 3510.4871 72.2180 3510.4893
-244.2674 0.8878 -448.1260 3511.9873 72.3051 3511.9895
-243.6452 0.8861 -446.7610 3513.4875 72.3917 3513.4897
-243.0234 0.8844 -445.3958 3514.9878 72.4778 3514.9900
-242.4024 0.8827 -444.0302 3516.4880 72.5634 3516.4902
-241.7825 0.8810 -442.6642 3517.9883 72.6485 3517.9902
-241.1640 0.8793 -441.2973 3519.4883 72.7332 3519.4902
-240.5475 0.8776 -439.9296 3520.9885 72.8173 3520.9905
-239.9334 0.8758 -438.5609 3522.4888 72.9010 3522.4907
-239.3222 0.8741 -437.1908 3523.9890 72.9843 3523.9912
-238.7147 0.8723 -435.8191 3525.4893 73.0670 3525.4915
-238.1116 0.8705 -434.4453 3526.9895 73.1493 3526.9917
-237.5137 0.8686 -433.0693 3528.4897 73.2312 3528.4919
-236.9221 0.8665 -431.6908 3529.9897 73.3125 3529.9919
-236.3372 0.8644 -430.3093 3531.4900 73.3935 3531.4922
-235.7592 0.8621 -428.9249 3532.9902 73.4739 3532.9924
-235.1877 0.8598 -427.5378 3534.4905 73.5540 3534.4927
-234.6214 0.8573 -426.1486 3535.9907 73.6336 3535.9929
-234.0594 0.8549 -424.7577 3537.4910 73.7127 3537.4932
-233.5005 0.8524 -423.3655 3538.9912 73.7914 3538.9932
-232.9438 0.8498 -421.9725 3540.4912 73.8697 3540.4932
-232.3888 0.8473 -420.5788 3541.9915 73.9476 3541.9934
-231.8352 0.8448 -419.1844 3543.4917 74.0250 3543.4937
-231.2829 0.8423 -417.7895 3544.9919 73.7284 3544.9939
-230.7320 0.8399 -416.3941 3546.4922 73.1950 3546.4944
-230.1827 0.8374 -414.9981 3547.9924 72.6590 3547.9944
-229.6353 0.8351 -413.6014 3549.4924 72.1203 3549.4944
-229.0900 0.8328 -412.2038 3550.9927 71.5788 3550.9946
-228.5472 0.8307 -410.8053 3552.4929 71.0346 3552.4949
-228.0075 0.8286 -409.4055 3553.9932 70.4874 3553.9951
-227.4716 0.8266 -408.0044 3555.4934 69.9374 3555.4954
-226.9406 0.8246 -406.6013 3556.9937 69.3843 3556.9956
-226.4153 0.8227 -405.1960 3558.4939 68.8282 3558.4958
-225.8970 0.8208 -403.7881 3559.9939 68.2689 3559.9958
-225.3867 0.8188 -402.3773 3561.4941 67.7065 3561.4961
-224.8858 0.8168 -400.9632 3562.9944 67.1408 3562.9963
-224.3950 0.8148 -399.5456 3564.4946 66.5718 3564.4966
-223.9149 0.8127 -398.1243 3565.9949 66.2818 3565.9968
-223.4456 0.8105 -396.6993 3567.4951 66.4059 3567.4971
-222.9869 0.8082 -395.2709 3568.9954 66.5291 3568.9976
-222.5382 0.8059 -393.8394 3570.4954 66.6515 3570.4976
-222.0990 0.8035 -392.4050 3571.9956 66.7731 3571.9976
-221.6683 0.8011 -390.9680 3573.4958 66.8938 3573.4978
-221.2451 0.7986 -389.5288 3574.9961 67.0138 3574.9980
-220.8283 0.7962 -388.0878 3576.4963 67.1329 3576.4980
-220.4166 0.7938 -386.6452 3577.9966 67.2513 3577.9983
-220.0094 0.7914 -385.2013 3579.4968 67.3689 3579.4985
-219.6069 0.7891 -383.7561 3580.9968 67.4857 3580.9988
-219.2099 0.7869 -382.3093 3582.4971 67.6017 3582.4990
-218.8191 0.7847 -380.8608 3583.9973 67.7170 3583.9993
-218.4346 0.7826 -379.4107 3585.4976 67.8316 3585.4995
-218.0562 0.7804 -377.9591 3586.9978 67.9454 3586.9998
-217.6828 0.7783 -376.5060 3588.4980 68.0584 3588.5000
-217.3135 0.7762 -375.0519 3589.9983 68.1707 3590.0002
-216.9476 0.7742 -373.5970 3591.4983 68.2824 3591.5002
-216.5848 0.7722 -372.1414 3592.9985 68.3932 3593.0005
-216.2255 0.7704 -370.6850 3594.4988 68.5034 3594.5007
-215.8707 0.7688 -369.2274 3595.9990 68.6129 3596.0007
-215.5215 0.7674 -367.7683 3597.4993 68.7217 3597.5010
-215.1790 0.7662 -366.3077 3598.9995 68.8298 3599.0015
-214.8439 0.7653 -364.8454 3600.4995 68.9372 3600.5015
-214.5168 0.7646 -363.3813 3601.9998 69.0440 3602.0017
-214.1978 0.7643 -361.9154 3603.5000 69.1500 3603.5020
-213.8873 0.7643 -360.4478 3605.0002 69.2555 3605.0020
-213.5853 0.7645 -358.9783 3606.5005 69.3602 3606.5022
-213.2919 0.7651 -357.5071 3608.0007 69.4643 3608.0024
-213.0076 0.7659 -356.0341 3609.5010 69.5678 3609.5027
-212.7328 0.7670 -354.5592 3611.0010 69.6706 3611.0027
-212.4679 0.7684 -353.0826 3612.5012 69.7728 3612.5029
-212.2129 0.7700 -351.6043 3614.0015 69.8744 3614.0032
-211.9677 0.7720 -350.1243 3615.5017 69.9753 3615.5034
-211.7316 0.7742 -348.6427 3617.0020 70.0756 3617.0037
-211.5039 0.7768 -347.1598 3618.5022 70.1754 3618.5039
-211.2845 0.7796 -345.6758 3620.0024 69.8260 3620.0042
-211.0734 0.7828 -344.1906 3621.5024 69.2723 3621.5042
-210.8716 0.7863 -342.7039 3623.0027 68.7155 3623.0044
-210.6799 0.7902 -341.2159 3624.5029 68.1556 3624.5046
-210.4989 0.7943 -339.7267 3626.0032 67.5986 3626.0049
-210.3288 0.7986 -338.2361 3627.5034 67.7139 3627.5051
-210.1691 0.8032 -336.7444 3629.0037 67.8284 3629.0056
-210.0191 0.8080 -335.2517 3630.5039 67.9423 3630.5059
-209.8772 0.8130 -333.7582 3632.0039 68.0553 3632.0059
-209.7421 0.8183 -332.2641 3633.5042 68.1677 3633.5061
-209.6128 0.8239 -330.7695 3635.0044 68.2793 3635.0063
-209.4891 0.8299 -329.2743 3636.5046 68.3902 3636.5066
-209.3707 0.8362 -327.7787 3638.0049 68.5004 3638.0071
-209.2578 0.8429 -326.2828 3639.5051 68.6099 3639.5073
-209.1501 0.8500 -324.7866 3641.0051 68.7187 3641.0073
-209.0471 0.8576 -323.2899 3642.5054 68.8269 3642.5073
-208.9481 0.8655 -321.7929 3644.0056 68.9343 3644.0078
-208.8526 0.8739 -320.2958 3645.5059 69.0411 3645.5081
-208.7604 0.8827 -318.7985 3647.0061 69.1471 3647.0083
-208.6724 0.8919 -317.3008 3648.5063 69.2526 3648.5085
-208.5900 0.9015 -315.8029 3650.0066 69.3574 3650.0088
-208.5150 0.9113 -314.3047 3651.5066 69.4615 3651.5088
-208.4487 0.9214 -312.8060 3653.0068 69.1814 3653.0090
-208.3918 0.9316 -311.3068 3654.5071 68.6242 3654.5093
-208.3445 0.9420 -309.8073 3656.0073 68.0638 3656.0095
-208.3057 0.9524 -308.3076 3657.5076 67.5002 3657.5100
-208.2742 0.9629 -306.8076 3659.0078 66.9333 3659.0103
-208.2485 0.9734 -305.3076 3660.5081 66.3630 3660.5105
-208.2277 0.9840 -303.8075 3662.0081 65.7893 3662.0105
-208.2112 0.9946 -302.3074 3663.5083 65.2120 3663.5107
-208.1988 1.0053 -300.8073 3665.0085 64.6311 3665.0110
-208.1904 1.0160 -299.3071 3666.5088 64.0466 3666.5115
-208.1858 1.0269 -297.8071 3668.0090 63.4582 3668.0115
-208.1853 1.0378 -296.3069 3669.5093 62.8660 3669.5117
-208.1890 1.0488 -294.8068 3671.0095 62.2697 3671.0120
-208.1978 1.0599 -293.3067 3672.5095 61.6694 3672.5120
-208.2130 1.0712 -291.8066 3674.0098 61.0649 3674.0122
-208.2368 1.0824 -290.3067 3675.5100 60.4560 3675.5122
-208.2716 1.0937 -288.8070 3677.0103 59.8427 3677.0125
-208.3196 1.1048 -287.3075 3678.5105 59.2249 3678.5129
-208.3817 1.1158 -285.8086 3680.0107 59.4025 3680.0132
-208.4569 1.1267 -284.3103 3681.5110 59.5786 3681.5134
-208.5415 1.1375 -282.8126 3683.0110 59.7532 3683.0134
-208.6325 1.1483 -281.3152 3684.5112 59.9263 3684.5134
-208.7282 1.1594 -279.8181 3686.0115 60.0981 3686.0139
-208.8280 1.1706 -278.3213 3687.5117 60.2684 3687.5139
-208.9303 1.1819 -276.8248 3689.0120 60.4373 3689.0139
-209.0334 1.1932 -275.3282 3690.5122 60.6048 3690.5142
-209.1358 1.2044 -273.8315 3692.0122 60.7710 3692.0144
-209.2361 1.2155 -272.3347 3693.5125 60.9358 3693.5146
-209.3329 1.2264 -270.8377 3695.0127 61.0993 3695.0149
-209.4250 1.2372 -269.3403 3696.5129 61.2615 3696.5151
-209.5116 1.2477 -267.8426 3698.0132 61.4224 3698.0154
-209.5916 1.2580 -266.3445 3699.5134 61.5820 3699.5156
-209.6649 1.2680 -264.8461 3701.0137 61.7404 3701.0159
-209.7319 1.2777 -263.3475 3702.5137 61.8975 3702.5159
-209.7943 1.2870 -261.8486 3704.0139 62.0534 3704.0161
-209.8538 1.2959 -260.3496 3705.5142 62.2081 3705.5164
-209.9117 1.3044 -258.8506 3707.0144 62.3616 3707.0166
-209.9684 1.3126 -257.3516 3708.5146 62.5139 3708.5166
-210.0235 1.3203 -255.8523 3710.0149 62.6651 3710.0171
-210.0763 1.3277 -254.3531 3711.5151 62.8151 3711.5171
-210.1255 1.3348 -252.8537 3713.0151 62.9640 3713.0171
-210.1698 1.3415 -251.3542 3714.5154 63.1117 3714.5173
-210.2078 1.3478 -249.8545 3716.0156 63.2584 3716.0176
-210.2385 1.3539 -248.3546 3717.5159 63.4039 3717.5178
-210.2611 1.3597 -246.8546 3719.0161 63.5484 3719.0181
-210.2754 1.3652 -245.3545 3720.5164 63.6918 3720.5183
-210.2819 1.3704 -243.8543 3722.0166 63.8341 3722.0186
-210.2811 1.3754 -242.3540 3723.5166 63.9754 3723.5186
-210.2737 1.3801 -240.8539 3725.0168 64.1157 3725.0188
-210.2603 1.3845 -239.3537 3726.5171 64.2550 3726.5190
-210.2418 1.3887 -237.8536 3728.0173 64.3932 3728.0195
-210.2185 1.3926 -236.3535 3729.5176 64.5305 3729.5198
-210.1906 1.3963 -234.8535 3731.0178 64.6667 3731.0200
-210.1582 1.3998 -233.3537 3732.5181 64.8020 3732.5203
-210.1212 1.4031 -231.8539 3734.0181 64.9364 3734.0203
-210.0791 1.4061 -230.3542 3735.5183 65.0697 3735.5205
-210.0314 1.4089 -228.8548 3737.0186 65.2022 3737.0208
-209.9768 1.4114 -227.3556 3738.5188 65.3337 3738.5210
-209.9140 1.4136 -225.8566 3740.0190 65.4643 3740.0215
-209.8416 1.4155 -224.3581 3741.5193 65.5940 3741.5217
-209.7587 1.4170 -222.8602 3743.0193 65.7228 3743.0217
-209.6658 1.4182 -221.3629 3744.5195 65.8506 3744.5220
-209.5643 1.4191 -219.8661 3746.0198 65.9777 3746.0222
-209.4562 1.4197 -218.3699 3747.5200 66.1038 3747.5225
-209.3433 1.4202 -216.8739 3749.0203 66.2291 3749.0227
-209.2268 1.4205 -215.3781 3750.5205 66.3535 3750.5229
-209.1071 1.4207 -213.8827 3752.0208 66.4771 3752.0232
-208.9843 1.4209 -212.3875 3753.5208 66.5998 3753.5232
-208.8578 1.4211 -210.8927 3755.0210 66.7218 3755.0234
-208.7271 1.4214 -209.3981 3756.5212 66.8429 3756.5237
-208.5916 1.4217 -207.9039 3758.0215 66.7315 3758.0242
-208.4508 1.4221 -206.4103 3759.5217 66.1600 3759.5244
-208.3042 1.4225 -204.9173 3761.0220 65.5850 3761.0244
-208.1516 1.4229 -203.4250 3762.5222 65.0065 3762.5247
-207.9924 1.4233 -201.9333 3764.0222 64.4244 3764.0247
-207.8259 1.4237 -200.4423 3765.5225 63.8385 3765.5249
-207.6510 1.4241 -198.9523 3767.0227 63.2487 3767.0251
-207.4664 1.4245 -197.4634 3768.5229 62.6551 3768.5256
-207.2712 1.4248 -195.9760 3770.0232 62.0574 3770.0259
-207.0646 1.4249 -194.4901 3771.5234 61.4556 3771.5259
-206.8459 1.4251 -193.0060 3773.0237 60.8495 3773.0261
-206.6149 1.4251 -191.5238 3774.5237 60.2391 3774.5261
-206.3707 1.4250 -190.0436 3776.0239 59.6242 3776.0264
-206.1129 1.4249 -188.5658 3777.5242 59.0047 3777.5264
-205.8409 1.4245 -187.0904 3779.0244 58.7802 3779.0266
-205.5547 1.4241 -185.6178 3780.5247 58.9616 3780.5271
-205.2550 1.4234 -184.1479 3782.0249 59.1414 3782.0271
-204.9434 1.4227 -182.6804 3783.5251 59.3197 3783.5273
-204.6221 1.4219 -181.2150 3785.0251 59.4965 3785.0273
-204.2932 1.4211 -179.7512 3786.5254 59.6719 3786.5276
-203.9582 1.4203 -178.2890 3788.0256 59.8457 3788.0278
-203.6172 1.4196 -176.8280 3789.5259 60.0181 3789.5281
-203.2701 1.4190 -175.3684 3791.0261 60.1891 3791.0283
-202.9161 1.4183 -173.9106 3792.5264 60.3586 3792.5288
-202.5544 1.4177 -172.4547 3794.0264 60.5268 3794.0286
-202.1844 1.4171 -171.0008 3795.5266 60.6936 3795.5291
-201.8059 1.4165 -169.5491 3797.0269 60.8590 3797.0293
-201.4191 1.4158 -168.0995 3798.5271 61.0231 3798.5295
-201.0246 1.4152 -166.6521 3800.0273 61.1859 3800.0298
-200.6232 1.4147 -165.2065 3801.5276 61.3474 3801.5300
-200.2162 1.4142 -163.7626 3803.0278 61.5076 3803.0303
-199.8049 1.4137 -162.3199 3804.5278 61.6666 3804.5303
-199.3906 1.4134 -160.8782 3806.0281 61.8243 3806.0305
-198.9740 1.4131 -159.4371 3807.5283 61.9808 3807.5305
-198.5555 1.4128 -157.9965 3809.0286 62.1360 3809.0308
-198.1353 1.4127 -156.5564 3810.5288 62.2901 3810.5310
-197.7130 1.4125 -155.1168 3812.0291 62.4430 3812.0312
-197.2879 1.4125 -153.6780 3813.5293 62.5947 3813.5315
-196.8593 1.4125 -152.2404 3815.0293 62.7452 3815.0315
-196.4261 1.4125 -150.8041 3816.5295 62.8946 3816.5317
-195.9872 1.4126 -149.3695 3818.0298 63.0429 3818.0320
-195.5423 1.4127 -147.9368 3819.5300 63.1900 3819.5322
-195.0911 1.4128 -146.5061 3821.0303 63.3361 3821.0325
-194.6334 1.4129 -145.0773 3822.5305 63.4811 3822.5327
-194.1693 1.4130 -143.6507 3824.0308 63.6250 3824.0330
-193.6986 1.4129 -142.2261 3825.5308 63.7678 3825.5332
-193.2211 1.4127 -140.8038 3827.0310 63.9096 3827.0334
-192.7361 1.4123 -139.3841 3828.5312 64.0504 3828.5337
-192.2434 1.4117 -137.9671 3830.0315 64.1901 3830.0339
-191.7424 1.4107 -136.5531 3831.5317 64.3288 3831.5342
-191.2330 1.4094 -135.1420 3833.0320 64.4665 3833.0344
-190.7151 1.4078 -133.7339 3834.5320 64.6032 3834.5347
-190.1889 1.4059 -132.3290 3836.0322 64.7390 3836.0349
-189.6546 1.4037 -130.9271 3837.5325 64.8738 3837.5352
-189.1124 1.4011 -129.5282 3839.0327 65.0076 3839.0354
-188.5622 1.3982 -128.1325 3840.5330 65.1405 3840.5356
-188.0041 1.3949 -126.7399 3842.0332 65.2724 3842.0361
-187.4384 1.3913 -125.3505 3843.5334 65.4034 3843.5361
-186.8655 1.3875 -123.9641 3845.0334 65.5335 3845.0361
-186.2860 1.3833 -122.5803 3846.5337 65.6628 3846.5364
-185.7005 1.3788 -121.1992 3848.0339 65.7911 3848.0366
-185.1093 1.3741 -119.8205 3849.5342 65.9185 3849.5366
-184.5129 1.3692 -118.4440 3851.0344 66.0450 3851.0369
-183.9118 1.3640 -117.0696 3852.5347 66.1707 3852.5371
-183.3062 1.3586 -115.6971 3854.0349 66.2955 3854.0374
-182.6963 1.3529 -114.3264 3855.5349 66.4195 3855.5374
-182.0822 1.3470 -112.9576 3857.0352 66.5426 3857.0376
-181.4638 1.3408 -111.5909 3858.5354 66.6649 3858.5378
-180.8411 1.3344 -110.2260 3860.0356 66.7864 3860.0381
-180.2141 1.3278 -108.8632 3861.5359 66.9071 3861.5383
-179.5828 1.3209 -107.5024 3863.0361 67.0270 3863.0383
-178.9469 1.3138 -106.1437 3864.5364 67.1460 3864.5386
-178.3064 1.3065 -104.7870 3866.0364 67.2643 3866.0388
-177.6611 1.2989 -103.4326 3867.5366 67.3818 3867.5391
-177.0108 1.2910 -102.0806 3869.0369 67.4985 3869.0393
-176.3555 1.2829 -100.7312 3870.5371 67.6145 3870.5396
-175.6947 1.2745 -99.3843 3872.0374 67.7297 3872.0398
-175.0282 1.2658 -98.0404 3873.5376 67.8442 3873.5400
-174.3558 1.2569 -96.6992 3875.0378 67.9579 3875.0403
-173.6776 1.2477 -95.3610 3876.5378 68.0708 3876.5405
-172.9935 1.2382 -94.0260 3878.0381 68.1831 3878.0405
-172.3033 1.2285 -92.6940 3879.5383 68.2946 3879.5408
-171.6068 1.2185 -91.3652 3881.0386 68.0522 3881.0410
-170.9038 1.2083 -90.0400 3882.5388 67.4885 3882.5415
-170.1938 1.1977 -88.7185 3884.0391 66.9216 3884.0415
-169.4762 1.1869 -87.4012 3885.5391 66.3512 3885.5415
-168.7502 1.1758 -86.0883 3887.0393 65.7774 3887.0420
-168.0152 1.1644 -84.7804 3888.5396 65.2001 3888.5422
-167.2706 1.1526 -83.4782 3890.0398 64.6191 3890.0425
-166.5156 1.1404 -82.1819 3891.5400 64.0345 3891.5425
-165.7502 1.1280 -80.8918 3893.0403 64.1744 3893.0427
-164.9744 1.1152 -79.6078 3894.5405 64.3132 3894.5430
-164.1891 1.1021 -78.3295 3896.0405 64.4510 3896.0432
-163.3954 1.0887 -77.0566 3897.5408 64.5878 3897.5435
-162.5943 1.0750 -75.7883 3899.0410 64.7237 3899.0435
-161.7865 1.0610 -74.5242 3900.5413 64.8586 3900.5437
-160.9724 1.0467 -73.2642 3902.0415 64.9925 3902.0439
-160.1519 1.0322 -72.0084 3903.5417 65.1255 3903.5442
-159.3249 1.0175 -70.7568 3905.0420 65.2576 3905.0444
-158.4917 1.0026 -69.5095 3906.5420 65.3887 3906.5444
-157.6527 0.9875 -68.2658 3908.0422 65.5189 3908.0447
-156.8089 0.9723 -67.0254 3909.5425 65.6482 3909.5449
-155.9616 0.9570 -65.7873 3911.0427 65.7766 3911.0452
-155.1121 0.9418 -64.5510 3912.5430 65.9041 3912.5457
-154.2613 0.9265 -63.3155 3914.0432 66.0308 3914.0457
-153.4099 0.9112 -62.0805 3915.5435 66.1565 3915.5459
-152.5584 0.8958 -60.8455 3917.0435 66.2815 3917.0459
-151.7069 0.8803 -59.6104 3918.5437 66.4055 3918.5461
-150.8557 0.8648 -58.3751 3920.0439 66.5288 3920.0464
-150.0047 0.8492 -57.1398 3921.5442 66.6512 3921.5466
-149.1541 0.8335 -55.9043 3923.0444 66.7727 3923.0466
-148.3036 0.8180 -54.6686 3924.5447 66.8935 3924.5469
-147.4533 0.8025 -53.4326 3926.0449 67.0135 3926.0471
-146.6035 0.7871 -52.1964 3927.5449 67.1326 3927.5474
-145.7543 0.7718 -50.9599 3929.0452 67.2510 3929.0476
-144.9058 0.7567 -49.7227 3930.5454 67.3686 3930.5476
-144.0585 0.7417 -48.4848 3932.0457 67.4854 3932.0479
-143.2129 0.7269 -47.2456 3933.5459 67.6014 3933.5483
-142.3693 0.7122 -46.0051 3935.0461 67.7167 3935.0483
-141.5287 0.6976 -44.7627 3936.5461 67.8313 3936.5483
-140.6918 0.6830 -43.5178 3938.0464 67.9451 3938.0486
-139.8595 0.6684 -42.2696 3939.5466 68.0581 3939.5491
-139.0330 0.6538 -41.0177 3941.0469 68.1705 3941.0493
-138.2129 0.6391 -39.7617 3942.5471 68.2821 3942.5493
-137.3998 0.6244 -38.5009 3944.0474 68.3930 3944.0498
-136.5942 0.6096 -37.2355 3945.5476 68.5031 3945.5498
-135.7963 0.5948 -35.9651 3947.0476 68.6126 3947.0498
-135.0062 0.5799 -34.6899 3948.5479 68.7214 3948.5500
-134.2240 0.5650 -33.4097 3950.0481 68.8295 3950.0505
-133.4497 0.5501 -32.1250 3951.5483 68.9370 3951.5505
-132.6835 0.5350 -30.8353 3953.0486 69.0437 3953.0508
-131.9253 0.5200 -29.5408 3954.5488 69.1313 3954.5513
-131.1757 0.5048 -28.2414 3956.0491 68.5738 3956.0515
-130.4347 0.4896 -26.9369 3957.5491 68.0131 3957.5515
-129.7029 0.4743 -25.6274 3959.0493 67.4492 3959.0518
-128.9805 0.4590 -24.3128 3960.5496 66.8820 3960.5520
-128.2680 0.4435 -22.9928 3962.0498 66.3114 3962.0520
-127.5654 0.4280 -21.6673 3963.5500 66.4353 3963.5525
-126.8728 0.4124 -20.3365 3965.0503 66.5583 3965.0527
-126.1898 0.3966 -19.0009 3966.5505 66.6805 3966.5530
-125.5154 0.3808 -17.6609 3968.0505 66.8019 3968.0530
-124.8483 0.3650 -16.3173 3969.5508 66.9224 3969.5532
-124.1867 0.3491 -14.9710 3971.0510 67.0422 3971.0535
-123.5293 0.3333 -13.6225 3972.5513 67.1612 3972.5537
-122.8749 0.3176 -12.2727 3974.0515 67.2794 3974.0540
-122.2231 0.3019 -10.9216 3975.5518 67.3968 3975.5542
-121.5738 0.2863 -9.5693 3977.0520 67.5134 3977.0544
-120.9271 0.2707 -8.2157 3978.5520 67.6292 3978.5544
-120.2837 0.2552 -6.8606 3980.0522 67.7444 3980.0547
-119.6439 0.2398 -5.5037 3981.5525 67.8587 3981.5549
-119.0085 0.2244 -4.1447 3983.0527 67.9723 3983.0552
-118.3780 0.2091 -2.7834 3984.5530 68.0852 3984.5554
-117.7530 0.1937 -1.4196 3986.0532 68.1974 3986.0559
-117.1342 0.1783 -0.0529 3987.5532 68.3088 3987.5559
-116.5223 0.1630 1.3167 3989.0535 68.4195 3989.0562
-115.9176 0.1476 2.6895 3990.5537 68.5296 3990.5564
-115.3206 0.1321 4.0657 3992.0540 68.6389 3992.0566
-114.7317 0.1166 5.4454 3993.5542 68.7475 3993.5569
-114.1511 0.1011 6.8287 3995.0544 68.8554 3995.0571
-113.5794 0.0855 8.2155 3996.5547 68.9627 3996.5574
-113.0164 0.0698 9.6059 3998.0547 69.0693 3998.0571
-112.4619 0.0541 10.9998 3999.5549 69.1752 3999.5576
-111.9156 0.0384 12.3970 4001.0552 69.2805 4001.0579
-111.3771 0.0225 13.7970 4002.5554 69.3851 4002.5581
-110.8462 0.0067 15.2000 4004.0557 69.4890 4004.0581
-110.3227 -0.0092 16.6058 4005.5559 69.5923 4005.5583
-109.8064 -0.0252 18.0143 4007.0562 69.6950 4007.0586
-109.2970 -0.0411 19.4253 4008.5562 69.7970 4008.5586
-108.7941 -0.0570 20.8387 4010.0564 69.8985 4010.0591
-108.2972 -0.0729 22.2542 4011.5566 69.9993 4011.5593
-107.8058 -0.0888 23.6716 4013.0569 70.0994 4013.0596
-107.3194 -0.1047 25.0907 4014.5571 70.1990 4014.5598
-106.8377 -0.1206 26.5113 4016.0574 70.2980 4016.0601
-106.3601 -0.1364 27.9334 4017.5576 70.3964 4017.5603
-105.8867 -0.1522 29.3569 4019.0576 70.4941 4019.0603
-105.4173 -0.1680 30.7817 4020.5579 70.5913 4020.5605
-104.9520 -0.1837 32.2079 4022.0581 70.6879 4022.0608
-104.4908 -0.1993 33.6353 4023.5583 70.7840 4023.5610
-104.0334 -0.2149 35.0640 4025.0586 70.8794 4025.0613
-103.5798 -0.2304 36.4940 4026.5588 70.9743 4026.5615
-103.1300 -0.2459 37.9251 4028.0588 71.0687 4028.0615
-102.6840 -0.2613 39.3573 4029.5591 71.1624 4029.5618
-102.2419 -0.2767 40.7908 4031.0593 71.2557 4031.0620
-101.8040 -0.2921 42.2256 4032.5596 71.3483 4032.5623
-101.3704 -0.3074 43.6617 4034.0598 71.4405 4034.0625
-100.9413 -0.3227 45.0993 4035.5601 71.5320 4035.5630
-100.5167 -0.3380 46.5381 4037.0603 71.6231 4037.0632
-100.0966 -0.3532 47.9782 4038.5603 71.7136 4038.5632
-99.6811 -0.3683 49.4196 4040.0605 71.8036 4040.0635
-99.2703 -0.3835 50.8625 4041.5608 71.8931 4041.5637
-98.8648 -0.3986 52.3068 4043.0610 71.7866 4043.0640
-98.4652 -0.4138 53.7527 4044.5613 71.2434 4044.5642
-98.0725 -0.4289 55.2006 4046.0615 70.6973 4046.0645
-97.6881 -0.4440 56.6507 4047.5618 70.1484 4047.5647
-97.3127 -0.4592 58.1031 4049.0618 69.5965 4049.0649
-96.9472 -0.4745 59.5580 4050.5620 69.0415 4050.5652
-96.5918 -0.4899 61.0155 4052.0623 68.4835 4052.0654
-96.2468 -0.5053 62.4754 4053.5625 68.2066 4053.5654
-95.9124 -0.5209 63.9377 4055.0627 68.2673 4055.0657
-95.5884 -0.5365 65.4025 4056.5630 68.3783 4056.5662
-95.2747 -0.5522 66.8695 4058.0632 68.4886 4058.0664
-94.9711 -0.5680 68.3386 4059.5632 68.5982 4059.5664
-94.6765 -0.5838 69.8095 4061.0635 68.7070 4061.0667
-94.3903 -0.5997 71.2822 4062.5637 68.8152 4062.5669
-94.1114 -0.6156 72.7562 4064.0640 68.9227 4064.0674
-93.8391 -0.6315 74.2314 4065.5642 69.0296 4065.5674
-93.5728 -0.6474 75.7076 4067.0645 69.1357 4067.0676
-93.3115 -0.6633 77.1849 4068.5647 69.2412 4068.5679
-93.0546 -0.6791 78.6629 4070.0647 69.3461 4070.0681
-92.8013 -0.6948 80.1415 4071.5649 69.4503 4071.5684
-92.5514 -0.7105 81.6207 4073.0652 69.5538 4073.0686
-92.3045 -0.7259 83.1004 4074.5654 69.6567 4074.5688
-92.0607 -0.7410 84.5806 4076.0657 69.7590 4076.0691
-91.8203 -0.7558 86.0614 4077.5659 69.8607 4077.5693
-91.5837 -0.7702 87.5427 4079.0659 69.9617 4079.0693
-91.3513 -0.7842 89.0247 4080.5662 70.0621 4080.5696
-91.1235 -0.7977 90.5075 4082.0664 70.1619 4082.0698
-90.8999 -0.8109 91.9910 4083.5667 70.2611 4083.5701
-90.6803 -0.8236 93.4748 4085.0669 70.3597 4085.0703
-90.4642 -0.8359 94.9593 4086.5671 70.4577 4086.5706
-90.2514 -0.8478 96.4444 4088.0674 70.5551 4088.0708
-90.0422 -0.8593 97.9298 4089.5674 70.6519 4089.5708
-89.8364 -0.8703 99.4158 4091.0676 70.7482 4091.0710
-89.6343 -0.8810 100.9023 4092.5679 70.8439 4092.5713
-89.4359 -0.8913 102.3894 4094.0681 70.9390 4094.0715
-89.2412 -0.9012 103.8769 4095.5684 71.0335 4095.5718
-89.0504 -0.9107 105.3649 4097.0684 71.1275 4097.0718
-88.8635 -0.9198 106.8533 4098.5688 71.2209 4098.5723
-88.6807 -0.9285 108.3421 4100.0688 71.3138 4100.0723
-88.5021 -0.9368 109.8318 4101.5693 71.4061 4101.5728
-88.3282 -0.9448 111.3219 4103.0693 71.4979 4103.0728
-88.1592 -0.9524 112.8124 4104.5693 71.5892 4104.5728
-87.9956 -0.9596 114.3039 4106.0698 71.6799 4106.0732
-87.8379 -0.9665 115.7958 4107.5698 71.7701 4107.5732
-87.6862 -0.9730 117.2882 4109.0703 71.8598 4109.0737
-87.5408 -0.9792 118.7812 4110.5703 71.9489 4110.5737
-87.4018 -0.9851 120.2748 4112.0708 72.0376 4112.0742
-87.2691 -0.9906 121.7691 4113.5708 72.1257 4113.5737
-87.1426 -0.9958 123.2639 4115.0708 72.2133 4115.0737
-87.0221 -1.0007 124.7592 4116.5713 72.3004 4116.5742
-86.9071 -1.0051 126.2552 4118.0713 72.3870 4118.0747
-86.7970 -1.0092 127.7515 4119.5718 72.4732 4119.5752
-86.6910 -1.0129 129.2479 4121.0718 72.5588 4121.0752
-86.5884 -1.0162 130.7446 4122.5723 72.6440 4122.5757
-86.4886 -1.0193 132.2415 4124.0723 72.7286 4124.0757
-86.3916 -1.0222 133.7387 4125.5723 72.8128 4125.5757
-86.2973 -1.0250 135.2361 4127.0728 72.8966 4127.0762
-86.2060 -1.0277 136.7334 4128.5728 72.9798 4128.5762
-86.1182 -1.0303 138.2309 4130.0732 73.0626 4130.0767
-86.0340 -1.0329 139.7289 4131.5732 73.1449 4131.5767
-85.9538 -1.0356 141.2269 4133.0737 73.2268 4133.0771
-85.8778 -1.0382 142.7250 4134.5737 73.3082 4134.5771
-85.8061 -1.0408 144.2234 4136.0737 73.3891 4136.0771
-85.7389 -1.0435 145.7221 4137.5742 73.4696 4137.5776
-85.6762 -1.0461 147.2209 4139.0742 73.5497 4139.0776
-85.6182 -1.0487 148.7198 4140.5747 73.6293 4140.5776
-85.5650 -1.0513 150.2189 4142.0747 73.7085 4142.0776
-85.5170 -1.0539 151.7182 4143.5752 73.7872 4143.5776
-85.4743 -1.0565 153.2177 4145.0752 73.8655 4145.0776
-85.4376 -1.0591 154.7174 4146.5752 73.9434 4146.5776
-85.4072 -1.0617 156.2175 4148.0757 74.0209 4148.0781
-85.3836 -1.0644 157.7174 4149.5757 74.0979 4149.5781
-85.3670 -1.0671 159.2174 4151.0762 74.1745 4151.0786
-85.3578 -1.0699 160.7177 4152.5762 74.2507 4152.5786
-85.3564 -1.0728 162.2180 4154.0767 74.3265 4154.0791
-85.3630 -1.0757 163.7182 4155.5767 74.4019 4155.5796
-85.3778 -1.0788 165.2184 4157.0767 74.4769 4157.0801
-85.4009 -1.0819 166.7184 4158.5771 74.5514 4158.5801
-85.4322 -1.0850 168.2181 4160.0771 74.6256 4160.0796
-85.4717 -1.0882 169.7178 4161.5776 74.6994 4161.5801
-85.5192 -1.0915 171.2174 4163.0776 74.7727 4163.0801
-85.5744 -1.0949 172.7165 4164.5781 74.8457 4164.5806
-85.6369 -1.0983 174.2154 4166.0781 74.9183 4166.0806
-85.7061 -1.1017 175.7140 4167.5781 74.9905 4167.5811
-85.7813 -1.1052 177.2124 4169.0786 75.0623 4169.0815
-85.8617 -1.1087 178.7106 4170.5786 75.1338 4170.5815
-85.9470 -1.1122 180.2084 4172.0791 75.2048 4172.0820
-86.0370 -1.1156 181.7060 4173.5791 75.2755 4173.5820
-86.1319 -1.1191 183.2032 4175.0796 75.3459 4175.0825
-86.2320 -1.1226 184.7000 4176.5796 75.4158 4176.5825
-86.3375 -1.1261 186.1967 4178.0796 75.4854 4178.0825
-86.4483 -1.1297 187.6928 4179.5801 75.5546 4179.5830
-86.5642 -1.1332 189.1884 4181.0801 75.6235 4181.0830
-86.6845 -1.1368 190.6838 4182.5806 75.6919 4182.5835
-86.8086 -1.1403 192.1790 4184.0806 75.7601 4184.0840
-86.9360 -1.1439 193.6739 4185.5811 75.8279 4185.5845
-87.0662 -1.1473 195.1685 4187.0811 75.8953 4187.0845
-87.1990 -1.1507 196.6628 4188.5811 75.9624 4188.5845
-87.3342 -1.1538 198.1569 4190.0815 76.0291 4190.0850
-87.4719 -1.1566 199.6508 4191.5815 76.0955 4191.5850
-87.6123 -1.1589 201.1444 4193.0820 76.1292 4193.0854
-87.7557 -1.1608 202.6376 4194.5820 75.6073 4194.5854
-87.9028 -1.1620 204.1304 4196.0820 75.0829 4196.0854
-88.0542 -1.1627 205.6230 4197.5825 74.5561 4197.5854
-88.2105 -1.1629 207.1151 4199.0825 74.0268 4199.0854
-88.3721 -1.1625 208.6064 4200.5830 73.4949 4200.5859
-88.5393 -1.1615 210.0975 4202.0830 72.9604 4202.0864
-88.7119 -1.1600 211.5878 4203.5835 72.4232 4203.5869
-88.8896 -1.1579 213.0773 4205.0835 71.8833 4205.0869
-89.0720 -1.1552 214.5664 4206.5835 71.3406 4206.5864
-89.2587 -1.1520 216.0549 4208.0840 70.7951 4208.0869
-89.4492 -1.1482 217.5430 4209.5840 70.2467 4209.5874
-89.6434 -1.1439 219.0307 4211.0845 69.6953 4211.0879
-89.8410 -1.1389 220.5179 4212.5845 69.1409 4212.5879
-90.0421 -1.1333 222.0046 4214.0850 68.5834 4214.0884
-90.2468 -1.1272 223.4909 4215.5850 68.0228 4215.5884
-90.4553 -1.1205 224.9765 4217.0850 67.4589 4217.0884
-90.6679 -1.1132 226.4614 4218.5854 66.8918 4218.5889
-90.8850 -1.1054 227.9460 4220.0854 66.3212 4220.0889
-91.1067 -1.0969 229.4296 4221.5859 65.7473 4221.5894
-91.3332 -1.0880 230.9127 4223.0859 65.1698 4223.0894
-91.5646 -1.0785 232.3950 4224.5864 64.5886 4224.5903
-91.8009 -1.0684 233.8763 4226.0864 64.0038 4226.0898
-92.0421 -1.0577 235.3568 4227.5864 63.4151 4227.5898
-92.2879 -1.0465 236.8366 4229.0869 62.8226 4229.0903
-92.5376 -1.0347 238.3159 4230.5869 62.2261 4230.5903
-92.7908 -1.0224 239.7945 4232.0874 61.6254 4232.0908
-93.0469 -1.0094 241.2727 4233.5874 61.0206 4233.5908
-93.3056 -0.9958 242.7504 4235.0879 60.4114 4235.0913
-93.5667 -0.9816 244.2277 4236.5879 59.7978 4236.5913
-93.8301 -0.9668 245.7045 4238.0879 59.1796 4238.0913
-94.0957 -0.9514 247.1808 4239.5884 58.5567 4239.5918
-94.3639 -0.9356 248.6567 4241.0884 57.9290 4241.0918
-94.6348 -0.9193 250.1323 4242.5889 57.2963 4242.5923
-94.9087 -0.9028 251.6072 4244.0889 56.6584 4244.0923
-95.1864 -0.8861 253.0815 4245.5894 56.0152 4245.5928
-95.4682 -0.8693 254.5549 4247.0894 55.3666 4247.0928
-95.7546 -0.8525 256.0274 4248.5894 54.7124 4248.5928
-96.0457 -0.8357 257.4991 4250.0898 54.0523 4250.0933
-96.3413 -0.8190 258.9697 4251.5898 53.3862 4251.5933
-96.6408 -0.8023 260.4395 4253.0903 52.7138 4253.0938
-96.9440 -0.7855 261.9087 4254.5903 52.0350 4254.5938
-97.2503 -0.7688 263.3772 4256.0908 51.3495 4256.0942
-97.5597 -0.7520 264.8451 4257.5908 50.6571 4257.5942
-97.8721 -0.7353 266.3123 4259.0908 49.9575 4259.0942
-98.1880 -0.7186 267.7787 4260.5913 49.2503 4260.5947
-98.5078 -0.7019 269.2443 4262.0913 48.5354 4262.0947
-98.8326 -0.6853 270.7087 4263.5918 47.8124 4263.5947
-99.1633 -0.6686 272.1718 4265.0918 47.0810 4265.0947
-99.5009 -0.6520 273.6335 4266.5923 46.3407 4266.5952
-99.8462 -0.6354 275.0934 4268.0923 45.5912 4268.0957
-100.1996 -0.6188 276.5513 4269.5923 44.8359 4269.5957
-100.5619 -0.6023 278.0069 4271.0928 44.0777 4271.0957
-100.9338 -0.5857 279.4602 4272.5928 43.3166 4272.5957
-101.3157 -0.5691 280.9109 4274.0933 42.5524 4274.0962
-101.7076 -0.5525 282.3589 4275.5933 41.7850 4275.5962
-102.1087 -0.5358 283.8043 4277.0938 41.0143 4277.0967
-102.5180 -0.5190 285.2475 4278.5938 40.2401 4278.5967
-102.9340 -0.5022 286.6889 4280.0938 39.4623 4280.0967
-103.3545 -0.4852 288.1291 4281.5942 38.6807 4281.5972
-103.7776 -0.4682 289.5684 4283.0942 37.8951 4283.0977
-104.2017 -0.4511 291.0072 4284.5947 37.1054 4284.5981
-104.6262 -0.4340 292.4458 4286.0947 36.3114 4286.0977
-105.0508 -0.4170 293.8846 4287.5952 35.5128 4287.5981
-105.4749 -0.4001 295.3235 4289.0952 34.7093 4289.0981
-105.8967 -0.3834 296.7631 4290.5952 33.9008 4290.5981
-106.3121 -0.3668 298.2047 4292.0957 33.0870 4292.0991
-106.7144 -0.3501 299.6499 4293.5957 32.2675 4293.5991
-107.0945 -0.3335 301.1012 4295.0962 31.4420 4295.0996
-107.4424 -0.3168 302.5605 4296.5962 30.6101 4296.5996
-107.7503 -0.3002 304.0285 4298.0962 29.7715 4298.0996
-108.0146 -0.2835 305.5049 4299.5967 30.3753 4299.6001
-108.2377 -0.2667 306.9883 4301.0967 29.8712 4301.1001
-108.4230 -0.2498 308.4770 4302.5972 29.0263 4302.6006
-108.5716 -0.2327 309.9697 4304.0972 28.1736 4304.1006
-108.6805 -0.2155 311.4657 4305.5977 27.3128 4305.6011
-108.7443 -0.1983 312.9643 4307.0977 26.4431 4307.1011
-108.7562 -0.1813 314.4641 4308.5977 25.5639 4308.6011
-108.7117 -0.1646 315.9636 4310.0981 25.9996 4310.1016
-108.6120 -0.1482 317.4604 4311.5981 26.6900 4311.6016
-108.4626 -0.1319 318.9529 4313.0986 27.3628 4313.1016
-108.2701 -0.1157 320.4406 4314.5986 28.0192 4314.6016
-108.0395 -0.0993 321.9228 4316.0991 28.6605 4316.1021
-107.7740 -0.0828 323.3992 4317.5991 29.2876 4317.6021
-107.4746 -0.0660 324.8689 4319.0991 29.9013 4319.1021
-107.1399 -0.0490 326.3310 4320.5996 30.5026 4320.6025
-106.7682 -0.0320 327.7844 4322.0996 31.0921 4322.1025
-106.3589 -0.0148 329.2275 4323.6001 31.2672 4323.6030
-105.9118 0.0025 330.6593 4325.1001 30.4339 4325.1030
-105.4259 0.0199 332.0786 4326.6006 29.5938 4326.6035
-104.8992 0.0373 333.4832 4328.1006 28.7463 4328.1035
-104.3290 0.0547 334.8704 4329.6006 27.8911 4329.6035
-103.7127 0.0718 336.2380 4331.1011 27.6668 4331.1040
-103.0507 0.0888 337.5842 4332.6011 28.3161 4332.6040
-102.3458 0.1056 338.9082 4334.1016 28.9507 4334.1045
-101.6034 0.1224 340.2115 4335.6016 29.5716 4335.6045
-100.8296 0.1392 341.4965 4337.1021 30.1795 4337.1045
-100.0304 0.1562 342.7659 4338.6021 30.7753 4338.6045
-99.2094 0.1733 344.0213 4340.1021 31.3596 4340.1045
-98.3670 0.1905 345.2623 4341.6025 31.9331 4341.6045
-97.5008 0.2076 346.4868 4343.1025 32.4963 4343.1045
-96.6076 0.2245 347.6921 4344.6030 33.0498 4344.6050
-95.6853 0.2411 348.8754 4346.1030 32.9250 4346.1055
-94.7339 0.2574 350.0352 4347.6035 33.4713 4347.6060
-93.7565 0.2733 351.1730 4349.1035 34.0088 4349.1060
-92.7575 0.2890 352.2922 4350.6035 34.5377 4350.6060
-91.7402 0.3044 353.3949 4352.1040 35.0586 4352.1064
-90.7056 0.3196 354.4814 4353.6040 35.5718 4353.6069
-89.6528 0.3344 355.5501 4355.1045 36.0775 4355.1074
-88.5796 0.3489 356.5985 4356.6045 35.2977 4356.6074
-87.4843 0.3630 357.6234 4358.1050 34.4929 4358.1079
-86.3655 0.3767 358.6226 4359.6050 34.1498 4359.6079
-85.2235 0.3902 359.5954 4361.1050 34.6766 4361.1079
-84.0598 0.4035 360.5423 4362.6055 35.1954 4362.6084
-82.8778 0.4164 361.4660 4364.1055 35.7065 4364.1084
-81.6815 0.4292 362.3710 4365.6060 36.2104 4365.6089
-80.4751 0.4417 363.2627 4367.1060 36.7054 4367.1089
-79.2621 0.4540 364.1458 4368.6064 37.1894 4368.6094
-78.0453 0.4660 365.0235 4370.1064 37.6631 4370.1099
-76.8260 0.4778 365.8973 4371.6064 38.1268 4371.6099
-75.6030 0.4892 366.7661 4373.1069 38.5810 4373.1104
-74.3744 0.5002 367.6270 4374.6069 39.0261 4374.6104
-73.1383 0.5106 368.4774 4376.1074 39.4625 4376.1108
-71.8948 0.5206 369.3169 4377.6074 39.8906 4377.6108
-70.6458 0.5301 370.1481 4379.1079 40.3107 4379.1113
-69.3952 0.5393 370.9763 4380.6079 40.7231 4380.6113
-68.1473 0.5481 371.8090 4382.1079 41.1280 4382.1113
-66.9073 0.5567 372.6533 4383.6084 41.5259 4383.6118
-65.6794 0.5651 373.5151 4385.1084 41.2139 4385.1118
-64.4662 0.5732 374.3978 4386.6089 40.7265 4386.6128
-63.2687 0.5810 375.3015 4388.1089 41.1314 4388.1128
-62.0856 0.5885 376.2241 4389.6089 41.2522 4389.6128
-60.9163 0.5957 377.1637 4391.1094 40.4791 4391.1133
-59.7613 0.6026 378.1207 4392.6094 39.7025 4392.6128
-58.6220 0.6091 379.0969 4394.1099 38.9221 4394.1138
-57.5002 0.6153 380.0932 4395.6099 38.1377 4395.6138
-56.3973 0.6211 381.1099 4397.1104 37.3493 4397.1143
-55.3146 0.6265 382.1483 4398.6104 36.5567 4398.6143
-54.2538 0.6316 383.2092 4400.1104 36.9550 4400.1143
-53.2151 0.6363 384.2916 4401.6108 37.4337 4401.6147
-52.1964 0.6405 385.3929 4403.1108 37.9022 4403.1147
-51.1945 0.6445 386.5096 4404.6113 38.3610 4404.6152
-50.2062 0.6485 387.6382 4406.1113 38.8105 4406.1152
-49.2291 0.6526 388.7768 4407.6118 39.2511 4407.6157
-48.2625 0.6570 389.9243 4409.1118 39.6832 4409.1162
-47.3070 0.6618 391.0805 4410.6118 40.1071 4410.6157
-46.3633 0.6668 392.2464 4412.1123 40.5232 4412.1162
-45.4329 0.6715 393.4233 4413.6123 40.9317 4413.6162
-44.5182 0.6757 394.6126 4415.1128 41.3330 4415.1167
-43.6213 0.6791 395.8152 4416.6128 41.2383 4416.6167
-42.7439 0.6814 397.0321 4418.1133 40.4651 4418.1172
-41.8878 0.6827 398.2642 4419.6133 39.6884 4419.6172
-41.0544 0.6828 399.5116 4421.1133 39.4855 4421.1172
-40.2443 0.6819 400.7741 4422.6138 39.9132 4422.6177
-39.4565 0.6801 402.0509 4424.1138 40.3328 4424.1182
-38.6898 0.6778 403.3406 4425.6143 40.7448 4425.6187
-37.9423 0.6753 404.6415 4427.1143 41.1494 4427.1187
-37.2125 0.6728 405.9521 4428.6147 41.5468 4428.6191
-36.4992 0.6707 407.2717 4430.1147 41.9374 4430.1191
-35.8029 0.6688 408.6005 4431.6147 41.1974 4431.6191
-35.1256 0.6668 409.9390 4433.1152 40.4240 4433.1196
-34.4701 0.6646 411.2883 4434.6152 39.6471 4434.6191
-33.8388 0.6619 412.6492 4436.1157 38.8664 4436.1196
-33.2334 0.6587 414.0219 4437.6157 38.1921 4437.6201
-32.6549 0.6549 415.4061 4439.1162 38.1826 4439.1201
-32.1036 0.6506 416.8012 4440.6162 38.6357 4440.6201
-31.5788 0.6457 418.2067 4442.1162 39.0797 4442.1206
-31.0789 0.6402 419.6213 4443.6167 39.5151 4443.6211
-30.6014 0.6344 421.0437 4445.1167 39.9422 4445.1211
-30.1433 0.6282 422.4724 4446.6172 40.3613 4446.6221
-29.7030 0.6217 423.9065 4448.1172 40.7728 4448.1221
-29.2801 0.6149 425.3458 4449.6177 41.1768 4449.6221
-28.8757 0.6079 426.7903 4451.1177 41.5738 4451.1221
-28.4907 0.6005 428.2401 4452.6177 41.9640 4452.6221
-28.1251 0.5928 429.6950 4454.1182 42.3475 4454.1226
-27.7775 0.5849 431.1543 4455.6182 42.7247 4455.6226
-27.4453 0.5769 432.6170 4457.1187 43.0957 4457.1230
-27.1249 0.5690 434.0825 4458.6187 43.4607 4458.6226
-26.8131 0.5613 435.5500 4460.1191 43.8200 4460.1226
-26.5068 0.5541 437.0187 4461.6191 44.1738 4461.6230
-26.2038 0.5473 438.4881 4463.1191 44.5221 4463.1235
-25.9030 0.5410 439.9578 4464.6196 44.8652 4464.6240
-25.6038 0.5352 441.4277 4466.1196 45.2031 4466.1235
-25.3060 0.5297 442.8979 4467.6201 45.5362 4467.6240
-25.0093 0.5244 444.3686 4469.1201 45.8645 4469.1240
-24.7134 0.5192 445.8393 4470.6206 46.1881 4470.6245
-24.4181 0.5139 447.3102 4472.1206 46.5072 4472.1245
-24.1230 0.5086 448.7810 4473.6206 46.8219 4473.6245
-23.8280 0.5033 450.2520 4475.1211 47.1323 4475.1250
-23.5332 0.4979 451.7230 4476.6211 47.4386 4476.6255
-23.2384 0.4926 453.1940 4478.1216 47.7408 4478.1260
-22.9435 0.4873 454.6650 4479.6216 48.0390 4479.6260
-22.6486 0.4819 456.1360 4481.1221 48.3334 4481.1265
-22.3537 0.4765 457.6071 4482.6221 48.6241 4482.6265
-22.0586 0.4712 459.0781 4484.1221 48.9110 4484.1270
-21.7635 0.4660 460.5491 4485.6226 49.1944 4485.6274
-21.4684 0.4610 462.0200 4487.1226 49.4743 4487.1274
-21.1733 0.4561 463.4910 4488.6230 49.7508 4488.6279
-20.8783 0.4514 464.9619 4490.1230 50.0239 4490.1279
-20.5832 0.4469 466.4328 4491.6230 50.2938 4491.6279
-20.2882 0.4428 467.9037 4493.1235 50.5606 4493.1284
-19.9931 0.4392 469.3745 4494.6235 50.8242 4494.6284
-19.6978 0.4359 470.8453 4496.1240 51.0847 4496.1289
-19.4023 0.4331 472.3162 4497.6240 51.2954 4497.6289
-19.1066 0.4308 473.7869 4499.1245 50.6024 4499.1294
-18.8107 0.4288 475.2576 4500.6245 49.9022 4500.6294
-18.5146 0.4274 476.7282 4502.1245 49.1945 4502.1294
-18.2186 0.4265 478.1988 4503.6250 48.4789 4503.6294
-17.9231 0.4263 479.6696 4505.1250 47.7553 4505.1294
-17.6288 0.4266 481.1407 4506.6255 47.0231 4506.6299
-17.3363 0.4274 482.6124 4508.1255 46.2822 4508.1304
-17.0465 0.4287 484.0844 4509.6260 45.5319 4509.6309
-16.7600 0.4306 485.5570 4511.1260 44.7764 4511.1309
-16.4775 0.4329 487.0304 4512.6260 44.0180 4512.6309
-16.1991 0.4358 488.5047 4514.1265 43.2566 4514.1318
-15.9247 0.4392 489.9798 4515.6265 42.4922 4515.6318
-15.6535 0.4433 491.4553 4517.1270 41.7245 4517.1323
-15.3852 0.4480 492.9314 4518.6270 40.9535 4518.6323
-15.1212 0.4531 494.4083 4520.1274 40.1791 4520.1328
-14.8646 0.4585 495.8864 4521.6274 39.4010 4521.6328
-14.6201 0.4640 497.3665 4523.1274 38.6191 4523.1328
-14.3926 0.4696 498.8494 4524.6279 37.8332 4524.6333
-14.1865 0.4750 500.3354 4526.1279 37.0432 4526.1333
-14.0049 0.4802 501.8246 4527.6284 36.2488 4527.6338
-13.8498 0.4852 503.3167 4529.1284 35.4498 4529.1338
-13.7223 0.4899 504.8114 4530.6289 34.6460 4530.6343
-13.6231 0.4942 506.3084 4532.1289 33.8370 4532.1348
-13.5535 0.4981 507.8072 4533.6289 33.0228 4533.6348
-13.5161 0.5014 509.3070 4535.1294 32.2028 4535.1353
-13.5147 0.5042 510.8073 4536.6294 31.3768 4536.6353
-13.5535 0.5063 512.3069 4538.1299 30.5444 4538.1357
-13.6348 0.5078 513.8048 4539.6299 31.1331 4539.6357
-13.7571 0.5088 515.3000 4541.1304 31.7108 4541.1362
-13.9139 0.5093 516.7921 4542.6304 32.2779 4542.6367
-14.0967 0.5094 518.2812 4544.1304 32.8352 4544.1367
-14.2979 0.5094 519.7678 4545.6309 33.3830 4545.6367
-14.5145 0.5093 521.2521 4547.1309 33.9219 4547.1367
-14.7478 0.5090 522.7343 4548.6313 34.4522 4548.6377
-15.0012 0.5085 524.2128 4550.1313 34.9744 4550.1377
-15.2783 0.5078 525.6873 4551.6318 35.4888 4551.6382
-15.5806 0.5068 527.1568 4553.1318 35.9957 4553.1382
-15.9070 0.5056 528.6211 4554.6318 36.4955 4554.6382
-16.2555 0.5042 530.0803 4556.1323 36.9841 4556.1387
-16.6236 0.5027 531.5348 4557.6323 37.4622 4557.6387
-17.0088 0.5011 532.9847 4559.1328 37.9300 4559.1392
-17.4090 0.4994 534.4307 4560.6328 38.3883 4560.6396
-17.8232 0.4977 535.8727 4562.1333 38.5974 4562.1401
-18.2526 0.4960 537.3102 4563.6333 37.8114 4563.6401
-18.7001 0.4942 538.7421 4565.1333 37.0213 4565.1401
-19.1704 0.4922 540.1666 4566.6338 36.2267 4566.6406
-19.6683 0.4900 541.5817 4568.1338 35.4276 4568.1406
-20.1973 0.4875 542.9857 4569.6343 34.8317 4569.6411
-20.7580 0.4847 544.3771 4571.1343 35.3481 4571.1411
-21.3484 0.4816 545.7561 4572.6348 35.8571 4572.6416
-21.9652 0.4782 547.1237 4574.1348 36.3588 4574.1416
-22.6039 0.4746 548.4811 4575.6348 36.8505 4575.6416
-23.2605 0.4709 549.8300 4577.1353 37.3314 4577.1421
-23.9315 0.4672 551.1721 4578.6353 37.8020 4578.6426
-24.6137 0.4635 552.5081 4580.1357 38.2629 4580.1426
-25.3046 0.4598 553.8394 4581.6357 38.7144 4581.6426
-26.0025 0.4562 555.1674 4583.1357 39.1569 4583.1426
-26.7067 0.4527 556.4921 4584.6362 39.5908 4584.6431
-27.4169 0.4493 557.8137 4586.1362 40.0164 4586.1431
-28.1326 0.4459 559.1320 4587.6367 40.4342 4587.6436
-28.8531 0.4427 560.4478 4589.1367 40.8443 4589.1436
-29.5771 0.4395 561.7619 4590.6372 41.2471 4590.6440
-30.3035 0.4365 563.0747 4592.1372 41.6429 4592.1440
-31.0314 0.4336 564.3865 4593.6372 42.0319 4593.6440
-31.7602 0.4309 565.6978 4595.1377 42.4143 4595.1445
-32.4896 0.4283 567.0090 4596.6377 42.7903 4596.6450
-33.2193 0.4259 568.3199 4598.1382 43.1603 4598.1455
-33.9493 0.4236 569.6306 4599.6382 43.5243 4599.6455
-34.6793 0.4214 570.9410 4601.1387 43.8826 4601.1460
-35.4092 0.4193 572.2516 4602.6387 44.2354 4602.6460
-36.1384 0.4172 573.5626 4604.1387 44.5828 4604.1460
-36.8661 0.4151 574.8742 4605.6392 44.9249 4605.6460
-37.5913 0.4130 576.1874 4607.1392 45.2621 4607.1460
-38.3134 0.4110 577.5026 4608.6396 45.5943 4608.6465
-39.0325 0.4091 578.8192 4610.1396 45.9217 4610.1465
-39.7491 0.4074 580.1372 4611.6401 46.2445 4611.6470
-40.4641 0.4059 581.4561 4613.1401 46.5629 4613.1470
-41.1780 0.4046 582.7755 4614.6401 46.8768 4614.6470
-41.8911 0.4037 584.0953 4616.1406 47.1865 4616.1475
-42.6035 0.4030 585.4155 4617.6406 47.4920 4617.6475
-43.3150 0.4026 586.7360 4619.1411 47.7935 4619.1479
-44.0255 0.4026 588.0572 4620.6411 48.0911 4620.6475
-44.7352 0.4030 589.3791 4622.1416 48.3848 4622.1479
-45.4438 0.4038 590.7016 4623.6416 48.6748 4623.6484
-46.1513 0.4050 592.0247 4625.1416 48.9611 4625.1489
-46.8575 0.4063 593.3484 4626.6421 49.2439 4626.6494
-47.5623 0.4077 594.6730 4628.1421 49.5232 4628.1494
-48.2656 0.4092 595.9982 4629.6426 49.7990 4629.6499
-48.9674 0.4105 597.3242 4631.1426 50.0716 4631.1499
-49.6680 0.4119 598.6509 4632.6431 50.3410 4632.6509
-50.3677 0.4134 599.9781 4634.1431 50.6071 4634.1509
-51.0667 0.4149 601.3057 4635.6431 50.8702 4635.6509
-51.7654 0.4165 602.6333 4637.1436 51.1302 4637.1514
-52.4641 0.4181 603.9610 4638.6436 51.3873 4638.6514
-53.1629 0.4198 605.2887 4640.1440 51.6414 4640.1523
-53.8619 0.4217 606.6164 4641.6440 51.8927 4641.6523
-54.5609 0.4236 607.9438 4643.1445 52.1413 4643.1528
-55.2599 0.4255 609.2711 4644.6445 52.3871 4644.6528
-55.9589 0.4276 610.5983 4646.1445 52.6302 4646.1528
-56.6582 0.4297 611.9257 4647.6450 52.8707 4647.6533
-57.3573 0.4318 613.2531 4649.1450 53.1086 4649.1533
-58.0563 0.4341 614.5803 4650.6455 53.3441 4650.6538
-58.7554 0.4366 615.9079 4652.1455 53.5770 4652.1538
-59.4543 0.4394 617.2353 4653.6460 53.8076 4653.6543
-60.1532 0.4424 618.5625 4655.1460 54.0357 4655.1543
-60.8521 0.4457 619.8898 4656.6460 54.2615 4656.6538
-61.5510 0.4493 621.2170 4658.1465 54.4851 4658.1543
-62.2501 0.4530 622.5445 4659.6465 54.7064 4659.6543
-62.9491 0.4568 623.8720 4661.1470 54.9255 4661.1548
-63.6477 0.4608 625.1994 4662.6470 55.1424 4662.6548
-64.3461 0.4648 626.5270 4664.1475 55.3572 4664.1548
-65.0441 0.4688 627.8548 4665.6475 55.5699 4665.6548
-65.7419 0.4730 629.1827 4667.1475 55.7805 4667.1548
-66.4394 0.4771 630.5108 4668.6479 55.9891 4668.6553
-67.1368 0.4812 631.8390 4670.1479 56.1958 4670.1553
-67.8342 0.4854 633.1672 4671.6484 56.4004 4671.6553
-68.5315 0.4896 634.4954 4673.1484 56.6032 4673.1553
-69.2288 0.4937 635.8235 4674.6489 56.8041 4674.6558
-69.9260 0.4979 637.1519 4676.1489 57.0031 4676.1558
-70.6229 0.5021 638.4802 4677.6489 57.2003 4677.6558
-71.3197 0.5063 639.8087 4679.1494 57.3957 4679.1562
-72.0162 0.5104 641.1372 4680.6494 57.5893 4680.6558
-72.7126 0.5146 642.4659 4682.1499 57.7811 4682.1562
-73.4087 0.5187 643.7947 4683.6499 57.9713 4683.6562
-74.1046 0.5228 645.1237 4685.1499 58.1598 4685.1562
-74.8003 0.5269 646.4526 4686.6504 58.3466 4686.6567
-75.4957 0.5309 647.7817 4688.1504 58.5318 4688.1562
-76.1910 0.5348 649.1111 4689.6509 58.7153 4689.6567
-76.8862 0.5385 650.4408 4691.1509 58.8973 4691.1572
-77.5810 0.5420 651.7705 4692.6514 59.0777 4692.6577
-78.2757 0.5452 653.1004 4694.1514 59.2565 4694.1577
-78.9701 0.5482 654.4304 4695.6514 59.4339 4695.6582
-79.6644 0.5510 655.7603 4697.1519 59.6097 4697.1587
-80.3586 0.5536 657.0904 4698.6519 59.7841 4698.6587
-81.0525 0.5560 658.4206 4700.1523 59.9570 4700.1592
-81.7464 0.5582 659.7508 4701.6523 60.1285 4701.6597
-82.4403 0.5603 661.0811 4703.1528 60.2985 4703.1602
-83.1340 0.5623 662.4114 4704.6528 60.4672 4704.6602
-83.8274 0.5643 663.7417 4706.1528 60.6344 4706.1602
-84.5204 0.5663 665.0723 4707.6533 60.8004 4707.6606
-85.2125 0.5682 666.4034 4709.1533 60.9650 4709.1606
-85.9033 0.5701 667.7353 4710.6538 61.1282 4710.6611
-86.5925 0.5720 669.0679 4712.1538 61.2902 4712.1616
-87.2801 0.5739 670.4012 4713.6543 61.4508 4713.6616
-87.9664 0.5758 671.7349 4715.1543 61.6102 4715.1616
-88.6520 0.5778 673.0693 4716.6543 61.7684 4716.6616
-89.3369 0.5798 674.4039 4718.1548 61.9253 4718.1621
-90.0211 0.5820 675.7388 4719.6548 62.0810 4719.6621
-90.7042 0.5843 677.0744 4721.1553 62.2355 4721.1621
-91.3853 0.5867 678.4113 4722.6553 62.3888 4722.6626
-92.0631 0.5891 679.7497 4724.1558 62.5409 4724.1631
-92.7363 0.5916 681.0905 4725.6558 62.6918 4725.6631
-93.4032 0.5941 682.4343 4727.1558 62.8416 4727.1631
-94.0623 0.5965 683.7818 4728.6562 62.9903 4728.6636
-94.7124 0.5989 685.1339 4730.1562 63.1379 4730.1636
-95.3532 0.6012 686.4905 4731.6567 63.2843 4731.6641
-95.9850 0.6034 687.8513 4733.1567 63.4297 4733.1641
-96.6082 0.6056 689.2158 4734.6572 63.5739 4734.6646
-97.2233 0.6078 690.5839 4736.1572 63.7172 4736.1646
-97.8301 0.6099 691.9559 4737.6572 63.8593 4737.6646
-98.4285 0.6121 693.3315 4739.1577 64.0004 4739.1646
-99.0185 0.6142 694.7107 4740.6577 64.1405 4740.6646
-99.6005 0.6162 696.0935 4742.1582 64.2796 4742.1655
-100.1749 0.6183 697.4796 4743.6582 64.4177 4743.6655
-100.7423 0.6204 698.8685 4745.1587 64.5548 4745.1660
-101.3027 0.6224 700.2603 4746.6587 64.6909 4746.6660
-101.8558 0.6244 701.6547 4748.1587 64.8260 4748.1660
-102.4010 0.6265 703.0524 4749.6592 64.9601 4749.6665
-102.9374 0.6285 704.4536 4751.1592 65.0934 4751.1665
-103.4643 0.6304 705.8582 4752.6597 65.2256 4752.6670
-103.9814 0.6323 707.2663 4754.1597 65.3570 4754.1670
-104.4888 0.6341 708.6783 4755.6602 65.4874 4755.6675
-104.9866 0.6359 710.0936 4757.1602 65.6169 4757.1680
-105.4755 0.6376 711.5117 4758.6602 65.7456 4758.6680
-105.9564 0.6392 712.9329 4760.1606 65.8733 4760.1685
-106.4300 0.6408 714.3566 4761.6606 66.0001 4761.6685
-106.8965 0.6424 715.7825 4763.1611 66.1261 4763.1689
-107.3562 0.6440 717.2106 4764.6611 66.2513 4764.6689
-107.8090 0.6456 718.6407 4766.1616 66.3755 4766.1694
-108.2549 0.6473 720.0731 4767.6616 66.4990 4767.6694
-108.6937 0.6489 721.5076 4769.1616 66.6216 4769.1694
-109.1254 0.6506 722.9441 4770.6621 66.7433 4770.6694
-109.5498 0.6522 724.3829 4772.1621 66.8643 4772.1694
-109.9667 0.6538 725.8242 4773.6626 66.9845 4773.6699
-110.3759 0.6554 727.2676 4775.1626 67.1038 4775.1704
-110.7774 0.6570 728.7129 4776.6626 67.2224 4776.6699
-111.1714 0.6586 730.1603 4778.1631 67.3401 4778.1704
-111.5584 0.6602 731.6097 4779.6631 67.4571 4779.6704
-111.9391 0.6618 733.0609 4781.1636 67.5734 4781.1709
-112.3139 0.6635 734.5137 4782.6636 67.6888 4782.6709
-112.6833 0.6653 735.9677 4784.1641 67.8036 4784.1714
-113.0477 0.6671 737.4229 4785.6641 67.9175 4785.6714
-113.4073 0.6689 738.8792 4787.1641 68.0308 4787.1714
-113.7622 0.6709 740.3367 4788.6646 68.1433 4788.6719
-114.1124 0.6728 741.7953 4790.1646 68.2551 4790.1719
-114.4579 0.6749 743.2553 4791.6650 68.3661 4791.6719
-114.7984 0.6770 744.7165 4793.1650 68.4765 4793.1724
-115.1337 0.6791 746.1788 4794.6655 68.5862 4794.6729
-115.4633 0.6812 747.6423 4796.1655 68.6951 4796.1729
-115.7870 0.6833 749.1073 4797.6655 68.8034 4797.6729
-116.1045 0.6855 750.5735 4799.1660 68.9110 4799.1733
-116.4156 0.6877 752.0411 4800.6660 69.0179 4800.6733
-116.7202 0.6899 753.5103 4802.1665 69.1241 4802.1743
-117.0181 0.6921 754.9807 4803.6665 69.2297 4803.6743
-117.3094 0.6943 756.4521 4805.1670 69.3346 4805.1743
-117.5940 0.6964 757.9250 4806.6670 69.4389 4806.6743
-117.8719 0.6986 759.3994 4808.1670 69.5425 4808.1748
-118.1431 0.7008 760.8749 4809.6675 69.6455 4809.6753
-118.4076 0.7030 762.3516 4811.1675 69.7478 4811.1753
-118.6653 0.7052 763.8295 4812.6680 69.8495 4812.6758
-118.9161 0.7074 765.3087 4814.1680 69.9506 4814.1758
-119.1598 0.7097 766.7891 4815.6685 70.0511 4815.6763
-119.3963 0.7119 768.2705 4817.1685 70.1510 4817.1763
-119.6253 0.7142 769.7529 4818.6685 70.2502 4818.6758
-119.8468 0.7166 771.2368 4820.1689 70.3489 4820.1768
-120.0609 0.7189 772.7217 4821.6689 70.4470 4821.6768
-120.2676 0.7211 774.2077 4823.1694 70.5444 4823.1772
-120.4672 0.7234 775.6946 4824.6694 70.6413 4824.6772
-120.6596 0.7257 777.1824 4826.1699 70.7377 4826.1777
-120.8448 0.7280 778.6711 4827.6699 70.8334 4827.6777
