VERSION 0.7
FIELDS x y z arclength speed lapdistance
SIZE 4 4 4 4 4 4
TYPE F F F F F F
COUNT 1 1 1 1 1 1
WIDTH 863
HEIGHT 1
VIEWPOINT 0.000 0.000 0.000 1.000 0.000 0.000 0.000
POINTS 863
DATA ascii
-140.2330 0.8622 -156.0996 1098.2479 36.2688 1099.9392
-141.2943 0.8713 -157.1600 1099.7483 36.6924 1101.5270
-142.3386 0.8803 -158.2373 1101.2487 37.1080 1103.1141
-143.3678 0.8891 -159.3289 1102.7490 37.5159 1104.6998
-144.3847 0.8974 -160.4320 1104.2494 37.9163 1106.2848
-145.3914 0.9048 -161.5444 1105.7496 38.3097 1107.8691
-146.3888 0.9115 -162.6652 1107.2500 38.6962 1109.4542
-147.3762 0.9173 -163.7947 1108.7504 38.9547 1111.0403
-148.3522 0.9224 -164.9341 1110.2507 38.2835 1112.6284
-149.3150 0.9271 -166.0849 1111.7510 37.6094 1114.2173
-150.2630 0.9318 -167.2477 1113.2513 36.9321 1115.8054
-151.1953 0.9364 -168.4233 1114.7517 36.2517 1117.3894
-152.1105 0.9412 -169.6122 1116.2521 35.5679 1118.9661
-153.0068 0.9459 -170.8154 1117.7524 34.8806 1120.5345
-153.8816 0.9504 -172.0342 1119.2527 34.1896 1122.0980
-154.7323 0.9544 -173.2701 1120.7531 33.4949 1123.6588
-155.5571 0.9578 -174.5234 1122.2534 33.0603 1125.2190
-156.3548 0.9605 -175.7940 1123.7538 33.1826 1126.7797
-157.1255 0.9625 -177.0813 1125.2540 33.6479 1128.3428
-157.8697 0.9639 -178.3840 1126.7544 34.1067 1129.9102
-158.5895 0.9647 -179.7004 1128.2548 34.5593 1131.4823
-159.2883 0.9652 -181.0280 1129.7551 35.0060 1133.0601
-159.9711 0.9654 -182.3640 1131.2555 35.4470 1134.6405
-160.6419 0.9657 -183.7060 1132.7557 35.8825 1136.2216
-161.3020 0.9661 -185.0533 1134.2561 36.3127 1137.8020
-161.9504 0.9667 -186.4064 1135.7565 36.7355 1139.3817
-162.5858 0.9674 -187.7655 1137.2568 37.1502 1140.9608
-163.2072 0.9684 -189.1310 1138.7571 37.5573 1142.5398
-163.8139 0.9694 -190.5032 1140.2574 37.9571 1144.1190
-164.4049 0.9707 -191.8822 1141.7578 38.3497 1145.6981
-164.9787 0.9720 -193.2685 1143.2582 38.7355 1147.2760
-165.5335 0.9733 -194.6625 1144.7585 39.0807 1148.8516
-166.0674 0.9747 -196.0646 1146.2588 38.4100 1150.4236
-166.5786 0.9760 -197.4751 1147.7592 37.7365 1151.9928
-167.0659 0.9772 -198.8941 1149.2595 37.0598 1153.5596
-167.5281 0.9784 -200.3214 1150.7599 36.5812 1155.1246
-167.9645 0.9794 -201.7568 1152.2601 36.2352 1156.6895
-168.3745 0.9803 -203.2000 1153.7605 35.6548 1158.2544
-168.7574 0.9810 -204.6506 1155.2609 34.9680 1159.8204
-169.1121 0.9816 -206.1084 1156.7612 34.2775 1161.3879
-169.4375 0.9819 -207.5730 1158.2615 33.5832 1162.9563
-169.7322 0.9821 -209.0441 1159.7618 33.0010 1164.5247
-169.9954 0.9820 -210.5211 1161.2622 32.7821 1166.0923
-170.2266 0.9816 -212.0036 1162.7626 33.0727 1167.6586
-170.4260 0.9810 -213.4905 1164.2629 33.5395 1169.2233
-170.5952 0.9802 -214.9812 1165.7632 33.9997 1170.7876
-170.7365 0.9792 -216.4749 1167.2635 34.4538 1172.3518
-170.8525 0.9781 -217.9708 1168.7639 34.9019 1173.9174
-170.9459 0.9767 -219.4682 1170.2643 35.3442 1175.4845
-171.0199 0.9752 -220.9667 1171.7645 35.7810 1177.0541
-171.0777 0.9736 -222.4660 1173.2649 36.2124 1178.6257
-171.1226 0.9718 -223.9656 1174.7653 36.6371 1180.1980
-171.1563 0.9699 -225.4655 1176.2656 37.0537 1181.7703
-171.1784 0.9678 -226.9657 1177.7660 37.4626 1183.3414
-171.1862 0.9655 -228.4661 1179.2662 37.8640 1184.9111
-171.1768 0.9630 -229.9664 1180.7666 38.2583 1186.4796
-171.1485 0.9601 -231.4664 1182.2670 38.6457 1188.0475
-171.1004 0.9568 -232.9659 1183.7673 39.0265 1189.6155
-171.0317 0.9532 -234.4647 1185.2676 39.4009 1191.1842
-170.9417 0.9492 -235.9623 1186.7679 39.2669 1192.7545
-170.8291 0.9447 -237.4584 1188.2683 38.5970 1194.3257
-170.6926 0.9399 -238.9525 1189.7687 37.9243 1195.8972
-170.5311 0.9345 -240.4441 1191.2690 37.2485 1197.4679
-170.3436 0.9286 -241.9326 1192.7693 36.8632 1199.0371
-170.1296 0.9222 -243.4176 1194.2697 36.8003 1200.6046
-169.8891 0.9153 -244.8985 1195.7700 36.8674 1202.1710
-169.6223 0.9078 -246.3750 1197.2704 36.9700 1203.7368
-169.3294 0.8999 -247.8464 1198.7706 37.0515 1205.3031
-169.0105 0.8914 -249.3124 1200.2710 37.0167 1206.8704
-168.6657 0.8824 -250.7725 1201.7714 36.9666 1208.4395
-168.2952 0.8728 -252.2263 1203.2717 37.2125 1210.0104
-167.8992 0.8628 -253.6734 1204.7721 37.6178 1211.5825
-167.4792 0.8523 -255.1138 1206.2723 36.9406 1213.1547
-167.0377 0.8414 -256.5476 1207.7727 36.2602 1214.7266
-166.5789 0.8303 -257.9760 1209.2731 35.5764 1216.2968
-166.1076 0.8192 -259.4005 1210.7734 34.8892 1217.8662
-165.6278 0.8083 -260.8220 1212.2737 34.1983 1219.4349
-165.1404 0.7976 -262.2409 1213.7740 33.5035 1221.0038
-164.6420 0.7872 -263.6560 1215.2744 32.8048 1222.5730
-164.1255 0.7767 -265.0646 1216.7748 32.1019 1224.1438
-163.5829 0.7661 -266.4633 1218.2751 31.3945 1225.7161
-163.0083 0.7553 -267.8492 1219.7754 30.6824 1227.2893
-162.4007 0.7443 -269.2209 1221.2758 31.1855 1228.8622
-161.7636 0.7337 -270.5793 1222.7761 31.6805 1230.4338
-161.1032 0.7240 -271.9263 1224.2765 32.1678 1232.0038
-160.4240 0.7155 -273.2641 1225.7767 32.6477 1233.5728
-159.7264 0.7084 -274.5924 1227.2771 33.1205 1235.1415
-159.0091 0.7027 -275.9102 1228.7775 33.5866 1236.7104
-158.2720 0.6980 -277.2169 1230.2778 34.0463 1238.2806
-157.5163 0.6939 -278.5130 1231.7781 34.4997 1239.8519
-156.7433 0.6902 -279.7988 1233.2784 34.9472 1241.4237
-155.9530 0.6867 -281.0741 1234.7788 35.3889 1242.9949
-155.1442 0.6832 -282.3378 1236.2792 35.8251 1244.5642
-154.3156 0.6797 -283.5886 1237.7795 36.2560 1246.1306
-153.4669 0.6762 -284.8258 1239.2798 36.6799 1247.6951
-152.5994 0.6727 -286.0499 1240.7802 37.0957 1249.2585
-151.7163 0.6693 -287.2627 1242.2805 37.5038 1250.8226
-150.8206 0.6659 -288.4664 1243.7809 37.9045 1252.3875
-149.9152 0.6625 -289.6628 1245.2811 38.2980 1253.9528
-149.0030 0.6592 -290.8539 1246.7815 38.6848 1255.5133
-148.0871 0.6558 -292.0422 1248.2819 39.0649 1257.0630
-147.1697 0.6524 -293.2294 1249.7822 39.4387 1258.5894
-146.2521 0.6490 -294.4164 1251.2826 38.9679 1260.0829
-145.3352 0.6457 -295.6039 1252.7828 38.2968 1261.5491
-144.4207 0.6425 -296.7934 1254.2832 37.6227 1262.9930
-143.5112 0.6394 -297.9866 1255.7836 36.9455 1264.4263
-142.6108 0.6363 -299.1867 1257.2839 36.2651 1265.8550
-141.7243 0.6333 -300.3971 1258.7842 35.5814 1267.2822
-140.8566 0.6303 -301.6211 1260.2845 34.8942 1268.7103
-140.0114 0.6273 -302.8607 1261.7849 34.2033 1270.1401
-139.1912 0.6242 -304.1170 1263.2853 33.5086 1271.5720
-138.3975 0.6210 -305.3902 1264.7856 33.3287 1273.0059
-137.6308 0.6177 -306.6798 1266.2859 33.3796 1274.4404
-136.8914 0.6142 -307.9853 1267.7863 33.5519 1275.8754
-136.1795 0.6104 -309.3059 1269.2866 33.9486 1277.3094
-135.4946 0.6062 -310.6408 1270.7870 34.4033 1278.7423
-134.8360 0.6012 -311.9888 1272.2872 34.8521 1280.1737
-134.2020 0.5953 -313.3485 1273.7876 35.2950 1281.6042
-133.5895 0.5884 -314.7181 1275.2880 35.7324 1283.0349
-132.9955 0.5802 -316.0958 1276.7883 36.1644 1284.4659
-132.4169 0.5711 -317.4800 1278.2887 36.5900 1285.8987
-131.8514 0.5612 -318.8696 1279.7889 36.7658 1287.3334
-131.2958 0.5508 -320.2632 1281.2893 36.0845 1288.7706
-130.7471 0.5404 -321.6596 1282.7897 35.3999 1290.2094
-130.2025 0.5303 -323.0576 1284.2900 34.7117 1291.6490
-129.6616 0.5206 -324.4569 1285.7903 34.0198 1293.0880
-129.1261 0.5114 -325.8584 1287.2906 33.3241 1294.5255
-128.6005 0.5025 -327.2637 1288.7910 32.6243 1295.9607
-128.0917 0.4937 -328.6750 1290.2914 31.9202 1297.3940
-127.6082 0.4848 -330.0953 1291.7916 31.2117 1298.8263
-127.1570 0.4756 -331.5262 1293.2920 30.4984 1300.2585
-126.7405 0.4660 -332.9675 1294.7924 31.0045 1301.6910
-126.3544 0.4562 -334.4173 1296.2927 31.5023 1303.1240
-125.9907 0.4464 -335.8728 1297.7931 31.9923 1304.5582
-125.6433 0.4367 -337.3324 1299.2933 32.4749 1305.9932
-125.3100 0.4272 -338.7953 1300.7937 32.9502 1307.4285
-124.9908 0.4180 -340.2612 1302.2941 33.4188 1308.8632
-124.6864 0.4089 -341.7304 1303.7944 32.7293 1310.2964
-124.3987 0.4002 -343.2029 1305.2947 32.0259 1311.7274
-124.1299 0.3917 -344.6789 1306.7950 31.3181 1313.1565
-123.8825 0.3834 -346.1586 1308.2954 30.6055 1314.5836
-123.6587 0.3755 -347.6422 1309.7958 29.8880 1316.0103
-123.4604 0.3678 -349.1293 1311.2961 29.1653 1317.4368
-123.2896 0.3604 -350.6199 1312.7964 28.4371 1318.8638
-123.1494 0.3532 -352.1136 1314.2968 27.7030 1320.2924
-123.0442 0.3460 -353.6103 1315.7971 26.9627 1321.7227
-122.9798 0.3387 -355.1091 1317.2975 26.2158 1323.1552
-122.9621 0.3312 -356.6092 1318.7977 25.4617 1324.5878
-122.9927 0.3234 -358.1091 1320.2981 26.0670 1326.0203
-123.0644 0.3156 -359.6077 1321.7985 26.6584 1327.4513
-123.1625 0.3081 -361.1048 1323.2988 27.2368 1328.8815
-123.2718 0.3013 -362.6011 1324.7992 27.8031 1330.3118
-123.3833 0.2953 -364.0973 1326.2994 28.3579 1331.7434
-123.4932 0.2904 -365.5937 1327.7998 28.9019 1333.1765
-123.6018 0.2864 -367.0900 1329.3002 29.4358 1334.6116
-123.7121 0.2833 -368.5863 1330.8005 29.9601 1336.0474
-123.8283 0.2811 -370.0822 1332.3008 30.4752 1337.4836
-123.9556 0.2796 -371.5771 1333.8011 30.9817 1338.9189
-124.0994 0.2786 -373.0705 1335.3015 31.4799 1340.3517
-124.2644 0.2781 -374.5618 1336.8019 31.9703 1341.7809
-124.4537 0.2779 -376.0501 1338.3022 32.4531 1343.2067
-124.6687 0.2780 -377.5350 1339.8025 32.9288 1344.6299
-124.9092 0.2785 -379.0159 1341.3029 33.3976 1346.0520
-125.1740 0.2793 -380.4926 1342.8032 33.8599 1347.4758
-125.4606 0.2805 -381.9652 1344.3036 34.3158 1348.9034
-125.7655 0.2822 -383.4343 1345.8038 34.7657 1350.3413
-126.0845 0.2845 -384.9003 1347.3042 35.2098 1351.7938
-126.4146 0.2873 -386.3639 1348.8046 35.6482 1353.2609
-126.7538 0.2908 -387.8254 1350.3049 36.0812 1354.7397
-127.1016 0.2948 -389.2849 1351.8053 36.5084 1356.2236
-127.4579 0.2993 -390.7423 1353.3055 36.9275 1357.7101
-127.8228 0.3042 -392.1976 1354.8059 37.3387 1359.1964
-128.1967 0.3094 -393.6507 1356.3063 37.7423 1360.6824
-128.5795 0.3148 -395.1013 1357.8066 38.1388 1362.1672
-128.9716 0.3205 -396.5495 1359.3069 38.5283 1363.6516
-129.3730 0.3264 -397.9951 1360.8073 38.9110 1365.1355
-129.7840 0.3325 -399.4381 1362.3076 39.2874 1366.6193
-130.2047 0.3388 -400.8782 1363.8080 39.6575 1368.1029
-130.6351 0.3454 -402.3154 1365.3082 39.5067 1369.5865
-131.0749 0.3522 -403.7498 1366.8086 38.8379 1371.0702
-131.5232 0.3592 -405.1816 1368.3090 38.1662 1372.5538
-131.9785 0.3664 -406.6111 1369.8093 37.4915 1374.0378
-132.4391 0.3740 -408.0390 1371.3097 36.8137 1375.5225
-132.9033 0.3819 -409.4658 1372.8099 36.1327 1377.0078
-133.3702 0.3902 -410.8916 1374.3103 35.4483 1378.4941
-133.8393 0.3988 -412.3167 1375.8107 34.7604 1379.9812
-134.3105 0.4078 -413.7411 1377.3110 34.0687 1381.4690
-134.7836 0.4169 -415.1649 1378.8113 33.3733 1382.9570
-135.2583 0.4261 -416.5881 1380.3116 32.6738 1384.4454
-135.7342 0.4354 -418.0110 1381.8120 31.9700 1385.9344
-136.2108 0.4446 -419.4336 1383.3124 31.2618 1387.4241
-136.6879 0.4537 -420.8560 1384.8127 30.5488 1388.9153
-137.1656 0.4629 -422.2783 1386.3130 29.8310 1390.4071
-137.6449 0.4720 -423.7000 1387.8134 29.1078 1391.8994
-138.1275 0.4811 -425.1205 1389.3137 28.3792 1393.3883
-138.6158 0.4902 -426.5392 1390.8141 27.6446 1394.8704
-139.1116 0.4995 -427.9552 1392.3143 26.9038 1396.3363
-139.6161 0.5091 -429.3681 1393.8147 26.1563 1397.7797
-140.1303 0.5191 -430.7775 1395.3151 25.4017 1399.2008
-140.6564 0.5294 -432.1826 1396.8154 24.6394 1400.6031
-141.1983 0.5401 -433.5816 1398.3158 23.8690 1401.9976
-141.7626 0.5510 -434.9717 1399.8160 23.0897 1403.3870
-142.3578 0.5619 -436.3489 1401.3164 22.3008 1404.7780
-142.9933 0.5726 -437.7079 1402.8168 21.5016 1406.1724
-143.6781 0.5826 -439.0427 1404.3171 20.6910 1407.5728
-144.4181 0.5919 -440.3477 1405.8174 20.0891 1408.9797
-145.2139 0.6004 -441.6194 1407.3177 20.8526 1410.3875
-146.0594 0.6083 -442.8586 1408.8181 21.5888 1411.7954
-146.9434 0.6158 -444.0709 1410.3185 22.3005 1413.2012
-147.8534 0.6235 -445.2637 1411.8188 22.9900 1414.6033
-148.7799 0.6314 -446.4437 1413.3191 23.6593 1416.0013
-149.7176 0.6399 -447.6149 1414.8195 24.3099 1417.3964
-150.6651 0.6489 -448.7780 1416.3198 24.9435 1418.7900
-151.6249 0.6584 -449.9312 1417.8202 25.5611 1420.1835
-152.6013 0.6681 -451.0702 1419.3204 26.1641 1421.5773
-153.5987 0.6777 -452.1909 1420.8208 26.7533 1422.9708
-154.6201 0.6869 -453.2898 1422.3212 27.3297 1424.3627
-155.6666 0.6952 -454.3648 1423.8215 27.8940 1425.7532
-156.7385 0.7026 -455.4145 1425.3218 28.4471 1427.1438
-157.8350 0.7088 -456.4384 1426.8221 28.9894 1428.5354
-158.9549 0.7140 -457.4368 1428.3225 29.5217 1429.9349
-160.0961 0.7183 -458.4107 1429.8229 30.0445 1431.3452
-161.2556 0.7221 -459.3629 1431.3232 30.5581 1432.7700
-162.4292 0.7257 -460.2975 1432.8235 31.0633 1434.2058
-163.6127 0.7295 -461.2197 1434.3239 31.5602 1435.6475
-164.8029 0.7333 -462.1331 1435.8242 32.0493 1437.0907
-165.9987 0.7374 -463.0391 1437.3246 32.5310 1438.5332
-167.2007 0.7415 -463.9370 1438.8248 33.0055 1439.9738
-168.4101 0.7455 -464.8248 1440.3252 33.4732 1441.4126
-169.6281 0.7493 -465.7009 1441.8256 33.9344 1442.8522
-170.8542 0.7528 -466.5655 1443.3259 34.3894 1444.2939
-172.0873 0.7561 -467.4203 1444.8263 34.8383 1445.7455
-173.3255 0.7592 -468.2675 1446.3265 35.2814 1447.2094
-174.5674 0.7622 -469.1092 1447.8269 35.7190 1448.6909
-175.8120 0.7652 -469.9471 1449.3273 36.1511 1450.1859
-177.0582 0.7681 -470.7824 1450.8276 36.4094 1451.6888
-178.3053 0.7710 -471.6164 1452.3279 35.7264 1453.1964
-179.5530 0.7739 -472.4496 1453.8282 35.0399 1454.7059
-180.8010 0.7766 -473.2825 1455.3286 34.3498 1456.2180
-182.0488 0.7794 -474.1156 1456.8290 33.6559 1457.7363
-183.2955 0.7820 -474.9504 1458.3293 32.9581 1459.2637
-184.5387 0.7844 -475.7903 1459.8296 32.2561 1460.8029
-185.7749 0.7866 -476.6404 1461.3300 31.5497 1462.3501
-186.9997 0.7887 -477.5069 1462.8303 30.8387 1463.9027
-188.2093 0.7907 -478.3946 1464.3307 30.1228 1465.4612
-189.4010 0.7930 -479.3060 1465.8309 29.4019 1467.0293
-190.5735 0.7963 -480.2421 1467.3313 28.6755 1468.6176
-191.7262 0.8007 -481.2025 1468.8317 27.9433 1470.2393
-192.8588 0.8061 -482.1866 1470.3320 27.2051 1471.8907
-193.9714 0.8124 -483.1930 1471.8324 26.4604 1473.5637
-195.0635 0.8193 -484.2216 1473.3326 25.7087 1475.2466
-196.1333 0.8265 -485.2735 1474.8330 24.9496 1476.9331
-197.1771 0.8344 -486.3510 1476.3334 24.1826 1478.6216
-198.1900 0.8433 -487.4577 1477.8337 23.4070 1480.3110
-199.1661 0.8534 -488.5970 1479.3340 22.6221 1482.0010
-200.0992 0.8644 -489.7717 1480.8344 21.8272 1483.6898
-200.9858 0.8761 -490.9818 1482.3347 22.5313 1485.3772
-201.8293 0.8879 -492.2225 1483.8351 23.2139 1487.0648
-202.6402 0.8994 -493.4848 1485.3354 23.5957 1488.7532
-203.4312 0.9102 -494.7596 1486.8357 22.8131 1490.4423
-204.2093 0.9206 -496.0424 1488.3361 22.0207 1492.1300
-204.9716 0.9312 -497.3345 1489.8364 21.2176 1493.8129
-205.7078 0.9425 -498.6417 1491.3368 20.4027 1495.4895
-206.4038 0.9548 -499.9706 1492.8370 19.5750 1497.1587
-207.0457 0.9678 -501.3265 1494.3374 18.7330 1498.8198
-207.6211 0.9810 -502.7119 1495.8378 17.8752 1500.4758
-208.1206 0.9937 -504.1264 1497.3381 17.5328 1502.1299
-208.5401 1.0056 -505.5667 1498.8384 18.1407 1503.7832
-208.8834 1.0165 -507.0270 1500.3387 18.9833 1505.4346
-209.1629 1.0267 -508.5010 1501.8391 19.7897 1507.0815
-209.3961 1.0365 -509.9831 1503.3395 20.5644 1508.7212
-209.5974 1.0463 -511.4698 1504.8398 21.3106 1510.3491
-209.7739 1.0561 -512.9597 1506.3401 22.0314 1511.9604
-209.9274 1.0660 -514.4521 1507.8405 22.7292 1513.5553
-210.0565 1.0757 -515.9468 1509.3408 23.4060 1515.1381
-210.1593 1.0850 -517.4436 1510.8412 24.0635 1516.7167
-210.2347 1.0936 -518.9420 1512.3414 24.7034 1518.2935
-210.2837 1.1014 -520.4415 1513.8418 25.3270 1519.8678
-210.3098 1.1084 -521.9416 1515.3422 25.9355 1521.4349
-210.3200 1.1146 -523.4418 1516.8425 26.5298 1522.9886
-210.3217 1.1202 -524.9421 1518.3429 27.1110 1524.5210
-210.3199 1.1253 -526.4425 1519.8431 27.6799 1526.0367
-210.3165 1.1300 -527.9428 1521.3435 28.2371 1527.5417
-210.3121 1.1343 -529.4431 1522.8439 28.7835 1529.0410
-210.3066 1.1382 -530.9434 1524.3442 29.3196 1530.5394
-210.3002 1.1417 -532.4437 1525.8445 29.8459 1532.0377
-210.2933 1.1448 -533.9440 1527.3448 30.3630 1533.5369
-210.2861 1.1476 -535.4444 1528.8452 30.8713 1535.0367
-210.2789 1.1499 -536.9447 1530.3456 31.3713 1536.5370
-210.2717 1.1519 -538.4450 1531.8459 31.8634 1538.0375
-210.2645 1.1534 -539.9453 1533.3462 32.3479 1539.5380
-210.2573 1.1546 -541.4456 1534.8466 32.8251 1541.0386
-210.2501 1.1555 -542.9460 1536.3469 33.2954 1542.5391
-210.2428 1.1560 -544.4463 1537.8473 33.7591 1544.0397
-210.2354 1.1561 -545.9466 1539.3475 34.2164 1545.5402
-210.2279 1.1559 -547.4469 1540.8479 34.6675 1547.0406
-210.2204 1.1553 -548.9472 1542.3483 35.1129 1548.5413
-210.2128 1.1543 -550.4474 1543.8486 35.5525 1550.0417
-210.2050 1.1529 -551.9478 1545.3490 35.9867 1551.5422
-210.1971 1.1512 -553.4481 1546.8492 36.4157 1553.0427
-210.1891 1.1490 -554.9484 1548.3496 36.8365 1554.5433
-210.1810 1.1464 -556.4487 1549.8500 37.2493 1556.0438
-210.1727 1.1435 -557.9489 1551.3503 37.6546 1557.5443
-210.1644 1.1401 -559.4492 1552.8506 38.0526 1559.0448
-210.1560 1.1364 -560.9495 1554.3510 38.4436 1560.5454
-210.1476 1.1322 -562.4498 1555.8513 38.8278 1562.0459
-210.1393 1.1277 -563.9501 1557.3517 39.2055 1563.5464
-210.1309 1.1228 -565.4504 1558.8519 39.5770 1565.0469
-210.1226 1.1176 -566.9507 1560.3523 39.9424 1566.5472
-210.1143 1.1120 -568.4510 1561.8527 40.3019 1568.0476
-210.1059 1.1061 -569.9513 1563.3530 40.6558 1569.5479
-210.0976 1.0998 -571.4516 1564.8534 41.0042 1571.0481
-210.0892 1.0932 -572.9519 1566.3536 41.3473 1572.5482
-210.0809 1.0862 -574.4522 1567.8540 41.6853 1574.0485
-210.0726 1.0788 -575.9525 1569.3544 42.0184 1575.5486
-210.0643 1.0710 -577.4528 1570.8547 42.3466 1577.0488
-210.0561 1.0629 -578.9531 1572.3550 42.6701 1578.5490
-210.0479 1.0544 -580.4534 1573.8553 42.9891 1580.0488
-210.0393 1.0455 -581.9537 1575.3557 43.3037 1581.5483
-210.0298 1.0362 -583.4539 1576.8561 43.6140 1583.0472
-210.0186 1.0265 -584.9541 1578.3564 43.9201 1584.5458
-210.0047 1.0163 -586.4543 1579.8567 44.2222 1586.0444
-209.9870 1.0057 -587.9545 1581.3571 44.0488 1587.5452
-209.9642 0.9946 -589.4547 1582.8574 43.3971 1589.0500
-209.9348 0.9830 -590.9547 1584.3578 42.7431 1590.5637
-209.8974 0.9709 -592.4544 1585.8580 42.0868 1592.0903
-209.8513 0.9582 -593.9540 1587.3584 41.4282 1593.6284
-209.7961 0.9449 -595.4534 1588.8588 40.7670 1595.1748
-209.7318 0.9309 -596.9523 1590.3591 40.1033 1596.7244
-209.6581 0.9163 -598.4507 1591.8595 39.4370 1598.2759
-209.5743 0.9013 -599.9487 1593.3597 38.7678 1599.8307
-209.4785 0.8860 -601.4459 1594.8601 38.0958 1601.3923
-209.3678 0.8704 -602.9420 1596.3605 37.4208 1602.9664
-209.2382 0.8546 -604.4366 1597.8608 36.7427 1604.5588
-209.0856 0.8386 -605.9291 1599.3611 36.0613 1606.1658
-208.9075 0.8224 -607.4186 1600.8615 35.3766 1607.7814
-208.7035 0.8060 -608.9049 1602.3618 34.6883 1609.4012
-208.4738 0.7894 -610.3875 1603.8622 33.9963 1611.0216
-208.2187 0.7726 -611.8658 1605.3625 33.3004 1612.6418
-207.9375 0.7554 -613.3395 1606.8628 32.6004 1614.2607
-207.6290 0.7380 -614.8077 1608.3632 31.8962 1615.8779
-207.2904 0.7202 -616.2692 1609.8635 31.1875 1617.4930
-206.9188 0.7020 -617.7227 1611.3639 30.4741 1619.1066
-206.5117 0.6833 -619.1666 1612.8641 29.7557 1620.7196
-206.0679 0.6640 -620.5996 1614.3645 29.5752 1622.3324
-205.5871 0.6442 -622.0206 1615.8649 29.7217 1623.9447
-205.0700 0.6238 -623.4289 1617.3652 29.9900 1625.5558
-204.5175 0.6029 -624.8236 1618.8655 30.1735 1627.1653
-203.9302 0.5814 -626.2040 1620.3658 30.1411 1628.7738
-203.3084 0.5595 -627.5692 1621.8662 29.8314 1630.3822
-202.6519 0.5369 -628.9181 1623.3666 29.2794 1631.9908
-201.9601 0.5139 -630.2491 1624.8669 28.6588 1633.5997
-201.2322 0.4903 -631.5608 1626.3672 28.2751 1635.2083
-200.4679 0.4662 -632.8516 1627.8676 28.3495 1636.8158
-199.6681 0.4417 -634.1207 1629.3679 28.8937 1638.4232
-198.8350 0.4170 -635.3682 1630.8683 29.4278 1640.0309
-197.9728 0.3922 -636.5958 1632.3685 29.9522 1641.6395
-197.0876 0.3675 -637.8069 1633.8689 30.4675 1643.2495
-196.1854 0.3431 -639.0054 1635.3693 30.8827 1644.8596
-195.2686 0.3190 -640.1927 1636.8696 30.1672 1646.4697
-194.3349 0.2953 -641.3670 1638.3700 29.4466 1648.0790
-193.3788 0.2717 -642.5230 1639.8702 28.7205 1649.6884
-192.3946 0.2480 -643.6551 1641.3706 27.9887 1651.2983
-191.3788 0.2240 -644.7589 1642.8710 27.3432 1652.9093
-190.3309 0.1998 -645.8323 1644.3713 27.9073 1654.5203
-189.2531 0.1754 -646.8757 1645.8716 28.4601 1656.1309
-188.1498 0.1508 -647.8922 1647.3719 29.0022 1657.7405
-187.0270 0.1264 -648.8871 1648.8723 29.5342 1659.3497
-185.8900 0.1022 -649.8657 1650.3727 30.0568 1660.9592
-184.7408 0.0783 -650.8300 1651.8730 30.5703 1662.5686
-183.5781 0.0547 -651.7780 1653.3733 31.0752 1664.1775
-182.3985 0.0313 -652.7047 1654.8737 31.2823 1665.7848
-181.1988 0.0079 -653.6054 1656.3740 30.5695 1667.3904
-179.9776 -0.0151 -654.4766 1657.8744 29.8518 1668.9949
-178.7346 -0.0377 -655.3164 1659.3746 29.6687 1670.5992
-177.4704 -0.0593 -656.1240 1660.8750 29.7593 1672.2043
-176.1858 -0.0797 -656.8989 1662.3754 29.7912 1673.8103
-174.8818 -0.0989 -657.6407 1663.8757 29.8232 1675.4170
-173.5594 -0.1170 -658.3490 1665.3761 29.7085 1677.0233
-172.2191 -0.1343 -659.0230 1666.8763 29.4600 1678.6287
-170.8616 -0.1511 -659.6619 1668.3767 29.3241 1680.2311
-169.4880 -0.1677 -660.2648 1669.8771 29.6898 1681.8259
-168.0994 -0.1843 -660.8325 1671.3774 30.2096 1683.4094
-166.6977 -0.2009 -661.3673 1672.8777 30.7205 1684.9783
-165.2859 -0.2173 -661.8748 1674.3781 31.2230 1686.5354
-163.8674 -0.2336 -662.3636 1675.8784 31.7174 1688.0862
-162.4459 -0.2494 -662.8433 1677.3788 32.2041 1689.6323
-161.0236 -0.2649 -663.3206 1678.8792 32.6834 1691.1741
-159.6016 -0.2800 -663.7986 1680.3794 33.1558 1692.7094
-158.1801 -0.2947 -664.2783 1681.8798 33.6214 1694.2350
-156.7590 -0.3090 -664.7591 1683.3801 34.0805 1695.7524
-155.3380 -0.3229 -665.2405 1684.8805 34.5335 1697.2638
-153.9172 -0.3363 -665.7220 1686.3807 34.9806 1698.7714
-152.4963 -0.3492 -666.2037 1687.8811 35.4219 1700.2748
-151.0754 -0.3618 -666.6852 1689.3815 35.5541 1701.7704
-149.6545 -0.3740 -667.1667 1690.8818 34.8667 1703.2552
-148.2335 -0.3857 -667.6479 1692.3821 34.1757 1704.7258
-146.8124 -0.3969 -668.1291 1693.8824 33.4808 1706.1853
-145.3915 -0.4075 -668.6107 1695.3828 32.7820 1707.6371
-143.9713 -0.4173 -669.0942 1696.8832 32.0789 1709.0830
-142.5526 -0.4262 -669.5823 1698.3835 31.3713 1710.5236
-141.1369 -0.4343 -670.0790 1699.8838 30.6591 1711.9556
-139.7259 -0.4417 -670.5890 1701.3842 29.9420 1713.3766
-138.3218 -0.4487 -671.1177 1702.8845 29.2197 1714.7844
-136.9268 -0.4557 -671.6700 1704.3849 28.4919 1716.1810
-135.5430 -0.4632 -672.2496 1705.8851 27.7583 1717.5701
-134.1722 -0.4713 -672.8593 1707.3855 27.0185 1718.9535
-132.8162 -0.4802 -673.5012 1708.8859 26.2721 1720.3345
-131.4775 -0.4899 -674.1782 1710.3862 25.5186 1721.7135
-130.1589 -0.5002 -674.8938 1711.8866 24.7575 1723.0906
-128.8642 -0.5109 -675.6517 1713.3868 23.9884 1724.4658
-127.5967 -0.5219 -676.4543 1714.8872 23.3898 1725.8394
-126.3590 -0.5331 -677.3022 1716.3876 23.8540 1727.2118
-125.1519 -0.5443 -678.1931 1717.8879 24.4994 1728.5844
-123.9741 -0.5554 -679.1223 1719.3882 25.1281 1729.9578
-122.8218 -0.5662 -680.0829 1720.8885 25.7413 1731.3339
-121.6896 -0.5766 -681.0674 1722.3889 26.3401 1732.7136
-120.5731 -0.5865 -682.0696 1723.8893 26.9254 1734.0973
-119.4697 -0.5957 -683.0861 1725.3896 27.4982 1735.4834
-118.3789 -0.6042 -684.1162 1726.8899 28.0591 1736.8711
-117.3019 -0.6122 -685.1607 1728.3903 28.6089 1738.2589
-116.2407 -0.6195 -686.2212 1729.8906 29.1482 1739.6467
-115.1975 -0.6263 -687.2994 1731.3910 29.6776 1741.0341
-114.1747 -0.6326 -688.3970 1732.8912 30.1110 1742.4205
-113.1744 -0.6385 -689.5152 1734.3916 29.3900 1743.8049
-112.1987 -0.6440 -690.6550 1735.8920 28.6635 1745.1870
-111.2506 -0.6492 -691.8177 1737.3923 27.9313 1746.5660
-110.3338 -0.6541 -693.0053 1738.8927 27.1929 1747.9434
-109.4522 -0.6589 -694.2193 1740.3929 26.4481 1749.3196
-108.6088 -0.6636 -695.4600 1741.8933 26.7207 1750.6958
-107.8038 -0.6682 -696.7260 1743.3937 27.2978 1752.0719
-107.0343 -0.6726 -698.0139 1744.8940 27.8628 1753.4476
-106.2961 -0.6766 -699.3201 1746.3943 28.4165 1754.8226
-105.5857 -0.6803 -700.6415 1747.8947 28.9594 1756.1946
-104.9032 -0.6835 -701.9776 1749.3950 29.4922 1757.5645
-104.2514 -0.6864 -703.3289 1750.8954 30.0155 1758.9337
-103.6330 -0.6890 -704.6958 1752.3956 29.7359 1760.3030
-103.0498 -0.6914 -706.0781 1753.8960 30.0480 1761.6754
-102.5014 -0.6935 -707.4746 1755.3964 30.5617 1763.0511
-101.9852 -0.6952 -708.8833 1756.8967 31.0667 1764.4313
-101.4965 -0.6965 -710.3018 1758.3971 31.5636 1765.8148
-101.0299 -0.6973 -711.7278 1759.8973 32.0526 1767.2017
-100.5819 -0.6974 -713.1597 1761.3977 32.5343 1768.5916
-100.1519 -0.6969 -714.5971 1762.8981 33.0088 1769.9854
-99.7416 -0.6960 -716.0402 1764.3984 33.4764 1771.3837
-99.3539 -0.6946 -717.4896 1765.8987 33.9376 1772.7878
-98.9918 -0.6930 -718.9456 1767.3990 34.3925 1774.1970
-98.6569 -0.6912 -720.4080 1768.8994 34.8414 1775.6091
-98.3502 -0.6893 -721.8766 1770.3998 35.2844 1777.0208
-98.0715 -0.6873 -723.3508 1771.9001 35.7220 1778.4316
-97.8205 -0.6852 -724.8300 1773.4004 36.1541 1779.8391
-97.5957 -0.6831 -726.3133 1774.9008 36.5799 1781.2448
-97.3949 -0.6810 -727.8002 1776.4011 36.9976 1782.6511
-97.2149 -0.6789 -729.2896 1777.9015 37.4075 1784.0618
-97.0519 -0.6769 -730.7811 1779.4017 37.8099 1785.4866
-96.9018 -0.6749 -732.2739 1780.9021 38.2052 1786.9315
-96.7605 -0.6730 -733.7675 1782.4025 38.5935 1788.4088
-96.6236 -0.6709 -735.2615 1783.9028 38.9752 1789.9127
-96.4882 -0.6683 -736.7558 1785.4032 39.3504 1791.4359
-96.3522 -0.6648 -738.2500 1786.9034 39.7195 1792.9679
-96.2146 -0.6603 -739.7440 1788.4038 40.0826 1794.5010
-96.0745 -0.6550 -741.2377 1789.9042 40.4399 1796.0339
-95.9306 -0.6499 -742.7311 1791.4045 40.7916 1797.5649
-95.7809 -0.6452 -744.2239 1792.9048 41.1380 1799.0941
-95.6231 -0.6416 -745.7159 1794.4052 41.4791 1800.6223
-95.4547 -0.6391 -747.2068 1795.9055 41.8151 1802.1503
-95.2742 -0.6374 -748.6962 1797.4059 42.1463 1803.6782
-95.0810 -0.6364 -750.1841 1798.9062 42.4727 1805.2067
-94.8748 -0.6359 -751.6702 1800.4065 42.7944 1806.7363
-94.6560 -0.6360 -753.1545 1801.9069 43.1117 1808.2673
-94.4248 -0.6366 -754.6369 1803.4072 43.4246 1809.7991
-94.1821 -0.6377 -756.1175 1804.9076 43.7332 1811.3317
-93.9289 -0.6388 -757.5964 1806.4078 44.0378 1812.8641
-93.6666 -0.6399 -759.0735 1807.9082 44.3383 1814.3966
-93.3963 -0.6404 -760.5493 1809.4086 44.6349 1815.9290
-93.1194 -0.6405 -762.0239 1810.9089 44.9277 1817.4612
-92.8376 -0.6399 -763.4975 1812.4093 45.2168 1818.9934
-92.5526 -0.6388 -764.9705 1813.9095 45.5023 1820.5259
-92.2658 -0.6374 -766.4432 1815.4099 45.7843 1822.0585
-91.9779 -0.6358 -767.9156 1816.9103 46.0628 1823.5913
-91.6889 -0.6344 -769.3879 1818.4106 46.3380 1825.1246
-91.3979 -0.6331 -770.8597 1819.9109 46.6099 1826.6583
-91.1029 -0.6319 -772.3308 1821.4113 46.8786 1828.1924
-90.8019 -0.6309 -773.8007 1822.9116 47.1442 1829.7268
-90.4930 -0.6300 -775.2688 1824.4120 47.4067 1831.2615
-90.1760 -0.6290 -776.7353 1825.9122 47.6662 1832.7961
-89.8527 -0.6278 -778.2004 1827.4126 47.9228 1834.3306
-89.5256 -0.6260 -779.6647 1828.9130 48.1766 1835.8645
-89.1968 -0.6234 -781.1286 1830.4133 48.4275 1837.3978
-88.8670 -0.6195 -782.5923 1831.9137 48.6757 1838.9305
-88.5361 -0.6145 -784.0557 1833.4139 48.9213 1840.4628
-88.2029 -0.6090 -785.5186 1834.9143 49.1642 1841.9944
-87.8658 -0.6042 -786.9806 1836.4147 49.4045 1843.5258
-87.5230 -0.6009 -788.4412 1837.9150 49.6423 1845.0569
-87.1731 -0.5998 -789.9002 1839.4153 49.8777 1846.5879
-86.8150 -0.6006 -791.3572 1840.9156 50.1106 1848.1190
-86.4478 -0.6021 -792.8120 1842.4160 50.3412 1849.6503
-86.0706 -0.6035 -794.2642 1843.9164 50.5695 1851.1818
-85.6831 -0.6038 -795.7135 1845.4167 50.7954 1852.7131
-85.2852 -0.6026 -797.1601 1846.9170 51.0191 1854.2444
-84.8774 -0.5999 -798.6040 1848.4174 51.2407 1855.7749
-84.4600 -0.5962 -800.0452 1849.9177 51.4600 1857.3047
-84.0331 -0.5920 -801.4835 1851.4181 51.6773 1858.8336
-83.5960 -0.5874 -802.9188 1852.9183 51.8924 1860.3618
-83.1484 -0.5826 -804.3508 1854.4187 52.1055 1861.8898
-82.6900 -0.5775 -805.7794 1855.9191 52.3166 1863.4175
-82.2206 -0.5722 -807.2043 1857.4194 52.5258 1864.9453
-81.7401 -0.5667 -808.6256 1858.9198 52.7330 1866.4730
-81.2485 -0.5608 -810.0432 1860.4200 52.9383 1868.0015
-80.7459 -0.5547 -811.4568 1861.9204 53.1417 1869.5304
-80.2326 -0.5482 -812.8666 1863.4208 53.3433 1871.0602
-79.7090 -0.5415 -814.2725 1864.9211 53.5430 1872.5908
-79.1762 -0.5345 -815.6750 1866.4214 53.7410 1874.1219
-78.6356 -0.5272 -817.0746 1867.9218 53.9372 1875.6517
-78.0890 -0.5198 -818.4717 1869.4221 54.1317 1877.1781
-77.5379 -0.5124 -819.8672 1870.9225 54.3245 1878.6969
-76.9838 -0.5049 -821.2615 1872.4229 54.5157 1880.2045
-76.4277 -0.4974 -822.6549 1873.9231 54.6167 1881.7029
-75.8700 -0.4901 -824.0477 1875.4235 54.0506 1883.1942
-75.3110 -0.4829 -825.4399 1876.9238 53.4801 1884.6823
-74.7508 -0.4757 -826.8317 1878.4242 52.9050 1886.1693
-74.1896 -0.4687 -828.2231 1879.9244 52.3253 1887.6562
-73.6274 -0.4617 -829.6142 1881.4248 51.7407 1889.1437
-73.0644 -0.4547 -831.0049 1882.9252 51.1511 1890.6316
-72.5007 -0.4477 -832.3953 1884.4255 50.5564 1892.1200
-71.9363 -0.4405 -833.7853 1885.9258 49.9563 1893.6086
-71.3714 -0.4332 -835.1753 1887.4261 49.3508 1895.0980
-70.8064 -0.4256 -836.5652 1888.9265 48.7395 1896.5874
-70.2424 -0.4178 -837.9554 1890.4269 48.1224 1898.0767
-69.6816 -0.4098 -839.3470 1891.9272 47.4992 1899.5651
-69.1274 -0.4018 -840.7412 1893.4275 46.8697 1901.0515
-68.5839 -0.3937 -842.1396 1894.9279 46.2336 1902.5341
-68.0551 -0.3858 -843.5436 1896.4282 45.5907 1904.0105
-67.5437 -0.3779 -844.9540 1897.9286 44.9440 1905.4816
-67.0501 -0.3703 -846.3708 1899.4288 45.2329 1906.9476
-66.5717 -0.3627 -847.7929 1900.9292 45.2155 1908.4109
-66.1035 -0.3551 -849.2183 1902.4296 44.5676 1909.8726
-65.6408 -0.3475 -850.6456 1903.9299 43.9176 1911.3333
-65.1808 -0.3397 -852.0736 1905.4303 43.2654 1912.7933
-64.7239 -0.3318 -853.5027 1906.9305 42.6110 1914.2533
-64.2731 -0.3238 -854.9337 1908.4309 41.9542 1915.7131
-63.8336 -0.3159 -856.3682 1909.9313 41.2951 1917.1732
-63.4109 -0.3082 -857.8077 1911.4316 40.6334 1918.6335
-63.0091 -0.3008 -859.2532 1912.9319 39.9692 1920.0944
-62.6296 -0.2938 -860.7047 1914.4323 40.3283 1921.5558
-62.2710 -0.2872 -862.1615 1915.9326 40.6818 1923.0179
-61.9301 -0.2809 -863.6226 1917.4330 41.0298 1924.4808
-61.6031 -0.2749 -865.0869 1918.9333 41.3725 1925.9447
-61.2859 -0.2690 -866.5532 1920.4336 41.7102 1927.4094
-60.9754 -0.2633 -868.0211 1921.9340 42.0428 1928.8746
-60.6708 -0.2578 -869.4901 1923.4343 42.3707 1930.3400
-60.3731 -0.2524 -870.9606 1924.9347 42.6939 1931.8051
-60.0841 -0.2471 -872.4328 1926.4349 43.0125 1933.2697
-59.8054 -0.2421 -873.9070 1927.9353 43.3268 1934.7338
-59.5377 -0.2373 -875.3832 1929.4357 43.6368 1936.1973
-59.2813 -0.2328 -876.8615 1930.9360 43.9426 1937.6605
-59.0358 -0.2284 -878.3416 1932.4364 44.2444 1939.1234
-58.8006 -0.2243 -879.8233 1933.9366 44.5422 1940.5862
-58.5747 -0.2204 -881.3065 1935.4370 44.8362 1942.0490
-58.3572 -0.2166 -882.7910 1936.9374 45.1264 1943.5117
-58.1474 -0.2130 -884.2766 1938.4377 45.4131 1944.9749
-57.9447 -0.2095 -885.7631 1939.9380 45.6961 1946.4388
-57.7488 -0.2061 -887.2506 1941.4384 45.9757 1947.9047
-57.5592 -0.2029 -888.7389 1942.9387 46.2519 1949.3737
-57.3746 -0.1998 -890.2279 1944.4391 46.5249 1950.8474
-57.1940 -0.1970 -891.7173 1945.9395 46.7945 1952.3275
-57.0167 -0.1943 -893.2072 1947.4397 47.0611 1953.8129
-56.8425 -0.1919 -894.6973 1948.9401 47.3246 1955.3019
-56.6719 -0.1897 -896.1880 1950.4404 47.5850 1956.7927
-56.5058 -0.1878 -897.6791 1951.9408 47.8425 1958.2838
-56.3445 -0.1862 -899.1708 1953.4410 48.0972 1959.7750
-56.1880 -0.1848 -900.6630 1954.9414 48.3490 1961.2660
-56.0357 -0.1837 -902.1556 1956.4418 48.5981 1962.7565
-55.8871 -0.1829 -903.6486 1957.9421 48.8444 1964.2468
-55.7418 -0.1823 -905.1418 1959.4424 49.0882 1965.7372
-55.5997 -0.1819 -906.6354 1960.9427 49.3293 1967.2275
-55.4610 -0.1818 -908.1294 1962.4431 49.5679 1968.7179
-55.3261 -0.1819 -909.6237 1963.9435 49.8041 1970.2081
-55.1956 -0.1822 -911.1183 1965.4438 50.0378 1971.6987
-55.0699 -0.1828 -912.6135 1966.9441 50.2691 1973.1893
-54.9492 -0.1836 -914.1089 1968.4445 50.4980 1974.6799
-54.8336 -0.1846 -915.6048 1969.9448 50.7247 1976.1705
-54.7225 -0.1858 -917.1010 1971.4452 50.9491 1977.6611
-54.6157 -0.1870 -918.5975 1972.9454 51.1713 1979.1517
-54.5129 -0.1883 -920.0942 1974.4458 51.3914 1980.6423
-54.4140 -0.1896 -921.5913 1975.9462 51.6093 1982.1329
-54.3190 -0.1910 -923.0886 1977.4465 51.8251 1983.6234
-54.2281 -0.1924 -924.5862 1978.9469 52.0388 1985.1140
-54.1412 -0.1938 -926.0841 1980.4471 52.2506 1986.6046
-54.0583 -0.1952 -927.5822 1981.9475 52.4603 1988.0952
-53.9791 -0.1966 -929.0804 1983.4479 52.6681 1989.5858
-53.9034 -0.1980 -930.5789 1984.9482 52.8740 1991.0764
-53.8305 -0.1994 -932.0774 1986.4485 53.0780 1992.5673
-53.7597 -0.2008 -933.5760 1987.9489 53.2802 1994.0580
-53.6903 -0.2022 -935.0748 1989.4492 53.4805 1995.5488
-53.6218 -0.2035 -936.5735 1990.9496 53.6790 1997.0398
-53.5536 -0.2047 -938.0723 1992.4500 53.8758 1998.5310
-53.4855 -0.2060 -939.5711 1993.9502 54.0708 2000.0221
-53.4175 -0.2071 -941.0699 1995.4506 54.2642 2001.5133
-53.3495 -0.2082 -942.5687 1996.9509 54.4558 2003.0044
-53.2814 -0.2092 -944.0676 1998.4513 54.6458 2004.4956
-53.2133 -0.2102 -945.5664 1999.9515 54.8342 2005.9867
-53.1453 -0.2111 -947.0652 2001.4519 55.0210 2007.4778
-53.0776 -0.2120 -948.5640 2002.9523 55.2062 2008.9688
-53.0108 -0.2129 -950.0629 2004.4526 55.3898 2010.4596
-52.9457 -0.2137 -951.5618 2005.9530 55.5719 2011.9506
-52.8836 -0.2145 -953.0609 2007.4532 55.7525 2013.4414
-52.8256 -0.2154 -954.5601 2008.9536 55.9316 2014.9324
-52.7732 -0.2163 -956.0595 2010.4540 56.1093 2016.4233
-52.7272 -0.2173 -957.5591 2011.9543 56.2855 2017.9143
-52.6885 -0.2184 -959.0589 2013.4546 56.4602 2019.4054
-52.6571 -0.2195 -960.5589 2014.9550 56.6336 2020.8965
-52.6323 -0.2208 -962.0590 2016.4553 56.8056 2022.3876
-52.6128 -0.2221 -963.5593 2017.9557 56.9762 2023.8789
-52.5969 -0.2234 -965.0595 2019.4559 57.1455 2025.3702
-52.5832 -0.2247 -966.5598 2020.9563 57.3135 2026.8616
-52.5711 -0.2259 -968.0601 2022.4567 57.4801 2028.3529
-52.5600 -0.2272 -969.5605 2023.9570 57.6455 2029.8444
-52.5499 -0.2284 -971.0608 2025.4574 57.8096 2031.3356
-52.5409 -0.2295 -972.5611 2026.9576 57.9724 2032.8269
-52.5329 -0.2306 -974.0614 2028.4580 58.1340 2034.3182
-52.5261 -0.2317 -975.5617 2029.9584 58.2944 2035.8096
-52.5205 -0.2328 -977.0620 2031.4587 58.4535 2037.3009
-52.5160 -0.2338 -978.5623 2032.9590 58.6115 2038.7924
-52.5127 -0.2348 -980.0626 2034.4594 58.7683 2040.2837
-52.5104 -0.2357 -981.5629 2035.9597 58.9239 2041.7751
-52.5092 -0.2367 -983.0633 2037.4601 59.0784 2043.2666
-52.5089 -0.2376 -984.5636 2038.9604 59.2317 2044.7582
-52.5096 -0.2384 -986.0639 2040.4607 59.3840 2046.2496
-52.5117 -0.2392 -987.5641 2041.9611 59.5351 2047.7411
-52.5152 -0.2400 -989.0645 2043.4614 59.6851 2049.2324
-52.5206 -0.2408 -990.5648 2044.9618 59.8341 2050.7236
-52.5280 -0.2415 -992.0651 2046.4620 59.9820 2052.2148
-52.5375 -0.2423 -993.5654 2047.9624 60.1288 2053.7061
-52.5494 -0.2430 -995.0656 2049.4626 60.2746 2055.1970
-52.5637 -0.2437 -996.5660 2050.9631 60.4194 2056.6880
-52.5808 -0.2444 -998.0663 2052.4634 60.5631 2058.1792
-52.6008 -0.2451 -999.5665 2053.9639 60.7059 2059.6699
-52.6241 -0.2458 -1001.0667 2055.4641 60.8477 2061.1609
-52.6506 -0.2465 -1002.5668 2056.9644 60.9884 2062.6516
-52.6805 -0.2473 -1004.0667 2058.4648 61.1283 2064.1423
-52.7137 -0.2481 -1005.5666 2059.9651 61.2671 2065.6331
-52.7502 -0.2488 -1007.0665 2061.4656 61.4050 2067.1240
-52.7900 -0.2496 -1008.5662 2062.9658 61.5420 2068.6152
-52.8332 -0.2504 -1010.0659 2064.4661 61.6781 2070.1072
-52.8796 -0.2512 -1011.5655 2065.9666 61.8132 2071.6006
-52.9292 -0.2521 -1013.0651 2067.4668 61.9474 2073.0950
-52.9822 -0.2529 -1014.5645 2068.9673 62.0808 2074.5903
-53.0385 -0.2537 -1016.0638 2070.4675 62.2132 2076.0862
-53.0981 -0.2546 -1017.5629 2071.9678 62.3448 2077.5820
-53.1611 -0.2554 -1019.0618 2073.4683 62.4755 2079.0781
-53.2274 -0.2563 -1020.5607 2074.9685 62.6053 2080.5740
-53.2971 -0.2572 -1022.0594 2076.4688 62.7343 2082.0701
-53.3701 -0.2581 -1023.5580 2077.9692 62.8625 2083.5659
-53.4460 -0.2591 -1025.0565 2079.4695 62.9898 2085.0618
-53.5243 -0.2601 -1026.5548 2080.9700 63.1163 2086.5576
-53.6041 -0.2611 -1028.0530 2082.4702 63.2420 2088.0532
-53.6849 -0.2621 -1029.5513 2083.9705 63.3669 2089.5491
-53.7660 -0.2631 -1031.0494 2085.4709 63.4910 2091.0449
-53.8474 -0.2642 -1032.5476 2086.9712 63.6143 2092.5410
-53.9288 -0.2652 -1034.0457 2088.4717 63.7369 2094.0376
-54.0104 -0.2663 -1035.5437 2089.9719 63.8586 2095.5352
-54.0921 -0.2673 -1037.0417 2091.4722 63.9796 2097.0339
-54.1740 -0.2684 -1038.5399 2092.9727 64.0999 2098.5337
-54.2561 -0.2695 -1040.0381 2094.4729 64.2194 2100.0337
-54.3384 -0.2705 -1041.5363 2095.9734 64.3381 2101.5342
-54.4209 -0.2716 -1043.0343 2097.4736 64.4561 2103.0342
-54.5036 -0.2727 -1044.5323 2098.9739 64.5734 2104.5344
-54.5865 -0.2738 -1046.0303 2100.4744 64.6900 2106.0347
-54.6695 -0.2749 -1047.5283 2101.9746 64.8058 2107.5347
-54.7528 -0.2760 -1049.0264 2103.4749 64.9210 2109.0349
-54.8363 -0.2771 -1050.5244 2104.9753 65.0354 2110.5352
-54.9200 -0.2783 -1052.0225 2106.4756 65.1492 2112.0352
-55.0038 -0.2794 -1053.5204 2107.9761 65.2622 2113.5354
-55.0878 -0.2806 -1055.0184 2109.4763 65.3746 2115.0354
-55.1719 -0.2817 -1056.5165 2110.9766 65.4864 2116.5356
-55.2560 -0.2829 -1058.0144 2112.4771 65.5974 2118.0359
-55.3401 -0.2840 -1059.5123 2113.9773 65.7078 2119.5359
-55.4242 -0.2852 -1061.0104 2115.4778 65.8175 2121.0361
-55.5083 -0.2863 -1062.5084 2116.9780 65.9266 2122.5366
-55.5926 -0.2875 -1064.0063 2118.4783 66.0351 2124.0369
-55.6769 -0.2886 -1065.5043 2119.9788 66.1429 2125.5374
-55.7612 -0.2897 -1067.0023 2121.4790 66.2500 2127.0376
-55.8454 -0.2908 -1068.5002 2122.9792 66.3566 2128.5378
-55.9295 -0.2919 -1069.9983 2124.4797 66.4625 2130.0383
-56.0133 -0.2930 -1071.4962 2125.9800 66.5678 2131.5386
-56.0970 -0.2941 -1072.9943 2127.4805 66.6726 2133.0391
-56.1807 -0.2952 -1074.4923 2128.9807 66.7767 2134.5393
-56.2645 -0.2963 -1075.9902 2130.4810 66.8802 2136.0396
-56.3484 -0.2974 -1077.4883 2131.9814 66.9831 2137.5400
-56.4325 -0.2985 -1078.9863 2133.4817 67.0854 2139.0403
-56.5168 -0.2996 -1080.4843 2134.9822 67.1872 2140.5408
-56.6013 -0.3007 -1081.9823 2136.4824 67.2883 2142.0413
-56.6858 -0.3018 -1083.4802 2137.9827 67.3889 2143.5415
-56.7704 -0.3029 -1084.9781 2139.4832 67.4890 2145.0420
-56.8551 -0.3041 -1086.4761 2140.9834 67.5884 2146.5425
-56.9398 -0.3052 -1087.9740 2142.4839 67.6874 2148.0432
-57.0246 -0.3063 -1089.4719 2143.9841 67.7857 2149.5437
-57.1093 -0.3074 -1090.9698 2145.4844 67.8835 2151.0442
-57.1939 -0.3085 -1092.4678 2146.9849 67.9808 2152.5447
-57.2780 -0.3096 -1093.9658 2148.4851 68.0775 2154.0452
-57.3617 -0.3107 -1095.4639 2149.9854 68.1737 2155.5457
-57.4444 -0.3118 -1096.9619 2151.4858 68.2694 2157.0461
-57.5259 -0.3129 -1098.4600 2152.9861 68.3645 2158.5469
-57.6059 -0.3139 -1099.9583 2154.4866 68.4592 2160.0474
-57.6847 -0.3149 -1101.4564 2155.9868 68.5533 2161.5479
-57.7629 -0.3159 -1102.9547 2157.4871 68.6469 2163.0483
-57.8409 -0.3168 -1104.4529 2158.9875 68.7399 2164.5488
-57.9186 -0.3178 -1105.9513 2160.4878 68.8325 2166.0493
-57.9959 -0.3188 -1107.4497 2161.9883 68.9246 2167.5498
-58.0721 -0.3197 -1108.9481 2163.4885 69.0162 2169.0503
-58.1464 -0.3206 -1110.4465 2164.9888 69.1073 2170.5505
-58.2185 -0.3215 -1111.9451 2166.4893 69.1979 2172.0510
-58.2891 -0.3223 -1113.4436 2167.9895 69.2880 2173.5510
-58.3588 -0.3231 -1114.9423 2169.4900 69.3776 2175.0515
-58.4282 -0.3239 -1116.4410 2170.9902 69.4668 2176.5518
-58.4977 -0.3248 -1117.9398 2172.4905 69.5555 2178.0520
-58.5673 -0.3256 -1119.4386 2173.9910 69.6437 2179.5525
-58.6370 -0.3264 -1120.9374 2175.4912 69.7314 2181.0527
-58.7065 -0.3273 -1122.4360 2176.9915 69.8187 2182.5530
-58.7759 -0.3281 -1123.9348 2178.4919 69.9056 2184.0535
-58.8450 -0.3290 -1125.4336 2179.9922 69.9919 2185.5537
-58.9139 -0.3298 -1126.9324 2181.4927 70.0779 2187.0542
-58.9824 -0.3307 -1128.4312 2182.9929 70.1633 2188.5544
-59.0507 -0.3315 -1129.9298 2184.4932 70.2484 2190.0544
-59.1189 -0.3323 -1131.4287 2185.9937 70.3330 2191.5549
-59.1870 -0.3331 -1132.9276 2187.4939 70.4171 2193.0552
-59.2551 -0.3339 -1134.4264 2188.9944 70.5008 2194.5557
-59.3234 -0.3347 -1135.9252 2190.4946 70.5841 2196.0559
-59.3919 -0.3355 -1137.4240 2191.9949 70.6670 2197.5559
-59.4606 -0.3363 -1138.9226 2193.4954 70.7494 2199.0564
-59.5295 -0.3371 -1140.4215 2194.9956 70.8314 2200.5566
-59.5987 -0.3380 -1141.9202 2196.4958 70.9130 2202.0569
-59.6680 -0.3388 -1143.4191 2197.9963 70.9942 2203.5574
-59.7375 -0.3397 -1144.9178 2199.4966 71.0750 2205.0576
-59.8072 -0.3406 -1146.4166 2200.9971 71.1553 2206.5581
-59.8771 -0.3415 -1147.9154 2202.4973 71.2353 2208.0583
-59.9472 -0.3424 -1149.4141 2203.9976 71.3148 2209.5586
-60.0175 -0.3432 -1150.9127 2205.4980 71.3940 2211.0588
-60.0879 -0.3441 -1152.4113 2206.9983 71.4727 2212.5591
-60.1586 -0.3450 -1153.9100 2208.4988 71.5511 2214.0596
-60.2294 -0.3459 -1155.4087 2209.9990 71.6291 2215.5598
-60.3003 -0.3468 -1156.9073 2211.4993 71.7066 2217.0601
-60.3715 -0.3477 -1158.4059 2212.9998 71.7838 2218.5605
-60.4429 -0.3486 -1159.9045 2214.5000 71.8606 2220.0608
-60.5144 -0.3496 -1161.4031 2216.0005 71.9371 2221.5613
-60.5861 -0.3505 -1162.9017 2217.5007 72.0131 2223.0615
-60.6579 -0.3514 -1164.4004 2219.0010 72.0888 2224.5620
-60.7298 -0.3523 -1165.8990 2220.5015 72.1641 2226.0625
-60.8017 -0.3531 -1167.3977 2222.0017 72.2390 2227.5630
-60.8737 -0.3540 -1168.8964 2223.5020 72.3136 2229.0635
-60.9458 -0.3549 -1170.3951 2225.0024 72.3878 2230.5640
-61.0179 -0.3558 -1171.8938 2226.5027 72.4616 2232.0645
-61.0900 -0.3568 -1173.3925 2228.0032 72.5351 2233.5649
-61.1622 -0.3577 -1174.8909 2229.5034 72.6082 2235.0652
-61.2345 -0.3586 -1176.3894 2231.0037 72.6810 2236.5654
-61.3068 -0.3595 -1177.8881 2232.5042 72.7534 2238.0659
-61.3791 -0.3604 -1179.3866 2234.0044 72.8254 2239.5659
-61.4516 -0.3613 -1180.8851 2235.5049 72.8971 2241.0662
-61.5240 -0.3622 -1182.3837 2237.0051 72.9685 2242.5662
-61.5966 -0.3631 -1183.8822 2238.5054 73.0395 2244.0662
-61.6692 -0.3640 -1185.3807 2240.0059 73.1102 2245.5664
-61.7418 -0.3650 -1186.8794 2241.5061 73.1806 2247.0667
-61.8145 -0.3659 -1188.3779 2243.0066 73.2506 2248.5667
-61.8873 -0.3669 -1189.8765 2244.5068 73.3202 2250.0667
-61.9601 -0.3678 -1191.3751 2246.0071 73.3896 2251.5669
-62.0329 -0.3687 -1192.8737 2247.5076 73.4586 2253.0669
-62.1058 -0.3696 -1194.3722 2249.0078 73.5273 2254.5669
-62.1788 -0.3705 -1195.8707 2250.5081 73.5956 2256.0669
-62.2518 -0.3715 -1197.3694 2252.0085 73.6637 2257.5671
-62.3248 -0.3724 -1198.8679 2253.5088 73.7314 2259.0674
-62.3979 -0.3733 -1200.3666 2255.0093 73.7988 2260.5674
-62.4710 -0.3743 -1201.8651 2256.5095 73.8659 2262.0676
-62.5442 -0.3752 -1203.3636 2258.0098 73.9326 2263.5679
-62.6175 -0.3761 -1204.8622 2259.5103 73.9991 2265.0681
-62.6907 -0.3771 -1206.3608 2261.0105 74.0652 2266.5684
-62.7641 -0.3781 -1207.8594 2262.5110 74.1311 2268.0688
-62.8375 -0.3791 -1209.3580 2264.0112 74.1966 2269.5691
-62.9111 -0.3800 -1210.8566 2265.5115 74.2618 2271.0693
-62.9846 -0.3810 -1212.3551 2267.0120 74.3267 2272.5698
-63.0583 -0.3820 -1213.8535 2268.5122 74.3914 2274.0701
-63.1320 -0.3829 -1215.3521 2270.0125 74.4557 2275.5703
-63.2058 -0.3838 -1216.8506 2271.5129 74.5197 2277.0708
-63.2797 -0.3847 -1218.3491 2273.0132 74.2183 2278.5710
-63.3536 -0.3856 -1219.8477 2274.5137 73.7634 2280.0715
-63.4276 -0.3865 -1221.3462 2276.0139 73.3066 2281.5718
-63.5017 -0.3874 -1222.8447 2277.5142 72.8478 2283.0720
-63.5758 -0.3883 -1224.3433 2279.0146 72.3871 2284.5725
-63.6500 -0.3892 -1225.8418 2280.5149 71.9244 2286.0728
-63.7243 -0.3902 -1227.3402 2282.0154 71.4596 2287.5732
-63.7986 -0.3911 -1228.8386 2283.5156 70.9928 2289.0735
-63.8730 -0.3921 -1230.3370 2285.0159 70.5238 2290.5742
-63.9475 -0.3930 -1231.8354 2286.5164 70.0527 2292.0747
-64.0222 -0.3939 -1233.3339 2288.0166 69.5794 2293.5752
-64.0971 -0.3949 -1234.8323 2289.5171 69.1039 2295.0759
-64.1722 -0.3958 -1236.3308 2291.0173 68.6262 2296.5764
-64.2475 -0.3967 -1237.8293 2292.5176 68.1461 2298.0771
-64.3230 -0.3977 -1239.3279 2294.0181 67.6636 2299.5779
-64.3987 -0.3987 -1240.8264 2295.5183 67.1788 2301.0786
-64.4746 -0.3997 -1242.3248 2297.0186 66.6915 2302.5793
-64.5507 -0.4007 -1243.8231 2298.5190 66.2017 2304.0798
-64.6269 -0.4017 -1245.3214 2300.0193 65.7093 2305.5803
-64.7034 -0.4025 -1246.8198 2301.5198 65.2144 2307.0811
-64.7800 -0.4030 -1248.3182 2303.0200 64.7168 2308.5815
-64.8568 -0.4029 -1249.8165 2304.5203 64.2165 2310.0820
-64.9338 -0.4020 -1251.3148 2306.0208 63.7134 2311.5828
-65.0110 -0.4001 -1252.8131 2307.5210 63.2075 2313.0833
-65.0884 -0.3970 -1254.3115 2309.0215 62.6987 2314.5837
-65.1660 -0.3928 -1255.8098 2310.5217 62.1870 2316.0840
-65.2440 -0.3875 -1257.3081 2312.0220 61.6723 2317.5842
-65.3223 -0.3813 -1258.8064 2313.5225 61.1544 2319.0847
-65.4009 -0.3746 -1260.3047 2315.0227 60.6334 2320.5850
-65.4798 -0.3676 -1261.8030 2316.5229 60.1092 2322.0852
-65.5592 -0.3605 -1263.3013 2318.0234 59.5817 2323.5857
-65.6390 -0.3534 -1264.7994 2319.5237 59.0507 2325.0859
-65.7192 -0.3463 -1266.2976 2321.0242 58.5163 2326.5864
-65.7999 -0.3393 -1267.7958 2322.5244 57.9784 2328.0867
-65.8809 -0.3324 -1269.2939 2324.0247 57.4368 2329.5869
-65.9622 -0.3255 -1270.7921 2325.5251 56.8914 2331.0874
-66.0440 -0.3187 -1272.2902 2327.0254 56.3422 2332.5876
-66.1263 -0.3119 -1273.7883 2328.5259 55.7890 2334.0881
-66.2092 -0.3051 -1275.2863 2330.0261 55.2318 2335.5881
-66.2929 -0.2983 -1276.7842 2331.5264 54.6704 2337.0884
-66.3780 -0.2915 -1278.2820 2333.0269 54.1048 2338.5884
-66.4647 -0.2848 -1279.7798 2334.5271 53.5347 2340.0884
-66.5528 -0.2781 -1281.2775 2336.0276 52.9601 2341.5884
-66.6421 -0.2716 -1282.7751 2337.5278 52.3808 2343.0884
-66.7316 -0.2652 -1284.2727 2339.0281 51.7966 2344.5884
-66.8207 -0.2589 -1285.7704 2340.5286 51.2075 2346.0884
-66.9084 -0.2525 -1287.2682 2342.0288 50.6133 2347.5881
-66.9943 -0.2459 -1288.7660 2343.5291 50.0138 2349.0884
-67.0779 -0.2391 -1290.2639 2345.0295 49.4088 2350.5886
-67.1590 -0.2320 -1291.7621 2346.5298 48.7981 2352.0891
-67.2378 -0.2244 -1293.2605 2348.0303 48.1815 2353.5903
-67.3145 -0.2163 -1294.7589 2349.5305 47.5589 2355.0913
-67.3895 -0.2077 -1296.2573 2351.0308 46.9300 2356.5920
-67.4632 -0.1985 -1297.7557 2352.5312 46.2946 2358.0908
-67.5364 -0.1888 -1299.2542 2354.0315 45.6524 2359.5847
-67.6097 -0.1785 -1300.7528 2355.5320 45.0058 2361.0715
-67.6835 -0.1678 -1302.2512 2357.0322 44.3573 2362.5481
-67.7577 -0.1566 -1303.7498 2358.5325 43.7066 2364.0168
-67.8322 -0.1451 -1305.2480 2360.0330 43.0537 2365.4800
-67.9071 -0.1333 -1306.7465 2361.5332 42.3985 2366.9404
-67.9835 -0.1214 -1308.2450 2363.0337 41.7410 2368.4004
-68.0641 -0.1099 -1309.7432 2364.5339 41.0810 2369.8608
-68.1531 -0.0991 -1311.2408 2366.0342 40.4186 2371.3228
-68.2556 -0.0896 -1312.7377 2367.5347 39.7535 2372.7866
-68.3763 -0.0814 -1314.2330 2369.0349 39.0857 2374.2510
-68.5193 -0.0743 -1315.7266 2370.5352 38.4150 2375.7136
-68.6868 -0.0679 -1317.2177 2372.0356 37.7415 2377.1694
-68.8788 -0.0614 -1318.7056 2373.5359 37.0648 2378.6121
-69.0936 -0.0540 -1320.1904 2375.0364 36.3850 2380.0337
-69.3293 -0.0454 -1321.6721 2376.5366 35.7019 2381.4373
-69.5856 -0.0352 -1323.1504 2378.0369 35.0153 2382.8250
-69.8640 -0.0237 -1324.6246 2379.5374 34.3251 2384.2053
-70.1674 -0.0111 -1326.0940 2381.0376 33.6310 2385.5820
-70.4992 0.0023 -1327.5571 2382.5381 32.9330 2386.9575
-70.8620 0.0163 -1329.0127 2384.0383 32.2309 2388.3330
-71.2571 0.0308 -1330.4600 2385.5386 31.9256 2389.7080
-71.6850 0.0456 -1331.8978 2387.0391 31.8682 2391.0820
-72.1456 0.0608 -1333.3257 2388.5393 31.7916 2392.4539
-72.6388 0.0764 -1334.7426 2390.0396 31.3055 2393.8228
-73.1648 0.0924 -1336.1477 2391.5400 30.5928 2395.1887
