VERSION 0.7
FIELDS x y z arclength speed lapdistance
SIZE 4 4 4 4 4 4
TYPE F F F F F F
COUNT 1 1 1 1 1 1
WIDTH 857
HEIGHT 1
VIEWPOINT 0.000 0.000 0.000 1.000 0.000 0.000 0.000
POINTS 857
DATA ascii
-114.6276 -0.8915 -707.3015 1758.5356 29.7145 1757.8998
-113.9385 -0.8957 -708.6343 1760.0360 29.4888 1759.5540
-113.2844 -0.8997 -709.9846 1761.5365 29.1719 1761.2062
-112.6663 -0.9033 -711.3517 1763.0370 28.9335 1762.8533
-112.0851 -0.9064 -712.7349 1764.5375 28.9869 1764.4927
-111.5411 -0.9087 -714.1333 1766.0378 29.4951 1766.1256
-111.0337 -0.9100 -715.5453 1767.5383 30.0183 1767.7548
-110.5608 -0.9101 -716.9692 1769.0388 30.5325 1769.3821
-110.1198 -0.9092 -718.4034 1770.5393 31.0381 1771.0079
-109.7084 -0.9076 -719.8463 1772.0397 31.5355 1772.6305
-109.3252 -0.9055 -721.2969 1773.5402 32.0250 1774.2455
-108.9697 -0.9030 -722.7546 1775.0406 32.5071 1775.8522
-108.6420 -0.9004 -724.2188 1776.5411 32.9820 1777.4519
-108.3422 -0.8975 -725.6890 1778.0415 33.4501 1779.0470
-108.0702 -0.8944 -727.1647 1779.5420 33.9117 1780.6395
-107.8248 -0.8912 -728.6449 1781.0425 34.3669 1782.2294
-107.6028 -0.8879 -730.1288 1782.5430 34.8162 1783.8125
-107.3990 -0.8847 -731.6154 1784.0433 35.2596 1785.3833
-107.2072 -0.8815 -733.1035 1785.5438 35.6975 1786.9336
-107.0229 -0.8785 -734.5926 1787.0443 36.1299 1788.4552
-106.8443 -0.8757 -736.0823 1788.5448 36.5562 1789.9556
-106.6716 -0.8732 -737.5729 1790.0452 36.9744 1791.4417
-106.5063 -0.8710 -739.0642 1791.5457 37.3848 1792.9210
-106.3504 -0.8691 -740.5566 1793.0461 37.7876 1794.3990
-106.2045 -0.8677 -742.0499 1794.5466 38.1833 1795.8768
-106.0669 -0.8665 -743.5441 1796.0470 38.5720 1797.3552
-105.9343 -0.8656 -745.0387 1797.5475 38.9541 1798.8344
-105.8039 -0.8649 -746.5335 1799.0480 39.3297 1800.3136
-105.6739 -0.8644 -748.0283 1800.5485 39.6992 1801.7926
-105.5428 -0.8640 -749.5231 1802.0488 40.0626 1803.2715
-105.4088 -0.8637 -751.0176 1803.5493 40.4203 1804.7499
-105.2695 -0.8634 -752.5115 1805.0498 40.7724 1806.2280
-105.1222 -0.8632 -754.0048 1806.5502 41.1190 1807.7059
-104.9645 -0.8629 -755.4969 1808.0507 41.4605 1809.1833
-104.7950 -0.8625 -756.9879 1809.5511 41.7968 1810.6604
-104.6128 -0.8620 -758.4771 1811.0516 42.1282 1812.1368
-104.4176 -0.8614 -759.9648 1812.5520 42.4549 1813.6129
-104.2092 -0.8606 -761.4507 1814.0525 42.7769 1815.0886
-103.9876 -0.8598 -762.9348 1815.5530 43.0945 1816.5641
-103.7532 -0.8589 -764.4168 1817.0535 43.4076 1818.0394
-103.5062 -0.8579 -765.8968 1818.5538 43.7165 1819.5146
-103.2480 -0.8568 -767.3749 1820.0543 44.0213 1820.9897
-102.9805 -0.8556 -768.8513 1821.5548 44.3221 1822.4650
-102.7062 -0.8545 -770.3265 1823.0553 44.6189 1823.9403
-102.4275 -0.8534 -771.8009 1824.5557 44.9120 1825.4159
-102.1455 -0.8525 -773.2747 1826.0562 45.2013 1826.8917
-101.8602 -0.8516 -774.7477 1827.5566 45.4870 1828.3677
-101.5708 -0.8508 -776.2200 1829.0571 45.7692 1829.8439
-101.2766 -0.8501 -777.6913 1830.5575 46.0479 1831.3199
-100.9773 -0.8494 -779.1616 1832.0580 46.3233 1832.7958
-100.6720 -0.8487 -780.6306 1833.5585 46.5954 1834.2710
-100.3593 -0.8479 -782.0980 1835.0590 46.8643 1835.7456
-100.0373 -0.8470 -783.5636 1836.5593 47.1300 1837.2200
-99.7040 -0.8458 -785.0266 1838.0598 47.3927 1838.6940
-99.3578 -0.8444 -786.4866 1839.5603 47.6524 1840.1676
-98.9979 -0.8426 -787.9432 1841.0608 47.9092 1841.6410
-98.6243 -0.8405 -789.3964 1842.5612 48.1631 1843.1145
-98.2372 -0.8381 -790.8460 1844.0616 48.4142 1844.5880
-97.8374 -0.8353 -792.2922 1845.5621 48.6626 1846.0616
-97.4261 -0.8322 -793.7352 1847.0626 48.9083 1847.5355
-97.0051 -0.8288 -795.1753 1848.5630 49.1514 1849.0098
-96.5760 -0.8252 -796.6131 1850.0635 49.3919 1850.4844
-96.1402 -0.8214 -798.0488 1851.5640 49.6299 1851.9594
-95.6983 -0.8174 -799.4828 1853.0645 49.8654 1853.4348
-95.2501 -0.8133 -800.9148 1854.5648 50.0985 1854.9102
-94.7949 -0.8089 -802.3445 1856.0653 50.3292 1856.3855
-94.3313 -0.8042 -803.7715 1857.5658 50.5575 1857.8604
-93.8582 -0.7993 -805.1954 1859.0663 50.7836 1859.3348
-93.3750 -0.7942 -806.6160 1860.5667 51.0075 1860.8092
-92.8819 -0.7887 -808.0331 1862.0671 51.2291 1862.2834
-92.3795 -0.7830 -809.4469 1863.5676 51.4486 1863.7576
-91.8683 -0.7771 -810.8575 1865.0681 51.6660 1865.2318
-91.3481 -0.7709 -812.2649 1866.5685 51.8813 1866.7064
-90.8182 -0.7644 -813.6687 1868.0690 52.0945 1868.1812
-90.2780 -0.7576 -815.0685 1869.5695 52.3058 1869.6560
-89.7278 -0.7506 -816.4645 1871.0698 52.5150 1871.1312
-89.1687 -0.7433 -817.8569 1872.5703 52.7223 1872.6066
-88.6027 -0.7358 -819.2465 1874.0708 52.9277 1874.0828
-88.0314 -0.7281 -820.6339 1875.5713 53.1313 1875.5610
-87.4562 -0.7203 -822.0197 1877.0717 53.3329 1877.0425
-86.8781 -0.7124 -823.4043 1878.5721 53.5328 1878.5299
-86.2977 -0.7046 -824.7880 1880.0726 53.7309 1880.0258
-85.7153 -0.6968 -826.1708 1881.5731 53.9272 1881.5291
-85.1315 -0.6890 -827.5530 1883.0735 54.1218 1883.0381
-84.5470 -0.6815 -828.9349 1884.5740 54.3147 1884.5494
-83.9621 -0.6740 -830.3167 1886.0745 54.5060 1886.0615
-83.3772 -0.6666 -831.6984 1887.5750 54.6956 1887.5737
-82.7923 -0.6591 -833.0801 1889.0753 54.8395 1889.0856
-82.2071 -0.6516 -834.4618 1890.5758 54.2751 1890.5968
-81.6218 -0.6438 -835.8434 1892.0763 53.7063 1892.1077
-81.0366 -0.6359 -837.2250 1893.5768 53.1330 1893.6180
-80.4523 -0.6278 -838.6069 1895.0771 52.5551 1895.1282
-79.8706 -0.6194 -839.9901 1896.5776 51.9724 1896.6383
-79.2941 -0.6110 -841.3753 1898.0781 51.3848 1898.1487
-78.7254 -0.6025 -842.7639 1899.5786 50.7920 1899.6605
-78.1667 -0.5940 -844.1564 1901.0790 50.1940 1901.1748
-77.6192 -0.5854 -845.5534 1902.5795 49.5907 1902.6937
-77.0837 -0.5769 -846.9551 1904.0800 48.9816 1904.2188
-76.5612 -0.5685 -848.3616 1905.5804 48.3668 1905.7485
-76.0529 -0.5601 -849.7733 1907.0808 47.7460 1907.2819
-75.5603 -0.5519 -851.1906 1908.5813 47.1190 1908.8157
-75.0845 -0.5437 -852.6136 1910.0818 46.4855 1910.3496
-74.6261 -0.5357 -854.0422 1911.5823 46.6912 1911.8827
-74.1848 -0.5279 -855.4764 1913.0826 46.9590 1913.4152
-73.7602 -0.5201 -856.9155 1914.5831 47.2236 1914.9470
-73.3514 -0.5126 -858.3591 1916.0836 47.4853 1916.4788
-72.9578 -0.5052 -859.8070 1917.5841 47.7439 1918.0106
-72.5788 -0.4980 -861.2588 1919.0845 47.9997 1919.5431
-72.2142 -0.4910 -862.7143 1920.5850 48.2526 1921.0762
-71.8636 -0.4843 -864.1732 1922.0854 48.5027 1922.6102
-71.5262 -0.4778 -865.6351 1923.5859 48.7502 1924.1453
-71.2002 -0.4716 -867.0997 1925.0863 48.9949 1925.6810
-70.8830 -0.4656 -868.5662 1926.5868 49.2371 1927.2172
-70.5723 -0.4597 -870.0341 1928.0873 49.4767 1928.7532
-70.2670 -0.4539 -871.5031 1929.5876 49.7138 1930.2887
-69.9675 -0.4483 -872.9734 1931.0881 49.9484 1931.8234
-69.6757 -0.4428 -874.4452 1932.5886 50.1806 1933.3574
-69.3941 -0.4376 -875.9190 1934.0891 50.4105 1934.8906
-69.1247 -0.4326 -877.3950 1935.5895 50.6381 1936.4233
-68.8688 -0.4278 -878.8735 1937.0900 50.8634 1937.9559
-68.6270 -0.4234 -880.3544 1938.5905 51.0864 1939.4883
-68.3996 -0.4193 -881.8375 1940.0909 51.3073 1941.0210
-68.1863 -0.4154 -883.3228 1941.5913 51.5261 1942.5542
-67.9864 -0.4118 -884.8098 1943.0918 51.7427 1944.0881
-67.7984 -0.4085 -886.2985 1944.5923 51.9572 1945.6227
-67.6196 -0.4054 -887.7883 1946.0928 52.1698 1947.1570
-67.4469 -0.4024 -889.2787 1947.5931 52.3803 1948.6903
-67.2773 -0.3996 -890.7696 1949.0936 52.5888 1950.2200
-67.1088 -0.3969 -892.2606 1950.5941 52.7955 1951.7439
-66.9407 -0.3944 -893.7516 1952.0946 53.0002 1953.2618
-66.7730 -0.3920 -895.2427 1953.5950 53.2031 1954.7748
-66.6062 -0.3897 -896.7338 1955.0955 53.4041 1956.2849
-66.4414 -0.3878 -898.2252 1956.5959 53.6034 1957.7939
-66.2799 -0.3860 -899.7169 1958.0964 53.8008 1959.3025
-66.1227 -0.3846 -901.2091 1959.5968 53.9965 1960.8113
-65.9706 -0.3834 -902.7018 1961.0973 54.1905 1962.3202
-65.8240 -0.3825 -904.1951 1962.5978 54.3828 1963.8295
-65.6829 -0.3819 -905.6889 1964.0983 54.5735 1965.3387
-65.5473 -0.3815 -907.1832 1965.5986 54.7625 1966.8480
-65.4170 -0.3815 -908.6779 1967.0991 54.9499 1968.3575
-65.2917 -0.3817 -910.1731 1968.5996 55.1357 1969.8669
-65.1707 -0.3822 -911.6686 1970.1001 55.3199 1971.3765
-65.0532 -0.3829 -913.1645 1971.6005 55.5026 1972.8860
-64.9382 -0.3838 -914.6605 1973.1010 55.6838 1974.3958
-64.8248 -0.3849 -916.1567 1974.6014 55.8635 1975.9054
-64.7122 -0.3860 -917.6530 1976.1019 56.0417 1977.4152
-64.6000 -0.3872 -919.1493 1977.6023 56.2185 1978.9249
-64.4880 -0.3883 -920.6456 1979.1028 56.3938 1980.4347
-64.3763 -0.3894 -922.1419 1980.6033 56.5677 1981.9443
-64.2648 -0.3905 -923.6382 1982.1038 56.7403 1983.4539
-64.1538 -0.3915 -925.1346 1983.6041 56.9114 1984.9635
-64.0436 -0.3924 -926.6310 1985.1046 57.0812 1986.4730
-63.9347 -0.3933 -928.1274 1986.6051 57.2497 1987.9825
-63.8277 -0.3942 -929.6241 1988.1055 57.4169 1989.4921
-63.7232 -0.3951 -931.1210 1989.6060 57.5827 1991.0016
-63.6217 -0.3960 -932.6180 1991.1064 57.7473 1992.5111
-63.5231 -0.3969 -934.1152 1992.6069 57.9106 1994.0208
-63.4275 -0.3978 -935.6126 1994.1073 58.0727 1995.5303
-63.3347 -0.3987 -937.1102 1995.6078 58.2335 1997.0399
-63.2449 -0.3996 -938.6080 1997.1083 58.3932 1998.5496
-63.1581 -0.4006 -940.1060 1998.6088 58.5516 2000.0593
-63.0747 -0.4015 -941.6041 2000.1091 58.7089 2001.5690
-62.9955 -0.4024 -943.1025 2001.6096 58.8649 2003.0786
-62.9214 -0.4034 -944.6012 2003.1101 59.0199 2004.5883
-62.8533 -0.4045 -946.1002 2004.6106 59.1736 2006.0978
-62.7917 -0.4056 -947.5994 2006.1110 59.3263 2007.6073
-62.7367 -0.4068 -949.0988 2007.6115 59.4779 2009.1167
-62.6879 -0.4080 -950.5985 2009.1119 59.6283 2010.6261
-62.6442 -0.4093 -952.0983 2010.6124 59.7777 2012.1355
-62.6042 -0.4107 -953.5982 2012.1128 59.9260 2013.6449
-62.5666 -0.4120 -955.0982 2013.6133 60.0733 2015.1544
-62.5306 -0.4133 -956.5983 2015.1138 60.2195 2016.6641
-62.4957 -0.4145 -958.0983 2016.6143 60.3646 2018.1736
-62.4620 -0.4158 -959.5983 2018.1146 60.5088 2019.6832
-62.4297 -0.4170 -961.0984 2019.6151 60.6519 2021.1931
-62.3993 -0.4181 -962.5986 2021.1156 60.7941 2022.7030
-62.3712 -0.4193 -964.0988 2022.6161 60.9352 2024.2128
-62.3455 -0.4204 -965.5991 2024.1165 61.0754 2025.7228
-62.3225 -0.4216 -967.0994 2025.6169 61.2147 2027.2327
-62.3020 -0.4227 -968.5997 2027.1174 61.3529 2028.7426
-62.2842 -0.4239 -970.1001 2028.6179 61.4903 2030.2523
-62.2690 -0.4250 -971.6005 2030.1183 61.6267 2031.7621
-62.2564 -0.4262 -973.1008 2031.6188 61.7622 2033.2719
-62.2464 -0.4273 -974.6013 2033.1193 61.8968 2034.7816
-62.2389 -0.4284 -976.1017 2034.6198 62.0305 2036.2914
-62.2339 -0.4295 -977.6022 2036.1201 62.1632 2037.8011
-62.2314 -0.4306 -979.1026 2037.6206 62.2952 2039.3109
-62.2314 -0.4317 -980.6030 2039.1211 62.4262 2040.8207
-62.2340 -0.4328 -982.1035 2040.6216 62.5564 2042.3306
-62.2389 -0.4339 -983.6040 2042.1219 62.6857 2043.8406
-62.2464 -0.4350 -985.1044 2043.6224 62.8142 2045.3506
-62.2563 -0.4360 -986.6048 2045.1229 62.9419 2046.8607
-62.2687 -0.4371 -988.1053 2046.6233 63.0687 2048.3708
-62.2836 -0.4381 -989.6058 2048.1238 63.1947 2049.8811
-62.3008 -0.4392 -991.1060 2049.6243 63.3199 2051.3911
-62.3205 -0.4402 -992.6063 2051.1248 63.4443 2052.9011
-62.3426 -0.4412 -994.1066 2052.6252 63.5679 2054.4111
-62.3671 -0.4422 -995.6069 2054.1257 63.6908 2055.9214
-62.3941 -0.4433 -997.1071 2055.6260 63.8128 2057.4314
-62.4233 -0.4442 -998.6074 2057.1265 63.9341 2058.9414
-62.4550 -0.4452 -1000.1075 2058.6270 64.0546 2060.4514
-62.4890 -0.4462 -1001.6077 2060.1274 64.1744 2061.9614
-62.5254 -0.4472 -1003.1076 2061.6279 64.2935 2063.4714
-62.5641 -0.4481 -1004.6076 2063.1284 64.4118 2064.9817
-62.6051 -0.4491 -1006.1075 2064.6289 64.5293 2066.4919
-62.6485 -0.4500 -1007.6073 2066.1294 64.6462 2068.0017
-62.6942 -0.4509 -1009.1071 2067.6296 64.7623 2069.5107
-62.7423 -0.4518 -1010.6067 2069.1301 64.8777 2071.0190
-62.7926 -0.4527 -1012.1063 2070.6306 64.9924 2072.5261
-62.8452 -0.4536 -1013.6058 2072.1311 65.1065 2074.0320
-62.9001 -0.4545 -1015.1052 2073.6316 65.2198 2075.5371
-62.9573 -0.4554 -1016.6045 2075.1321 65.3325 2077.0420
-63.0168 -0.4562 -1018.1038 2076.6326 65.4444 2078.5466
-63.0785 -0.4571 -1019.6028 2078.1331 65.5557 2080.0510
-63.1425 -0.4579 -1021.1020 2079.6333 65.6664 2081.5557
-63.2088 -0.4588 -1022.6010 2081.1338 65.7764 2083.0603
-63.2773 -0.4596 -1024.0999 2082.6343 65.8857 2084.5652
-63.3481 -0.4605 -1025.5986 2084.1348 65.9944 2086.0701
-63.4211 -0.4614 -1027.0974 2085.6353 66.1025 2087.5750
-63.4963 -0.4624 -1028.5959 2087.1357 66.2099 2089.0798
-63.5739 -0.4634 -1030.0945 2088.6362 66.3167 2090.5847
-63.6538 -0.4644 -1031.5929 2090.1367 66.4229 2092.0894
-63.7360 -0.4654 -1033.0911 2091.6370 66.5284 2093.5933
-63.8205 -0.4665 -1034.5891 2093.1375 66.6334 2095.0964
-63.9069 -0.4677 -1036.0870 2094.6379 66.7377 2096.5989
-63.9951 -0.4688 -1037.5850 2096.1384 66.8414 2098.1003
-64.0847 -0.4700 -1039.0826 2097.6389 66.9446 2099.6013
-64.1752 -0.4713 -1040.5803 2099.1394 67.0471 2101.1018
-64.2663 -0.4725 -1042.0780 2100.6399 67.1491 2102.6025
-64.3578 -0.4737 -1043.5757 2102.1404 67.2505 2104.1033
-64.4494 -0.4750 -1045.0735 2103.6406 67.3513 2105.6038
-64.5411 -0.4762 -1046.5712 2105.1411 67.4516 2107.1045
-64.6327 -0.4775 -1048.0687 2106.6416 67.5513 2108.6050
-64.7244 -0.4787 -1049.5663 2108.1421 67.6504 2110.1057
-64.8162 -0.4800 -1051.0641 2109.6426 67.7490 2111.6067
-64.9080 -0.4812 -1052.5616 2111.1431 67.8470 2113.1072
-64.9997 -0.4825 -1054.0593 2112.6436 67.9445 2114.6079
-65.0913 -0.4837 -1055.5569 2114.1438 68.0414 2116.1086
-65.1824 -0.4850 -1057.0546 2115.6443 68.1378 2117.6091
-65.2725 -0.4862 -1058.5522 2117.1448 68.2337 2119.1099
-65.3614 -0.4874 -1060.0500 2118.6453 68.3290 2120.6104
-65.4488 -0.4885 -1061.5479 2120.1458 68.4239 2122.1108
-65.5349 -0.4896 -1063.0459 2121.6462 68.5182 2123.6113
-65.6200 -0.4908 -1064.5439 2123.1467 68.6120 2125.1118
-65.7046 -0.4919 -1066.0421 2124.6472 68.7052 2126.6123
-65.7889 -0.4930 -1067.5402 2126.1475 68.7980 2128.1125
-65.8731 -0.4941 -1069.0383 2127.6479 68.8903 2129.6130
-65.9574 -0.4952 -1070.5364 2129.1484 68.9821 2131.1135
-66.0417 -0.4962 -1072.0345 2130.6489 69.0733 2132.6140
-66.1261 -0.4973 -1073.5326 2132.1494 69.1641 2134.1145
-66.2106 -0.4983 -1075.0308 2133.6499 69.2544 2135.6152
-66.2951 -0.4994 -1076.5289 2135.1504 69.3443 2137.1157
-66.3795 -0.5005 -1078.0270 2136.6509 69.4336 2138.6162
-66.4637 -0.5015 -1079.5250 2138.1511 69.5225 2140.1165
-66.5475 -0.5026 -1081.0232 2139.6516 69.6109 2141.6169
-66.6308 -0.5037 -1082.5214 2141.1521 69.6988 2143.1174
-66.7135 -0.5047 -1084.0197 2142.6526 69.7863 2144.6177
-66.7955 -0.5058 -1085.5178 2144.1531 69.8733 2146.1179
-66.8769 -0.5068 -1087.0160 2145.6536 69.9598 2147.6179
-66.9577 -0.5078 -1088.5143 2147.1541 70.0459 2149.1182
-67.0381 -0.5087 -1090.0126 2148.6545 70.1316 2150.6182
-67.1181 -0.5097 -1091.5107 2150.1548 70.2168 2152.1182
-67.1978 -0.5107 -1093.0090 2151.6553 70.3016 2153.6184
-67.2774 -0.5117 -1094.5073 2153.1558 70.3859 2155.1184
-67.3569 -0.5127 -1096.0057 2154.6562 70.4698 2156.6184
-67.4364 -0.5137 -1097.5039 2156.1567 70.5532 2158.1187
-67.5159 -0.5147 -1099.0022 2157.6572 70.6362 2159.6187
-67.5954 -0.5157 -1100.5005 2159.1577 70.7188 2161.1189
-67.6749 -0.5167 -1101.9988 2160.6582 70.8010 2162.6189
-67.7545 -0.5177 -1103.4971 2162.1584 70.8828 2164.1189
-67.8340 -0.5187 -1104.9954 2163.6589 70.9641 2165.6191
-67.9135 -0.5197 -1106.4937 2165.1594 71.0451 2167.1194
-67.9930 -0.5207 -1107.9921 2166.6599 71.1256 2168.6196
-68.0726 -0.5217 -1109.4902 2168.1604 71.2057 2170.1199
-68.1522 -0.5227 -1110.9885 2169.6609 71.2854 2171.6201
-68.2318 -0.5237 -1112.4868 2171.1614 71.3647 2173.1206
-68.3115 -0.5247 -1113.9851 2172.6616 71.4436 2174.6208
-68.3911 -0.5257 -1115.4834 2174.1621 71.5221 2176.1213
-68.4704 -0.5267 -1116.9818 2175.6626 71.6002 2177.6218
-68.5489 -0.5277 -1118.4801 2177.1631 71.6779 2179.1223
-68.6264 -0.5286 -1119.9785 2178.6636 71.7553 2180.6228
-68.7024 -0.5296 -1121.4771 2180.1641 71.8322 2182.1233
-68.7771 -0.5305 -1122.9757 2181.6646 71.9088 2183.6238
-68.8507 -0.5314 -1124.4744 2183.1650 71.9850 2185.1243
-68.9237 -0.5323 -1125.9730 2184.6653 72.0608 2186.6245
-68.9964 -0.5332 -1127.4717 2186.1658 72.1363 2188.1250
-69.0690 -0.5341 -1128.9705 2187.6663 72.2113 2189.6255
-69.1417 -0.5350 -1130.4692 2189.1667 72.2860 2191.1260
-69.2143 -0.5359 -1131.9679 2190.6672 72.3604 2192.6265
-69.2871 -0.5368 -1133.4664 2192.1677 72.4344 2194.1267
-69.3598 -0.5378 -1134.9652 2193.6682 72.5080 2195.6272
-69.4326 -0.5387 -1136.4639 2195.1687 72.5812 2197.1277
-69.5055 -0.5396 -1137.9626 2196.6689 72.6541 2198.6279
-69.5784 -0.5405 -1139.4613 2198.1694 72.7267 2200.1284
-69.6514 -0.5414 -1140.9601 2199.6699 72.7989 2201.6289
-69.7244 -0.5424 -1142.4587 2201.1704 72.8707 2203.1294
-69.7975 -0.5433 -1143.9575 2202.6709 72.9422 2204.6299
-69.8706 -0.5442 -1145.4562 2204.1714 73.0134 2206.1304
-69.9435 -0.5450 -1146.9550 2205.6719 73.0842 2207.6309
-70.0161 -0.5459 -1148.4536 2207.1724 73.1546 2209.1313
-70.0882 -0.5468 -1149.9524 2208.6726 73.2248 2210.6316
-70.1598 -0.5476 -1151.4510 2210.1731 73.2946 2212.1321
-70.2307 -0.5484 -1152.9500 2211.6736 73.3641 2213.6326
-70.3013 -0.5493 -1154.4487 2213.1741 73.4332 2215.1331
-70.3714 -0.5501 -1155.9475 2214.6746 73.5020 2216.6335
-70.4414 -0.5509 -1157.4463 2216.1750 73.5705 2218.1340
-70.5111 -0.5517 -1158.9452 2217.6755 73.6387 2219.6345
-70.5808 -0.5525 -1160.4440 2219.1760 73.7065 2221.1350
-70.6504 -0.5533 -1161.9427 2220.6763 73.7740 2222.6353
-70.7198 -0.5541 -1163.4415 2222.1768 73.8412 2224.1357
-70.7892 -0.5549 -1164.9404 2223.6772 73.9081 2225.6365
-70.8585 -0.5558 -1166.4393 2225.1777 73.9747 2227.1370
-70.9278 -0.5566 -1167.9382 2226.6782 74.0409 2228.6375
-70.9971 -0.5574 -1169.4370 2228.1787 74.1069 2230.1379
-71.0664 -0.5582 -1170.9358 2229.6792 74.1725 2231.6384
-71.1357 -0.5590 -1172.4347 2231.1794 74.2379 2233.1387
-71.2050 -0.5598 -1173.9335 2232.6799 74.3029 2234.6392
-71.2744 -0.5605 -1175.4323 2234.1804 74.3676 2236.1396
-71.3439 -0.5613 -1176.9312 2235.6809 74.4321 2237.6404
-71.4135 -0.5620 -1178.4301 2237.1814 74.4962 2239.1411
-71.4831 -0.5626 -1179.9290 2238.6819 74.5601 2240.6416
-71.5527 -0.5633 -1181.4277 2240.1824 74.6236 2242.1423
-71.6224 -0.5640 -1182.9266 2241.6829 74.6869 2243.6431
-71.6922 -0.5648 -1184.4255 2243.1831 74.7498 2245.1438
-71.7620 -0.5656 -1185.9243 2244.6836 74.8125 2246.6445
-71.8318 -0.5664 -1187.4232 2246.1841 74.8749 2248.1453
-71.9017 -0.5672 -1188.9221 2247.6846 74.8388 2249.6462
-71.9716 -0.5681 -1190.4210 2249.1851 74.3865 2251.1470
-72.0416 -0.5689 -1191.9199 2250.6855 73.9322 2252.6477
-72.1116 -0.5697 -1193.4188 2252.1860 73.4761 2254.1487
-72.1816 -0.5705 -1194.9176 2253.6865 73.0180 2255.6492
-72.2517 -0.5714 -1196.4165 2255.1868 72.5579 2257.1501
-72.3219 -0.5722 -1197.9154 2256.6873 72.0959 2258.6509
-72.3921 -0.5730 -1199.4143 2258.1877 71.6319 2260.1516
-72.4623 -0.5738 -1200.9131 2259.6882 71.1658 2261.6523
-72.5326 -0.5747 -1202.4120 2261.1887 70.6976 2263.1531
-72.6029 -0.5755 -1203.9109 2262.6892 70.2272 2264.6536
-72.6733 -0.5763 -1205.4095 2264.1897 69.7547 2266.1541
-72.7437 -0.5771 -1206.9083 2265.6902 69.2800 2267.6545
-72.8142 -0.5780 -1208.4071 2267.1904 68.8030 2269.1548
-72.8847 -0.5788 -1209.9059 2268.6909 68.3238 2270.6550
-72.9552 -0.5796 -1211.4047 2270.1914 67.8422 2272.1555
-73.0258 -0.5805 -1212.9034 2271.6919 67.3582 2273.6560
-73.0964 -0.5813 -1214.4022 2273.1924 66.8717 2275.1565
-73.1671 -0.5821 -1215.9011 2274.6929 66.3828 2276.6570
-73.2378 -0.5830 -1217.3999 2276.1934 65.8914 2278.1575
-73.3086 -0.5838 -1218.8987 2277.6938 65.3974 2279.6580
-73.3794 -0.5846 -1220.3975 2279.1941 64.9007 2281.1582
-73.4503 -0.5855 -1221.8964 2280.6946 64.4014 2282.6587
-73.5212 -0.5863 -1223.3951 2282.1951 63.8993 2284.1592
-73.5922 -0.5872 -1224.8939 2283.6956 63.3944 2285.6597
-73.6632 -0.5880 -1226.3927 2285.1960 62.8867 2287.1599
-73.7342 -0.5888 -1227.8914 2286.6965 62.3760 2288.6602
-73.8053 -0.5897 -1229.3901 2288.1970 61.8623 2290.1606
-73.8764 -0.5905 -1230.8889 2289.6973 61.3456 2291.6609
-73.9473 -0.5914 -1232.3877 2291.1978 60.8257 2293.1609
-74.0182 -0.5922 -1233.8864 2292.6982 60.3027 2294.6611
-74.0892 -0.5931 -1235.3853 2294.1987 59.7763 2296.1614
-74.1602 -0.5939 -1236.8840 2295.6992 59.2466 2297.6616
-74.2319 -0.5947 -1238.3828 2297.1997 58.7134 2299.1619
-74.3049 -0.5956 -1239.8815 2298.7002 58.1768 2300.6621
-74.3803 -0.5964 -1241.3800 2300.2007 57.6365 2302.1626
-74.4590 -0.5973 -1242.8785 2301.7009 57.0924 2303.6628
-74.5411 -0.5983 -1244.3768 2303.2014 56.5446 2305.1631
-74.6261 -0.5995 -1245.8749 2304.7019 55.9929 2306.6633
-74.7127 -0.6009 -1247.3728 2306.2024 55.4371 2308.1636
-74.7999 -0.6028 -1248.8707 2307.7029 54.8773 2309.6638
-74.8874 -0.6054 -1250.3687 2309.2034 54.3131 2311.1641
-74.9748 -0.6089 -1251.8666 2310.7039 53.7447 2312.6643
-75.0621 -0.6133 -1253.3645 2312.2043 53.1717 2314.1648
-75.1492 -0.6189 -1254.8624 2313.7046 52.5941 2315.6650
-75.2361 -0.6253 -1256.3605 2315.2051 52.0117 2317.1655
-75.3225 -0.6326 -1257.8584 2316.7056 51.4244 2318.6660
-75.4081 -0.6404 -1259.3563 2318.2061 50.8320 2320.1663
-75.4928 -0.6486 -1260.8544 2319.7065 50.2344 2321.6667
-75.5766 -0.6568 -1262.3525 2321.2070 49.6313 2323.1672
-75.6593 -0.6652 -1263.8507 2322.7075 49.0227 2324.6677
-75.7405 -0.6734 -1265.3489 2324.2080 48.4083 2326.1682
-75.8199 -0.6816 -1266.8472 2325.7083 47.7879 2327.6685
-75.8974 -0.6897 -1268.3457 2327.2087 47.1613 2329.1689
-75.9736 -0.6978 -1269.8442 2328.7092 46.5282 2330.6694
-76.0492 -0.7058 -1271.3428 2330.2097 45.8884 2332.1699
-76.1246 -0.7138 -1272.8413 2331.7102 45.2426 2333.6704
-76.2002 -0.7218 -1274.3398 2333.2107 44.5947 2335.1709
-76.2761 -0.7297 -1275.8384 2334.7112 43.9448 2336.6714
-76.3524 -0.7377 -1277.3368 2336.2117 43.2926 2338.1719
-76.4292 -0.7457 -1278.8353 2337.7119 42.6383 2339.6724
-76.5063 -0.7537 -1280.3339 2339.2124 41.9816 2341.1731
-76.5838 -0.7618 -1281.8324 2340.7129 41.3225 2342.6741
-76.6617 -0.7699 -1283.3307 2342.2134 40.6609 2344.1746
-76.7399 -0.7780 -1284.8291 2343.7139 39.9967 2345.6755
-76.8184 -0.7861 -1286.3275 2345.2144 39.3298 2347.1760
-76.8973 -0.7941 -1287.8258 2346.7148 38.6602 2348.6768
-76.9765 -0.8019 -1289.3241 2348.2151 37.9876 2350.1770
-77.0561 -0.8096 -1290.8224 2349.7156 37.3121 2351.6772
-77.1362 -0.8170 -1292.3208 2351.2161 36.6334 2353.1770
-77.2168 -0.8242 -1293.8191 2352.7166 35.9515 2354.6768
-77.2981 -0.8309 -1295.3173 2354.2170 35.2661 2356.1763
-77.3805 -0.8374 -1296.8156 2355.7175 34.5771 2357.6775
-77.4646 -0.8435 -1298.3137 2357.2180 33.8845 2359.1824
-77.5510 -0.8494 -1299.8115 2358.7185 33.1879 2360.6934
-77.6405 -0.8551 -1301.3093 2360.2188 32.4872 2362.2144
-77.7334 -0.8607 -1302.8070 2361.7192 31.7822 2363.7434
-77.8288 -0.8662 -1304.3044 2363.2197 31.0727 2365.2791
-77.9257 -0.8714 -1305.8018 2364.7202 30.3584 2366.8171
-78.0230 -0.8761 -1307.2991 2366.2207 29.6391 2368.3555
-78.1204 -0.8800 -1308.7964 2367.7212 28.9145 2369.8933
-78.2182 -0.8825 -1310.2937 2369.2217 28.1842 2371.4292
-78.3185 -0.8830 -1311.7906 2370.7222 27.4480 2372.9648
-78.4264 -0.8812 -1313.2872 2372.2224 26.7054 2374.5012
-78.5500 -0.8770 -1314.7825 2373.7229 25.9560 2376.0435
-78.7005 -0.8708 -1316.2754 2375.2234 25.1993 2377.5986
-78.8896 -0.8634 -1317.7638 2376.7239 24.4349 2379.1726
-79.1266 -0.8556 -1319.2454 2378.2244 23.6621 2380.7725
-79.4158 -0.8479 -1320.7175 2379.7249 24.3127 2382.3923
-79.7548 -0.8403 -1322.1790 2381.2253 24.9462 2384.0232
-80.1367 -0.8323 -1323.6300 2382.7258 25.5639 2385.6602
-80.5539 -0.8236 -1325.0714 2384.2261 26.1668 2387.2998
-81.0012 -0.8136 -1326.5034 2385.7266 26.7560 2388.9409
-81.4766 -0.8022 -1327.9265 2387.2271 27.3324 2390.5823
-81.9793 -0.7894 -1329.3402 2388.7275 27.8725 2392.2229
-82.5093 -0.7752 -1330.7438 2390.2280 27.1336 2393.8616
-83.0663 -0.7594 -1332.1368 2391.7285 26.3882 2395.4995
-83.6503 -0.7422 -1333.5189 2393.2290 25.6358 2397.1360
-84.2614 -0.7235 -1334.8892 2394.7295 24.8759 2398.7712
-84.9010 -0.7035 -1336.2462 2396.2297 24.1080 2400.4036
-85.5725 -0.6826 -1337.5879 2397.7302 23.3314 2402.0325
-86.2817 -0.6614 -1338.9099 2399.2307 22.5455 2403.6580
-87.0360 -0.6408 -1340.2067 2400.7312 21.7495 2405.2825
-87.8408 -0.6215 -1341.4728 2402.2317 21.0390 2406.9077
-88.6967 -0.6039 -1342.7050 2403.7322 21.7690 2408.5337
-89.5991 -0.5876 -1343.9033 2405.2327 22.4750 2410.1606
-90.5402 -0.5720 -1345.0718 2406.7329 23.1593 2411.7866
-91.5123 -0.5565 -1346.2146 2408.2334 23.8238 2413.4119
-92.5107 -0.5405 -1347.3342 2409.7339 24.4701 2415.0369
-93.5338 -0.5240 -1348.4316 2411.2344 25.0996 2416.6621
-94.5815 -0.5069 -1349.5055 2412.7349 25.7135 2418.2886
-95.6556 -0.4894 -1350.5530 2414.2354 25.1432 2419.9153
-96.7588 -0.4720 -1351.5697 2415.7358 24.3782 2421.5415
-97.8944 -0.4553 -1352.5503 2417.2363 23.6048 2423.1663
-99.0641 -0.4395 -1353.4896 2418.7366 23.2281 2424.7908
-100.2671 -0.4249 -1354.3860 2420.2371 23.8906 2426.4155
-101.5000 -0.4111 -1355.2411 2421.7375 24.5352 2428.0415
-102.7571 -0.3976 -1356.0601 2423.2380 25.1630 2429.6682
-104.0331 -0.3837 -1356.8492 2424.7385 25.7754 2431.2942
-105.3242 -0.3689 -1357.6136 2426.2390 26.3735 2432.9197
-106.6293 -0.3531 -1358.3536 2427.7395 26.0196 2434.5447
-107.9504 -0.3367 -1359.0647 2429.2400 25.2636 2436.1702
-109.2907 -0.3204 -1359.7389 2430.7402 24.4998 2437.7976
-110.6524 -0.3046 -1360.3687 2432.2407 23.7277 2439.4258
-112.0355 -0.2898 -1360.9497 2433.7412 23.6555 2441.0535
-113.4386 -0.2760 -1361.4812 2435.2417 24.3063 2442.6802
-114.8590 -0.2630 -1361.9644 2436.7422 24.9399 2444.3062
-116.2937 -0.2505 -1362.4031 2438.2427 25.5577 2445.9329
-117.7398 -0.2380 -1362.8032 2439.7432 26.1608 2447.5627
-119.1945 -0.2249 -1363.1707 2441.2437 26.7501 2449.1963
-120.6561 -0.2110 -1363.5094 2442.7439 27.3266 2450.8335
-122.1236 -0.1960 -1363.8214 2444.2444 27.8911 2452.4717
-123.5963 -0.1799 -1364.1075 2445.7449 28.4442 2454.1104
-125.0739 -0.1626 -1364.3677 2447.2454 28.6955 2455.7488
-126.5559 -0.1443 -1364.6011 2448.7458 27.9635 2457.3857
-128.0421 -0.1248 -1364.8063 2450.2463 27.2254 2459.0210
-129.5322 -0.1046 -1364.9802 2451.7468 26.4808 2460.6521
-131.0261 -0.0841 -1365.1179 2453.2473 25.7293 2462.2791
-132.5235 -0.0636 -1365.2126 2454.7476 24.9703 2463.9041
-134.0231 -0.0438 -1365.2588 2456.2480 24.2034 2465.5286
-135.5234 -0.0250 -1365.2531 2457.7485 23.7219 2467.1536
-137.0224 -0.0071 -1365.1938 2459.2490 23.5363 2468.7791
-138.5183 0.0096 -1365.0808 2460.7495 23.5112 2470.4045
-140.0093 0.0252 -1364.9142 2462.2500 23.7342 2472.0300
-141.4933 0.0397 -1364.6946 2463.7505 24.2026 2473.6560
-142.9691 0.0534 -1364.4237 2465.2510 24.8390 2475.2839
-144.4352 0.0664 -1364.1047 2466.7512 25.4593 2476.9143
-145.8909 0.0790 -1363.7418 2468.2517 26.0646 2478.5466
-147.3361 0.0917 -1363.3390 2469.7522 26.6561 2480.1797
-148.7708 0.1047 -1362.8998 2471.2527 27.2346 2481.8135
-150.1951 0.1182 -1362.4281 2472.7532 27.8010 2483.4482
-151.6091 0.1324 -1361.9266 2474.2537 28.3559 2485.0847
-153.0128 0.1475 -1361.3967 2475.7542 28.9000 2486.7231
-154.4055 0.1635 -1360.8389 2477.2544 29.4340 2488.3623
-155.7867 0.1803 -1360.2531 2478.7549 29.9583 2490.0002
-157.1557 0.1978 -1359.6394 2480.2554 30.4735 2491.6370
-158.5118 0.2161 -1358.9978 2481.7559 30.2140 2493.2720
-159.8539 0.2351 -1358.3270 2483.2563 29.4937 2494.9070
-161.1799 0.2545 -1357.6252 2484.7568 28.7679 2496.5417
-162.4874 0.2741 -1356.8895 2486.2573 28.0365 2498.1763
-163.7737 0.2937 -1356.1174 2487.7578 27.2990 2499.8091
-165.0366 0.3130 -1355.3074 2489.2581 26.9061 2501.4399
-166.2742 0.3319 -1354.4592 2490.7585 26.5619 2503.0693
-167.4848 0.3503 -1353.5731 2492.2590 26.3789 2504.6980
-168.6671 0.3683 -1352.6495 2493.7595 26.4432 2506.3264
-169.8200 0.3857 -1351.6896 2495.2600 26.5091 2507.9531
-170.9425 0.4026 -1350.6941 2496.7605 26.7032 2509.5779
-172.0338 0.4190 -1349.6644 2498.2610 26.6754 2511.2000
-173.0928 0.4349 -1348.6016 2499.7615 26.5609 2512.8220
-174.1182 0.4503 -1347.5063 2501.2617 26.3683 2514.4443
-175.1088 0.4652 -1346.3794 2502.7622 25.9747 2516.0696
-176.0629 0.4796 -1345.2217 2504.2627 25.8012 2517.6975
-176.9793 0.4934 -1344.0339 2505.7632 25.9009 2519.3274
-177.8574 0.5068 -1342.8173 2507.2637 26.4961 2520.9575
-178.6976 0.5198 -1341.5742 2508.7642 27.0780 2522.5876
-179.5021 0.5326 -1340.3080 2510.2646 27.6476 2524.2178
-180.2748 0.5457 -1339.0217 2511.7651 28.2056 2525.8486
-181.0193 0.5595 -1337.7191 2513.2654 28.7526 2527.4797
-181.7379 0.5741 -1336.4021 2514.7659 29.2893 2529.1106
-182.4315 0.5897 -1335.0718 2516.2664 29.8162 2530.7407
-183.0997 0.6063 -1333.7285 2517.7668 30.3338 2532.3696
-183.7416 0.6240 -1332.3723 2519.2673 30.8427 2533.9958
-184.3559 0.6426 -1331.0037 2520.7678 31.3432 2535.6155
-184.9419 0.6622 -1329.6226 2522.2683 31.8357 2537.2251
-185.4992 0.6826 -1328.2296 2523.7688 32.3207 2538.8198
-186.0281 0.7035 -1326.8257 2525.2690 32.7983 2540.4021
-186.5298 0.7245 -1325.4119 2526.7695 33.2691 2541.9773
-187.0066 0.7456 -1323.9893 2528.2700 33.7331 2543.5481
-187.4619 0.7666 -1322.5597 2529.7705 34.1908 2545.1165
-187.8993 0.7876 -1321.1246 2531.2710 34.6424 2546.6826
-188.3213 0.8088 -1319.6849 2532.7715 35.0880 2548.2458
-188.7284 0.8300 -1318.2410 2534.2720 35.5280 2549.8062
-189.1192 0.8514 -1316.7925 2535.7722 35.9626 2551.3643
-189.4910 0.8726 -1315.3390 2537.2727 36.3918 2552.9209
-189.8409 0.8935 -1313.8801 2538.7732 36.8131 2554.4775
-190.1672 0.9140 -1312.4159 2540.2737 37.2265 2556.0339
-190.4688 0.9340 -1310.9463 2541.7742 37.6322 2557.5906
-190.7455 0.9536 -1309.4717 2543.2747 38.0306 2559.1472
-190.9974 0.9726 -1307.9927 2544.7751 38.4220 2560.7034
-191.2252 0.9912 -1306.5096 2546.2756 38.8067 2562.2595
-191.4298 1.0092 -1305.0232 2547.7759 39.1848 2563.8157
-191.6130 1.0269 -1303.5341 2549.2764 39.5566 2565.3723
-191.7766 1.0442 -1302.0425 2550.7769 39.9223 2566.9294
-191.9218 1.0612 -1300.5491 2552.2773 40.2822 2568.4873
-192.0493 1.0778 -1299.0541 2553.7778 40.6364 2570.0452
-192.1594 1.0941 -1297.5577 2555.2783 40.9852 2571.6030
-192.2521 1.1102 -1296.0602 2556.7788 41.3286 2573.1611
-192.3273 1.1259 -1294.5616 2558.2793 41.6669 2574.7195
-192.3852 1.1413 -1293.0624 2559.7795 41.9891 2576.2788
-192.4257 1.1565 -1291.5625 2561.2800 41.3300 2577.8386
-192.4490 1.1713 -1290.0623 2562.7805 40.6685 2579.3987
-192.4550 1.1858 -1288.5619 2564.2810 40.0043 2580.9590
-192.4428 1.1999 -1287.0615 2565.7815 39.3375 2582.5190
-192.4102 1.2136 -1285.5615 2567.2820 38.6679 2584.0793
-192.3545 1.2267 -1284.0621 2568.7825 37.9954 2585.6399
-192.2736 1.2390 -1282.5640 2570.2830 37.6429 2587.2004
-192.1671 1.2506 -1281.0673 2571.7832 38.0411 2588.7607
-192.0377 1.2616 -1279.5724 2573.2837 38.0506 2590.3203
-191.8907 1.2723 -1278.0792 2574.7842 37.3754 2591.8796
-191.7330 1.2831 -1276.5872 2576.2847 36.6970 2593.4387
-191.5698 1.2941 -1275.0957 2577.7852 36.0153 2594.9983
-191.4030 1.3055 -1273.6045 2579.2856 35.3303 2596.5583
-191.2301 1.3171 -1272.1141 2580.7861 34.6417 2598.1184
-191.0456 1.3286 -1270.6251 2582.2866 33.9494 2599.6787
-190.8426 1.3397 -1269.1384 2583.7869 33.2532 2601.2388
-190.6143 1.3501 -1267.6555 2585.2874 32.5529 2602.7988
-190.3554 1.3595 -1266.1776 2586.7878 31.8483 2604.3591
-190.0630 1.3678 -1264.7059 2588.2883 31.7107 2605.9194
-189.7372 1.3750 -1263.2415 2589.7888 32.1976 2607.4800
-189.3805 1.3813 -1261.7841 2591.2893 32.6771 2609.0405
-188.9987 1.3869 -1260.3329 2592.7898 33.1495 2610.6008
-188.5996 1.3922 -1258.8866 2594.2900 33.6153 2612.1611
-188.1908 1.3975 -1257.4430 2595.7905 34.0746 2613.7217
-187.7768 1.4029 -1256.0009 2597.2910 34.5277 2615.2832
-187.3584 1.4086 -1254.5599 2598.7915 34.9748 2616.8452
-186.9331 1.4143 -1253.1208 2600.2920 35.4162 2618.4075
-186.4972 1.4199 -1251.6852 2601.7925 35.8522 2619.9695
-186.0475 1.4252 -1250.2537 2603.2930 36.2828 2621.5308
-185.5818 1.4301 -1248.8274 2604.7935 36.7061 2623.0916
-185.0990 1.4346 -1247.4067 2606.2937 37.1215 2624.6519
-184.5988 1.4387 -1245.9922 2607.7942 37.5291 2626.2122
-184.0814 1.4424 -1244.5839 2609.2947 37.9294 2627.7722
-183.5470 1.4456 -1243.1819 2610.7952 38.3226 2629.3320
-182.9956 1.4484 -1241.7864 2612.2957 38.7089 2630.8916
-182.4271 1.4507 -1240.3977 2613.7961 38.3255 2632.4507
-181.8407 1.4526 -1239.0167 2615.2966 37.6515 2634.0088
-181.2344 1.4539 -1237.6442 2616.7971 36.9744 2635.5664
-180.6061 1.4547 -1236.2816 2618.2974 36.2941 2637.1226
-179.9538 1.4548 -1234.9304 2619.7979 35.6104 2638.6768
-179.2761 1.4542 -1233.5917 2621.2983 35.8890 2640.2275
-178.5738 1.4530 -1232.2656 2622.7988 36.3191 2641.7747
-177.8495 1.4512 -1230.9517 2624.2993 36.7418 2643.3191
-177.1074 1.4491 -1229.6476 2625.7998 37.1565 2644.8618
-176.3525 1.4466 -1228.3510 2627.3003 37.5635 2646.4043
-175.5882 1.4441 -1227.0598 2628.8008 37.9632 2647.9468
-174.8146 1.4416 -1225.7743 2630.3010 38.3557 2649.4895
-174.0295 1.4390 -1224.4956 2631.8015 38.7415 2651.0317
-173.2310 1.4363 -1223.2251 2633.3020 39.1207 2652.5720
-172.4190 1.4334 -1221.9635 2634.8025 39.4936 2654.1055
-171.5954 1.4304 -1220.7094 2636.3030 39.8603 2655.6294
-170.7639 1.4271 -1219.4603 2637.8035 40.2212 2657.1426
-169.9281 1.4235 -1218.2142 2639.3040 40.5764 2658.6475
-169.0905 1.4196 -1216.9694 2640.8044 40.9260 2660.1482
-168.2525 1.4155 -1215.7247 2642.3047 41.2704 2661.6467
-167.4150 1.4112 -1214.4797 2643.8052 41.6095 2663.1450
-166.5780 1.4067 -1213.2345 2645.3057 41.9437 2664.6436
-165.7416 1.4022 -1211.9889 2646.8062 42.2730 2666.1423
-164.9062 1.3976 -1210.7426 2648.3066 42.5976 2667.6418
-164.0725 1.3931 -1209.4951 2649.8071 42.9176 2669.1416
-163.2414 1.3886 -1208.2458 2651.3076 43.2332 2670.6416
-162.4139 1.3841 -1206.9941 2652.8079 43.5445 2672.1423
-161.5903 1.3798 -1205.7401 2654.3083 43.8516 2673.6431
-160.7698 1.3755 -1204.4839 2655.8088 44.1546 2675.1443
-159.9516 1.3712 -1203.2260 2657.3093 44.4536 2676.6458
-159.1346 1.3670 -1201.9674 2658.8098 44.7487 2678.1472
-158.3183 1.3629 -1200.7086 2660.3103 45.0401 2679.6489
-157.5023 1.3588 -1199.4493 2661.8108 45.3278 2681.1506
-156.6868 1.3547 -1198.1898 2663.3113 45.6120 2682.6521
-155.8722 1.3506 -1196.9299 2664.8115 45.8926 2684.1528
-155.0583 1.3466 -1195.6693 2666.3120 46.1699 2685.6521
-154.2452 1.3426 -1194.4082 2667.8125 46.4438 2687.1494
-153.4331 1.3387 -1193.1466 2669.3130 46.7144 2688.6433
-152.6224 1.3348 -1191.8840 2670.8135 46.9819 2690.1350
-151.8141 1.3310 -1190.6200 2672.3140 47.2463 2691.6252
-151.0090 1.3270 -1189.3538 2673.8145 47.5077 2693.1147
-150.2082 1.3227 -1188.0848 2675.3149 47.7661 2694.6040
-149.4123 1.3179 -1186.8129 2676.8152 48.0216 2696.0938
-148.6224 1.3122 -1185.5372 2678.3157 48.2743 2697.5835
-147.8391 1.3055 -1184.2576 2679.8162 48.5242 2699.0737
-147.0630 1.2977 -1182.9733 2681.3167 48.7714 2700.5640
-146.2944 1.2891 -1181.6846 2682.8171 49.0159 2702.0530
-145.5330 1.2799 -1180.3918 2684.3176 49.2579 2703.5398
-144.7776 1.2705 -1179.0956 2685.8181 49.4972 2705.0229
-144.0266 1.2612 -1177.7966 2687.3186 49.7341 2706.5012
-143.2781 1.2525 -1176.4962 2688.8188 49.9685 2707.9751
-142.5308 1.2444 -1175.1949 2690.3193 50.2006 2709.4460
-141.7846 1.2369 -1173.8933 2691.8198 50.4302 2710.9146
-141.0400 1.2301 -1172.5907 2693.3203 50.6576 2712.3823
-140.2988 1.2239 -1171.2861 2694.8208 50.8827 2713.8494
-139.5637 1.2181 -1169.9781 2696.3213 51.1056 2715.3164
-138.8371 1.2128 -1168.6653 2697.8218 51.3263 2716.7832
-138.1210 1.2077 -1167.3468 2699.3223 51.5448 2718.2502
-137.4159 1.2029 -1166.0222 2700.8225 51.7613 2719.7175
-136.7218 1.1982 -1164.6920 2702.3230 51.5013 2721.1853
-136.0381 1.1936 -1163.3564 2703.8235 50.9095 2722.6531
-135.3636 1.1891 -1162.0162 2705.3240 50.3126 2724.1208
-134.6973 1.1846 -1160.6718 2706.8245 49.7103 2725.5889
-134.0389 1.1801 -1159.3235 2708.3250 49.1024 2727.0566
-133.3884 1.1756 -1157.9714 2709.8254 48.4888 2728.5239
-132.7465 1.1710 -1156.6152 2711.3257 47.8692 2729.9905
-132.1148 1.1665 -1155.2542 2712.8262 47.2434 2731.4568
-131.4958 1.1619 -1153.8875 2714.3267 46.6111 2732.9229
-130.8920 1.1571 -1152.5139 2715.8271 45.9723 2734.3889
-130.3051 1.1522 -1151.1329 2717.3276 45.5206 2735.8550
-129.7354 1.1471 -1149.7449 2718.8281 45.8023 2737.3213
-129.1815 1.1418 -1148.3503 2720.3286 46.0807 2738.7881
-128.6400 1.1364 -1146.9510 2721.8291 46.3557 2740.2551
-128.1068 1.1311 -1145.5485 2723.3293 46.6274 2741.7229
-127.5779 1.1259 -1144.1442 2724.8298 46.8959 2743.1914
-127.0516 1.1209 -1142.7391 2726.3303 47.1613 2744.6597
-126.5272 1.1159 -1141.3333 2727.8308 47.4236 2746.1282
-126.0055 1.1112 -1139.9264 2729.3313 47.6830 2747.5962
-125.4877 1.1065 -1138.5181 2730.8318 47.9394 2749.0642
-124.9753 1.1019 -1137.1078 2732.3323 48.1930 2750.5320
-124.4701 1.0974 -1135.6949 2733.8328 48.4438 2751.9998
-123.9740 1.0928 -1134.2788 2735.3330 48.6918 2753.4673
-123.4892 1.0882 -1132.8588 2736.8335 48.9372 2754.9353
-123.0177 1.0835 -1131.4343 2738.3340 49.1800 2756.4036
-122.5610 1.0787 -1130.0051 2739.8345 49.4202 2757.8726
-122.1189 1.0738 -1128.5714 2741.3350 49.6579 2759.3420
-121.6903 1.0688 -1127.1335 2742.8354 49.8931 2760.8125
-121.2726 1.0637 -1125.6923 2744.3359 50.1259 2762.2830
-120.8636 1.0587 -1124.2485 2745.8364 50.3563 2763.7537
-120.4613 1.0537 -1122.8032 2747.3367 50.5844 2765.2241
-120.0647 1.0488 -1121.3561 2748.8372 50.5017 2766.6943
-119.6732 1.0440 -1119.9076 2750.3376 49.9011 2768.1646
-119.2871 1.0393 -1118.4578 2751.8381 49.2950 2769.6348
-118.9069 1.0346 -1117.0063 2753.3386 48.6832 2771.1050
-118.5340 1.0299 -1115.5529 2754.8391 48.0654 2772.5754
-118.1706 1.0252 -1114.0970 2756.3396 47.4416 2774.0464
-117.8200 1.0203 -1112.6381 2757.8401 46.8115 2775.5176
-117.4854 1.0154 -1111.1754 2759.3403 46.1747 2776.9893
-117.1685 1.0102 -1109.7089 2760.8408 46.2270 2778.4612
-116.8695 1.0049 -1108.2384 2762.3413 46.5003 2779.9329
-116.5863 0.9994 -1106.7649 2763.8418 46.7703 2781.4045
-116.3153 0.9939 -1105.2892 2765.3423 47.0371 2782.8760
-116.0520 0.9883 -1103.8121 2766.8428 47.3009 2784.3472
-115.7930 0.9829 -1102.3342 2768.3433 47.5616 2785.8184
-115.5369 0.9776 -1100.8558 2769.8435 47.8194 2787.2900
-115.2832 0.9724 -1099.3770 2771.3440 48.0743 2788.7620
-115.0325 0.9673 -1097.8976 2772.8445 48.3264 2790.2346
-114.7856 0.9623 -1096.4175 2774.3450 48.5758 2791.7075
-114.5432 0.9575 -1094.9368 2775.8455 48.8224 2793.1809
-114.3054 0.9526 -1093.4552 2777.3459 49.0664 2794.6545
-114.0726 0.9479 -1091.9729 2778.8464 49.3078 2796.1284
-113.8447 0.9432 -1090.4899 2780.3469 49.5467 2797.6021
-113.6217 0.9387 -1089.0061 2781.8472 49.7830 2799.0757
-113.4039 0.9341 -1087.5215 2783.3477 50.0169 2800.5488
-113.1917 0.9297 -1086.0360 2784.8481 50.2485 2802.0215
-112.9856 0.9253 -1084.5498 2786.3486 50.4777 2803.4937
-112.7866 0.9209 -1083.0626 2787.8491 50.7046 2804.9658
-112.5956 0.9166 -1081.5743 2789.3496 50.9292 2806.4380
-112.4135 0.9122 -1080.0848 2790.8501 51.1516 2807.9104
-112.2411 0.9079 -1078.5944 2792.3506 51.3719 2809.3828
-112.0788 0.9035 -1077.1025 2793.8508 51.5900 2810.8552
-111.9268 0.8990 -1075.6099 2795.3513 51.8060 2812.3279
-111.7853 0.8946 -1074.1162 2796.8518 52.0199 2813.8003
-111.6542 0.8901 -1072.6215 2798.3523 52.2319 2815.2725
-111.5335 0.8856 -1071.1260 2799.8528 52.4418 2816.7441
-111.4230 0.8810 -1069.6296 2801.3533 52.6498 2818.2156
-111.3228 0.8764 -1068.1324 2802.8538 52.8559 2819.6868
-111.2328 0.8718 -1066.6348 2804.3542 53.0601 2821.1572
-111.1527 0.8672 -1065.1365 2805.8545 53.2624 2822.6279
-111.0827 0.8626 -1063.6376 2807.3550 53.4629 2824.0986
-111.0226 0.8579 -1062.1384 2808.8555 53.6616 2825.5693
-110.9724 0.8532 -1060.6389 2810.3560 53.8586 2827.0403
-110.9323 0.8485 -1059.1389 2811.8564 54.0538 2828.5117
-110.9022 0.8437 -1057.6387 2813.3569 54.2473 2829.9834
-110.8821 0.8389 -1056.1384 2814.8574 54.4391 2831.4556
-110.8721 0.8341 -1054.6379 2816.3579 54.6292 2832.9277
-110.8721 0.8293 -1053.1375 2817.8582 54.8178 2834.3999
-110.8822 0.8244 -1051.6370 2819.3586 55.0047 2835.8718
-110.9023 0.8196 -1050.1367 2820.8591 55.1900 2837.3433
-110.9325 0.8146 -1048.6366 2822.3596 55.3738 2838.8147
-110.9727 0.8097 -1047.1366 2823.8601 55.5561 2840.2861
-111.0230 0.8048 -1045.6370 2825.3606 55.7368 2841.7573
-111.0834 0.7998 -1044.1378 2826.8611 55.9161 2843.2290
-111.1539 0.7948 -1042.6390 2828.3613 56.0938 2844.7007
-111.2345 0.7898 -1041.1409 2829.8618 56.2702 2846.1729
-111.3251 0.7847 -1039.6429 2831.3623 56.4451 2847.6455
-111.4253 0.7796 -1038.1459 2832.8628 56.6186 2849.1182
-111.5346 0.7746 -1036.6495 2834.3633 56.7907 2850.5908
-111.6519 0.7695 -1035.1537 2835.8638 56.9615 2852.0637
-111.7759 0.7645 -1033.6584 2837.3643 57.1309 2853.5364
-111.9054 0.7595 -1032.1635 2838.8647 57.2990 2855.0088
-112.0395 0.7547 -1030.6691 2840.3650 57.4658 2856.4807
-112.1781 0.7499 -1029.1750 2841.8655 57.6313 2857.9529
-112.3210 0.7452 -1027.6813 2843.3660 57.7955 2859.4250
-112.4681 0.7406 -1026.1881 2844.8665 57.9584 2860.8970
-112.6196 0.7361 -1024.6953 2846.3669 58.1201 2862.3691
-112.7755 0.7317 -1023.2029 2847.8674 58.2806 2863.8416
-112.9356 0.7273 -1021.7110 2849.3679 58.4399 2865.3142
-113.1001 0.7231 -1020.2196 2850.8684 58.5980 2866.7869
-113.2695 0.7189 -1018.7287 2852.3687 58.7549 2868.2593
-113.4443 0.7149 -1017.2384 2853.8691 58.9106 2869.7317
-113.6261 0.7108 -1015.7490 2855.3696 59.0284 2871.2036
-113.8163 0.7068 -1014.2606 2856.8701 58.4938 2872.6750
-114.0170 0.7027 -1012.7736 2858.3706 57.9557 2874.1462
-114.2295 0.6986 -1011.2882 2859.8711 57.4139 2875.6172
-114.4548 0.6944 -1009.8047 2861.3716 56.8683 2877.0876
-114.6930 0.6901 -1008.3233 2862.8721 56.8622 2878.5583
-114.9442 0.6857 -1006.8441 2864.3723 57.0263 2880.0291
-115.2084 0.6812 -1005.3671 2865.8728 57.1501 2881.5000
-115.4855 0.6766 -1003.8924 2867.3733 57.0484 2882.9712
-115.7755 0.6719 -1002.4202 2868.8738 56.6941 2884.4426
-116.0785 0.6671 -1000.9506 2870.3743 56.2155 2885.9141
-116.3946 0.6623 -999.4839 2871.8748 55.7724 2887.3853
-116.7241 0.6573 -998.0201 2873.3752 55.3918 2888.8560
-117.0669 0.6522 -996.5594 2874.8757 55.5334 2890.3264
-117.4230 0.6471 -995.1017 2876.3760 55.7143 2891.7969
-117.7918 0.6419 -993.6473 2877.8765 55.8937 2893.2673
-118.1719 0.6366 -992.1959 2879.3770 56.0717 2894.7375
-118.5610 0.6313 -990.7467 2880.8774 56.2482 2896.2083
-118.9558 0.6260 -989.2990 2882.3779 56.4233 2897.6792
-119.3538 0.6209 -987.8524 2883.8784 56.5970 2899.1506
-119.7542 0.6159 -986.4062 2885.3789 56.7693 2900.6223
-120.1577 0.6110 -984.9611 2886.8794 56.9402 2902.0945
-120.5658 0.6062 -983.5172 2888.3796 57.1098 2903.5664
-120.9795 0.6015 -982.0750 2889.8801 57.2781 2905.0381
-121.3995 0.5968 -980.6345 2891.3806 57.2401 2906.5090
-121.8260 0.5921 -979.1958 2892.8811 56.6933 2907.9800
-122.2588 0.5875 -977.7590 2894.3816 56.1426 2909.4502
-122.6978 0.5829 -976.3243 2895.8821 55.5880 2910.9204
-123.1430 0.5784 -974.8914 2897.3826 55.0292 2912.3901
-123.5942 0.5739 -973.4603 2898.8828 54.4663 2913.8601
-124.0516 0.5694 -972.0312 2900.3833 53.8990 2915.3303
-124.5153 0.5650 -970.6042 2901.8838 53.3272 2916.8005
-124.9859 0.5606 -969.1794 2903.3843 52.7509 2918.2712
-125.4641 0.5562 -967.7571 2904.8848 52.1698 2919.7419
-125.9504 0.5519 -966.3376 2906.3853 51.5838 2921.2129
-126.4457 0.5475 -964.9214 2907.8857 50.9928 2922.6841
-126.9506 0.5431 -963.5085 2909.3862 50.3967 2924.1550
-127.4663 0.5386 -962.0993 2910.8865 49.7951 2925.6260
-127.9939 0.5340 -960.6947 2912.3870 49.1880 2927.0964
-128.5350 0.5294 -959.2953 2913.8875 48.5752 2928.5669
-129.0909 0.5246 -957.9016 2915.3879 47.9564 2930.0374
-129.6627 0.5196 -956.5143 2916.8884 47.3315 2931.5081
-130.2507 0.5144 -955.1339 2918.3889 47.2109 2932.9788
-130.8550 0.5090 -953.7606 2919.8894 47.4727 2934.4500
-131.4749 0.5035 -952.3942 2921.3899 47.7315 2935.9214
-132.1091 0.4979 -951.0344 2922.8901 47.9874 2937.3931
-132.7551 0.4923 -949.6801 2924.3906 48.2404 2938.8647
-133.4095 0.4869 -948.3299 2925.8911 48.4907 2940.3362
-134.0692 0.4818 -946.9822 2927.3916 48.7383 2941.8076
-134.7321 0.4769 -945.6363 2928.8921 48.9831 2943.2788
-135.3980 0.4723 -944.2917 2930.3926 49.2254 2944.7500
-136.0673 0.4676 -942.9488 2931.8931 49.4651 2946.2214
-136.7404 0.4626 -941.6077 2933.3936 49.7024 2947.6929
-137.4171 0.4569 -940.2685 2934.8938 49.9371 2949.1646
-138.0965 0.4503 -938.9307 2936.3943 50.1695 2950.6365
-138.7781 0.4430 -937.5939 2937.8948 50.3995 2952.1089
-139.4615 0.4350 -936.2582 2939.3953 50.6271 2953.5823
-140.1472 0.4266 -934.9235 2940.8958 50.8525 2955.0576
-140.8354 0.4182 -933.5901 2942.3962 51.0757 2956.5364
-141.5269 0.4101 -932.2585 2943.8967 51.2967 2958.0195
-142.2226 0.4021 -930.9290 2945.3972 51.5155 2959.5066
-142.9240 0.3945 -929.6025 2946.8975 51.1794 2960.9968
-143.6326 0.3872 -928.2800 2948.3979 50.5848 2962.4880
-144.3498 0.3801 -926.9621 2949.8984 49.9850 2963.9797
-145.0761 0.3732 -925.6492 2951.3989 49.3797 2965.4707
-145.8110 0.3666 -924.3410 2952.8994 48.7687 2966.9612
-146.5529 0.3601 -923.0369 2954.3999 48.1518 2968.4507
-147.3003 0.3538 -921.7359 2955.9004 47.5288 2969.9399
-148.0511 0.3478 -920.4370 2957.4006 46.8996 2971.4309
-148.8038 0.3419 -919.1390 2958.9011 46.2638 2972.9253
-149.5572 0.3364 -917.8413 2960.4016 45.6212 2974.4272
-150.3107 0.3312 -916.5439 2961.9021 44.9745 2975.9407
-151.0641 0.3264 -915.2464 2963.4026 44.3258 2977.4646
-151.8172 0.3221 -913.9486 2964.9031 43.6749 2978.9971
-152.5690 0.3182 -912.6500 2966.4036 43.0219 2980.5322
-153.3173 0.3149 -911.3494 2967.9041 42.3665 2982.0681
-154.0586 0.3123 -910.0448 2969.4043 41.7088 2983.6033
-154.7887 0.3103 -908.7339 2970.9048 41.0487 2985.1377
-155.5031 0.3092 -907.4144 2972.4053 40.3861 2986.6716
-156.1984 0.3092 -906.0849 2973.9058 39.7208 2988.2053
-156.8730 0.3105 -904.7446 2975.4062 40.0839 2989.7395
-157.5272 0.3133 -903.3943 2976.9067 40.4412 2991.2742
-158.1638 0.3175 -902.0357 2978.4072 40.7930 2992.8088
-158.7872 0.3228 -900.6710 2979.9077 41.1393 2994.3435
-159.4025 0.3291 -899.3024 2981.4080 41.4804 2995.8779
-160.0134 0.3361 -897.9319 2982.9084 41.8165 2997.4121
-160.6215 0.3436 -896.5602 2984.4089 42.1476 2998.9453
-161.2262 0.3516 -895.1871 2985.9094 41.8075 3000.4778
-161.8251 0.3600 -893.8114 2987.4099 41.1477 3002.0098
-162.4140 0.3686 -892.4315 2988.9104 40.4855 3003.5415
-162.9882 0.3774 -891.0453 2990.4109 39.8206 3005.0737
-163.5432 0.3863 -889.6512 2991.9114 39.1530 3006.6062
-164.0760 0.3953 -888.2487 2993.4116 38.4826 3008.1392
-164.5857 0.4044 -886.8375 2994.9121 38.8662 3009.6724
-165.0734 0.4135 -885.4186 2996.4126 39.2433 3011.2061
-165.5423 0.4227 -883.9934 2997.9131 39.6142 3012.7395
-165.9971 0.4322 -882.5636 2999.4136 39.9790 3014.2727
-166.4426 0.4419 -881.1307 3000.9141 40.3380 3015.8057
-166.8815 0.4519 -879.6960 3002.4146 40.6913 3017.3384
-167.3147 0.4621 -878.2595 3003.9150 41.0392 3018.8708
-167.7412 0.4725 -876.8210 3005.4153 41.3818 3020.4036
-168.1590 0.4830 -875.3799 3006.9158 41.7193 3021.9368
-168.5655 0.4934 -873.9356 3008.4163 42.0519 3023.4700
-168.9584 0.5038 -872.4876 3009.9167 42.3797 3025.0039
-169.3363 0.5141 -871.0355 3011.4172 42.7027 3026.5383
-169.6987 0.5243 -869.5795 3012.9177 43.0213 3028.0735
-170.0459 0.5344 -868.1198 3014.4182 43.3355 3029.6089
-170.3786 0.5445 -866.6567 3015.9185 43.6454 3031.1443
-170.6979 0.5544 -865.1908 3017.4189 43.9511 3032.6799
-171.0051 0.5644 -863.7222 3018.9194 44.2528 3034.2151
-171.3005 0.5743 -862.2512 3020.4199 44.5505 3035.7502
-171.5837 0.5842 -860.7776 3021.9204 44.8444 3037.2854
-171.8538 0.5941 -859.3018 3023.4209 45.1346 3038.8208
-172.1101 0.6039 -857.8235 3024.9214 45.4211 3040.3564
-172.3525 0.6137 -856.3428 3026.4219 45.7041 3041.8928
-172.5813 0.6235 -854.8599 3027.9221 45.9837 3043.4299
-172.7979 0.6333 -853.3752 3029.4226 46.2598 3044.9678
-173.0047 0.6432 -851.8890 3030.9231 46.5326 3046.5066
-173.2049 0.6532 -850.4020 3032.4236 46.8023 3048.0459
-173.4017 0.6634 -848.9146 3033.9241 47.0687 3049.5854
-173.5969 0.6737 -847.4268 3035.4246 47.3321 3051.1250
-173.7914 0.6842 -845.9390 3036.9250 47.5925 3052.6643
-173.9852 0.6948 -844.4512 3038.4255 47.8500 3054.2034
-174.1779 0.7056 -842.9633 3039.9258 47.3712 3055.7424
-174.3683 0.7165 -841.4750 3041.4263 46.7403 3057.2812
-174.5548 0.7275 -839.9863 3042.9268 46.1028 3058.8201
