VERSION 0.7
FIELDS x y z arclength speed lapdistance
SIZE 4 4 4 4 4 4
TYPE F F F F F F
COUNT 1 1 1 1 1 1
WIDTH 858
HEIGHT 1
VIEWPOINT 0.000 0.000 0.000 1.000 0.000 0.000 0.000
POINTS 858
DATA ascii
-86.0511 -0.6435 -799.4318 1816.9523 55.2303 1856.2515
-85.7264 -0.6416 -800.8965 1818.4526 55.4137 1857.7676
-85.3993 -0.6395 -802.3608 1819.9530 55.5956 1859.2819
-85.0703 -0.6373 -803.8247 1821.4534 55.7761 1860.7948
-84.7398 -0.6350 -805.2882 1822.9537 55.9550 1862.3060
-84.4080 -0.6327 -806.7514 1824.4541 56.1324 1863.8157
-84.0751 -0.6303 -808.2144 1825.9545 56.3084 1865.3237
-83.7417 -0.6278 -809.6772 1827.4548 56.4830 1866.8307
-83.4078 -0.6252 -811.1399 1828.9553 56.6562 1868.3353
-83.0736 -0.6227 -812.6026 1830.4557 56.8281 1869.8390
-82.7393 -0.6201 -814.0652 1831.9561 56.9985 1871.3407
-82.4049 -0.6174 -815.5279 1833.4564 57.1676 1872.8407
-82.0704 -0.6147 -816.9905 1834.9568 57.3354 1874.3395
-81.7359 -0.6121 -818.4532 1836.4572 57.5019 1875.8363
-81.4017 -0.6094 -819.9158 1837.9575 57.6671 1877.3320
-81.0676 -0.6069 -821.3786 1839.4579 57.8310 1878.8258
-80.7338 -0.6044 -822.8413 1840.9583 57.9937 1880.3083
-80.4005 -0.6019 -824.3041 1842.4586 58.1551 1881.7877
-80.0677 -0.5995 -825.7672 1843.9590 58.3153 1883.2682
-79.7359 -0.5973 -827.2303 1845.4594 58.4743 1884.7502
-79.4050 -0.5951 -828.6938 1846.9597 58.6321 1886.2324
-79.0756 -0.5930 -830.1576 1848.4601 58.7888 1887.7167
-78.7477 -0.5908 -831.6217 1849.9604 58.9443 1889.2010
-78.4218 -0.5887 -833.0863 1851.4608 59.0986 1890.6870
-78.0981 -0.5866 -834.5514 1852.9613 59.2518 1892.1742
-77.7768 -0.5844 -836.0170 1854.4617 59.4039 1893.6616
-77.4582 -0.5821 -837.4832 1855.9620 59.5549 1895.1499
-77.1422 -0.5796 -838.9498 1857.4624 59.7048 1896.6383
-76.8288 -0.5770 -840.4171 1858.9628 59.8536 1898.1273
-76.5177 -0.5742 -841.8849 1860.4631 60.0014 1899.6168
-76.2089 -0.5712 -843.3532 1861.9635 60.1481 1901.1079
-75.9019 -0.5680 -844.8218 1863.4639 60.2937 1902.5999
-75.5966 -0.5645 -846.2908 1864.9642 60.4384 1904.1023
-75.2925 -0.5608 -847.7601 1866.4646 60.5820 1905.6133
-74.9897 -0.5569 -849.2296 1867.9650 60.7246 1907.1256
-74.6876 -0.5528 -850.6992 1869.4653 60.8663 1908.6395
-74.3862 -0.5484 -852.1690 1870.9657 61.0069 1910.1559
-74.0854 -0.5438 -853.6389 1872.4661 61.1466 1911.6738
-73.7851 -0.5390 -855.1089 1873.9664 61.2854 1913.1938
-73.4852 -0.5340 -856.5790 1875.4668 61.4231 1914.7159
-73.1856 -0.5289 -858.0493 1876.9672 61.5600 1916.2399
-72.8862 -0.5235 -859.5194 1878.4677 61.6959 1917.7653
-72.5872 -0.5181 -860.9896 1879.9680 61.8309 1919.2930
-72.2886 -0.5126 -862.4600 1881.4684 61.9651 1920.8220
-71.9904 -0.5069 -863.9304 1882.9688 62.0983 1922.3539
-71.6930 -0.5014 -865.4010 1884.4691 62.2306 1923.8878
-71.3967 -0.4957 -866.8718 1885.9695 62.3621 1925.4238
-71.1020 -0.4901 -868.3428 1887.4698 62.4927 1926.9615
-70.8094 -0.4845 -869.8144 1888.9702 62.6224 1928.4989
-70.5195 -0.4789 -871.2865 1890.4706 62.7513 1930.0360
-70.2329 -0.4734 -872.7592 1891.9709 62.8794 1931.5717
-69.9501 -0.4680 -874.2327 1893.4713 63.0066 1933.1069
-69.6716 -0.4628 -875.7070 1894.9717 63.1330 1934.6420
-69.3980 -0.4575 -877.1822 1896.4720 63.2586 1936.1763
-69.1296 -0.4525 -878.6583 1897.9724 63.3834 1937.7100
-68.8667 -0.4475 -880.1354 1899.4728 63.5074 1939.2440
-68.6098 -0.4426 -881.6136 1900.9731 63.6306 1940.7780
-68.3588 -0.4379 -883.0928 1902.4735 63.7530 1942.3118
-68.1139 -0.4334 -884.5730 1903.9740 63.8747 1943.8455
-67.8753 -0.4291 -886.0543 1905.4744 63.9956 1945.3793
-67.6428 -0.4249 -887.5366 1906.9747 64.1157 1946.9138
-67.4166 -0.4209 -889.0198 1908.4751 64.2351 1948.4482
-67.1965 -0.4172 -890.5039 1909.9755 64.3538 1949.9835
-66.9824 -0.4136 -891.9890 1911.4758 64.4717 1951.5165
-66.7742 -0.4103 -893.4748 1912.9762 64.5889 1953.0234
-66.5718 -0.4073 -894.9615 1914.4766 64.7054 1954.5323
-66.3751 -0.4044 -896.4489 1915.9769 64.8211 1956.0409
-66.1838 -0.4019 -897.9370 1917.4773 64.9362 1957.5496
-65.9980 -0.3997 -899.4258 1918.9777 65.0505 1959.0579
-65.8172 -0.3977 -900.9153 1920.4780 65.1642 1960.5664
-65.6415 -0.3960 -902.4053 1921.9784 65.2772 1962.0748
-65.4706 -0.3947 -903.8959 1923.4788 65.3895 1963.5833
-65.3046 -0.3935 -905.3871 1924.9791 65.5011 1965.0920
-65.1432 -0.3927 -906.8787 1926.4795 65.6121 1966.6001
-64.9864 -0.3921 -908.3709 1927.9799 65.7224 1968.1084
-64.8341 -0.3917 -909.8635 1929.4803 65.8320 1969.6169
-64.6862 -0.3917 -911.3566 1930.9807 65.9410 1971.1254
-64.5427 -0.3918 -912.8500 1932.4811 66.0494 1972.6335
-64.4035 -0.3921 -914.3440 1933.9814 66.1571 1974.1425
-64.2686 -0.3926 -915.8383 1935.4818 66.2642 1975.6510
-64.1377 -0.3933 -917.3329 1936.9822 66.3707 1977.1595
-64.0109 -0.3941 -918.8279 1938.4825 66.4765 1978.6681
-63.8879 -0.3950 -920.3232 1939.9829 66.5818 1980.1764
-63.7687 -0.3959 -921.8188 1941.4833 66.6864 1981.6848
-63.6529 -0.3969 -923.3148 1942.9836 66.7905 1983.1930
-63.5405 -0.3980 -924.8110 1944.4840 66.8939 1984.7014
-63.4314 -0.3990 -926.3074 1945.9844 66.9967 1986.2097
-63.3253 -0.4000 -927.8040 1947.4847 67.0990 1987.7179
-63.2223 -0.4011 -929.3008 1948.9851 67.2007 1989.2260
-63.1220 -0.4021 -930.7979 1950.4855 67.3018 1990.7345
-63.0244 -0.4031 -932.2950 1951.9858 67.4023 1992.2427
-62.9293 -0.4042 -933.7924 1953.4862 67.5022 1993.7510
-62.8367 -0.4051 -935.2899 1954.9867 67.6016 1995.2592
-62.7465 -0.4061 -936.7875 1956.4871 67.7005 1996.7678
-62.6588 -0.4071 -938.2853 1957.9874 67.7988 1998.2762
-62.5732 -0.4080 -939.7832 1959.4878 67.8965 1999.7844
-62.4898 -0.4090 -941.2813 1960.9882 67.9937 2001.2931
-62.4085 -0.4098 -942.7794 1962.4885 68.0904 2002.8010
-62.3292 -0.4108 -944.2776 1963.9889 68.1865 2004.3093
-62.2516 -0.4116 -945.7760 1965.4893 68.2821 2005.8177
-62.1757 -0.4125 -947.2745 1966.9896 68.3772 2007.3262
-62.1011 -0.4133 -948.7729 1968.4900 68.4717 2008.8339
-62.0278 -0.4140 -950.2715 1969.9904 68.5658 2010.3422
-61.9553 -0.4148 -951.7701 1971.4907 68.6593 2011.8497
-61.8834 -0.4155 -953.2687 1972.9911 68.7523 2013.3582
-61.8119 -0.4162 -954.7675 1974.4915 68.8448 2014.8656
-61.7405 -0.4168 -956.2662 1975.9918 68.9368 2016.3737
-61.6691 -0.4173 -957.7649 1977.4922 69.0284 2017.8816
-61.5977 -0.4178 -959.2636 1978.9927 69.1194 2019.3892
-61.5262 -0.4181 -960.7623 1980.4930 69.2099 2020.8967
-61.4547 -0.4185 -962.2610 1981.9934 69.3000 2022.4045
-61.3834 -0.4187 -963.7597 1983.4938 69.3895 2023.9124
-61.3125 -0.4190 -965.2584 1984.9941 69.4786 2025.4202
-61.2423 -0.4191 -966.7571 1986.4945 69.5673 2026.9268
-61.1730 -0.4193 -968.2559 1987.9949 69.6554 2028.4337
-61.1048 -0.4194 -969.7547 1989.4952 69.7431 2029.9408
-61.0378 -0.4195 -971.2535 1990.9956 69.8304 2031.4469
-60.9722 -0.4195 -972.7524 1992.4960 69.9171 2032.9532
-60.9082 -0.4196 -974.2515 1993.9963 70.0034 2034.4594
-60.8456 -0.4196 -975.7505 1995.4967 70.0893 2035.9659
-60.7844 -0.4196 -977.2496 1996.9971 70.1747 2037.4725
-60.7246 -0.4196 -978.7488 1998.4974 70.2597 2038.9786
-60.6659 -0.4196 -980.2480 1999.9978 70.3442 2040.4845
-60.6083 -0.4195 -981.7473 2001.4982 70.4283 2041.9904
-60.5516 -0.4194 -983.2466 2002.9985 70.5120 2043.4955
-60.4956 -0.4193 -984.7460 2004.4990 70.5952 2045.0007
-60.4405 -0.4190 -986.2452 2005.9994 70.6780 2046.5061
-60.3859 -0.4188 -987.7446 2007.4998 70.7604 2048.0112
-60.3318 -0.4185 -989.2440 2009.0001 70.8424 2049.5164
-60.2783 -0.4181 -990.7434 2010.5005 70.9239 2051.0205
-60.2253 -0.4176 -992.2428 2012.0009 71.0051 2052.5254
-60.1727 -0.4172 -993.7422 2013.5012 71.0858 2054.0286
-60.1203 -0.4167 -995.2416 2015.0016 71.1661 2055.5325
-60.0685 -0.4161 -996.7411 2016.5020 71.2460 2057.0356
-60.0170 -0.4154 -998.2407 2018.0023 71.3255 2058.5393
-59.9658 -0.4148 -999.7402 2019.5027 71.4046 2060.0422
-59.9151 -0.4140 -1001.2397 2021.0031 71.4833 2061.5449
-59.8649 -0.4132 -1002.7391 2022.5034 71.5616 2063.0461
-59.8154 -0.4125 -1004.2387 2024.0038 71.6395 2064.5481
-59.7665 -0.4115 -1005.7382 2025.5042 71.7170 2066.0500
-59.7185 -0.4106 -1007.2379 2027.0045 71.7942 2067.5515
-59.6716 -0.4097 -1008.7375 2028.5049 71.8709 2069.0525
-59.6259 -0.4087 -1010.2371 2030.0054 71.9473 2070.5532
-59.5819 -0.4076 -1011.7368 2031.5057 72.0233 2072.0527
-59.5395 -0.4066 -1013.2366 2033.0061 72.0989 2073.5508
-59.4990 -0.4056 -1014.7365 2034.5065 72.1742 2075.0491
-59.4606 -0.4046 -1016.2363 2036.0068 72.2491 2076.5476
-59.4245 -0.4035 -1017.7362 2037.5072 72.3236 2078.0461
-59.3908 -0.4024 -1019.2361 2039.0076 72.3977 2079.5442
-59.3596 -0.4014 -1020.7362 2040.5079 72.4715 2081.0430
-59.3309 -0.4004 -1022.2363 2042.0083 72.5449 2082.5415
-59.3048 -0.3994 -1023.7364 2043.5087 72.6180 2084.0396
-59.2810 -0.3984 -1025.2366 2045.0090 72.6907 2085.5383
-59.2597 -0.3975 -1026.7368 2046.5094 72.7631 2087.0366
-59.2406 -0.3966 -1028.2371 2048.0098 72.8351 2088.5342
-59.2237 -0.3957 -1029.7374 2049.5103 72.9068 2090.0327
-59.2088 -0.3948 -1031.2377 2051.0105 72.9781 2091.5308
-59.1959 -0.3940 -1032.7380 2052.5110 73.0491 2093.0291
-59.1850 -0.3933 -1034.2384 2054.0112 73.1197 2094.5278
-59.1757 -0.3925 -1035.7389 2055.5117 73.1900 2096.0251
-59.1683 -0.3918 -1037.2393 2057.0120 73.2600 2097.5229
-59.1626 -0.3911 -1038.7395 2058.5125 73.3296 2099.0215
-59.1586 -0.3904 -1040.2399 2060.0127 73.3989 2100.5193
-59.1564 -0.3899 -1041.7402 2061.5132 73.4679 2102.0181
-59.1561 -0.3894 -1043.2404 2063.0134 73.5365 2103.5164
-59.1578 -0.3889 -1044.7406 2064.5139 73.6048 2105.0144
-59.1615 -0.3885 -1046.2410 2066.0142 73.6728 2106.5129
-59.1674 -0.3880 -1047.7413 2067.5146 73.7405 2108.0117
-59.1754 -0.3877 -1049.2417 2069.0151 73.8079 2109.5105
-59.1858 -0.3873 -1050.7421 2070.5154 73.8749 2111.0085
-59.1986 -0.3870 -1052.2423 2072.0159 73.9416 2112.5076
-59.2137 -0.3868 -1053.7426 2073.5161 74.0080 2114.0063
-59.2314 -0.3866 -1055.2428 2075.0166 74.0741 2115.5056
-59.2514 -0.3864 -1056.7432 2076.5168 74.1399 2117.0049
-59.2737 -0.3863 -1058.2433 2078.0173 74.2054 2118.5042
-59.2982 -0.3862 -1059.7435 2079.5176 74.2706 2120.0039
-59.3247 -0.3862 -1061.2438 2081.0181 74.3355 2121.5037
-59.3530 -0.3862 -1062.7438 2082.5183 74.4001 2123.0029
-59.3829 -0.3863 -1064.2438 2084.0188 74.4643 2124.5024
-59.4143 -0.3863 -1065.7439 2085.5190 74.5283 2126.0020
-59.4468 -0.3864 -1067.2439 2087.0195 74.5920 2127.5024
-59.4805 -0.3865 -1068.7440 2088.5198 74.6554 2129.0020
-59.5150 -0.3866 -1070.2441 2090.0203 74.7185 2130.5017
-59.5503 -0.3867 -1071.7439 2091.5205 74.7813 2132.0015
-59.5862 -0.3869 -1073.2438 2093.0210 74.8439 2133.5010
-59.6228 -0.3870 -1074.7438 2094.5215 74.9061 2135.0012
-59.6599 -0.3871 -1076.2437 2096.0217 74.9681 2136.5010
-59.6973 -0.3873 -1077.7435 2097.5222 75.0297 2138.0007
-59.7353 -0.3875 -1079.2433 2099.0225 75.0911 2139.5000
-59.7735 -0.3876 -1080.7432 2100.5229 75.1522 2141.0000
-59.8122 -0.3879 -1082.2432 2102.0232 75.2131 2142.5002
-59.8513 -0.3882 -1083.7429 2103.5237 75.2736 2143.9998
-59.8908 -0.3885 -1085.2429 2105.0239 75.3339 2145.4998
-59.9306 -0.3887 -1086.7428 2106.5244 75.3940 2146.9998
-59.9708 -0.3891 -1088.2424 2108.0247 75.4537 2148.4995
-60.0113 -0.3894 -1089.7423 2109.5251 75.5132 2149.9998
-60.0523 -0.3897 -1091.2421 2111.0254 75.5724 2151.4988
-60.0935 -0.3900 -1092.7418 2112.5259 75.6313 2152.9990
-60.1351 -0.3902 -1094.2417 2114.0261 75.6900 2154.4988
-60.1770 -0.3905 -1095.7413 2115.5266 75.7485 2155.9990
-60.2193 -0.3908 -1097.2412 2117.0269 75.8066 2157.4995
-60.2617 -0.3911 -1098.7408 2118.5273 75.8645 2158.9995
-60.3045 -0.3914 -1100.2406 2120.0278 75.9222 2160.4998
-60.3474 -0.3918 -1101.7405 2121.5281 75.9795 2161.9993
-60.3906 -0.3920 -1103.2404 2123.0286 76.0367 2163.4993
-60.4340 -0.3923 -1104.7401 2124.5288 76.0936 2164.9995
-60.4776 -0.3926 -1106.2399 2126.0293 76.1502 2166.4998
-60.5215 -0.3930 -1107.7396 2127.5295 76.2066 2167.9995
-60.5655 -0.3933 -1109.2394 2129.0300 76.2627 2169.5000
-60.6098 -0.3936 -1110.7393 2130.5303 76.3186 2170.9995
-60.6544 -0.3940 -1112.2391 2132.0308 76.3742 2172.4998
-60.6994 -0.3943 -1113.7386 2133.5310 76.4296 2174.0000
-60.7449 -0.3947 -1115.2382 2135.0315 76.4848 2175.4998
-60.7911 -0.3950 -1116.7378 2136.5317 76.5397 2176.9998
-60.8380 -0.3954 -1118.2373 2138.0322 76.5943 2178.4995
-60.8857 -0.3959 -1119.7371 2139.5325 76.6488 2179.9993
-60.9347 -0.3963 -1121.2366 2141.0330 76.7030 2181.4998
-60.9848 -0.3967 -1122.7361 2142.5332 76.7569 2183.0005
-61.0363 -0.3972 -1124.2356 2144.0337 76.8106 2184.4993
-61.0893 -0.3977 -1125.7350 2145.5342 76.8641 2185.9998
-61.1436 -0.3982 -1127.2343 2147.0344 76.9174 2187.5005
-61.1993 -0.3988 -1128.7338 2148.5349 76.9704 2189.0007
-61.2561 -0.3994 -1130.2330 2150.0352 77.0232 2190.5007
-61.3137 -0.4000 -1131.7322 2151.5356 77.0758 2192.0012
-61.3717 -0.4006 -1133.2313 2153.0359 77.1281 2193.5015
-61.4297 -0.4012 -1134.7306 2154.5364 77.1803 2195.0015
-61.4872 -0.4018 -1136.2297 2156.0366 77.2322 2196.5020
-61.5440 -0.4024 -1137.7290 2157.5371 77.2838 2198.0022
-61.5998 -0.4029 -1139.2284 2159.0374 77.3353 2199.5020
-61.6543 -0.4034 -1140.7279 2160.5378 77.3865 2201.0020
-61.7076 -0.4040 -1142.2273 2162.0381 77.4375 2202.5022
-61.7596 -0.4044 -1143.7269 2163.5386 77.4883 2204.0024
-61.8103 -0.4050 -1145.2263 2165.0388 77.5389 2205.5027
-61.8600 -0.4053 -1146.7258 2166.5393 77.5893 2207.0027
-61.9088 -0.4057 -1148.2255 2168.0398 77.6394 2208.5027
-61.9567 -0.4061 -1149.7251 2169.5400 77.6893 2210.0027
-62.0042 -0.4065 -1151.2247 2171.0405 77.7391 2211.5027
-62.0515 -0.4069 -1152.7244 2172.5408 77.7886 2213.0024
-62.0987 -0.4072 -1154.2241 2174.0413 77.8379 2214.5029
-62.1458 -0.4075 -1155.7238 2175.5415 77.8870 2216.0034
-62.1934 -0.4079 -1157.2234 2177.0420 77.9359 2217.5027
-62.2412 -0.4083 -1158.7229 2178.5422 77.9845 2219.0034
-62.2895 -0.4087 -1160.2225 2180.0427 78.0330 2220.5032
-62.3382 -0.4090 -1161.7220 2181.5430 78.0813 2222.0039
-62.3874 -0.4095 -1163.2216 2183.0435 78.1294 2223.5034
-62.4371 -0.4100 -1164.7209 2184.5437 78.1772 2225.0042
-62.4873 -0.4104 -1166.2206 2186.0442 78.2249 2226.5044
-62.5379 -0.4110 -1167.7201 2187.5444 78.2724 2228.0044
-62.5889 -0.4115 -1169.2196 2189.0449 78.3196 2229.5046
-62.6403 -0.4121 -1170.7192 2190.5452 78.3667 2231.0046
-62.6920 -0.4125 -1172.2188 2192.0457 78.4136 2232.5054
-62.7440 -0.4130 -1173.7184 2193.5461 78.4603 2234.0061
-62.7963 -0.4136 -1175.2179 2195.0464 78.5068 2235.5059
-62.8488 -0.4141 -1176.7173 2196.5469 78.5531 2237.0059
-62.9014 -0.4145 -1178.2166 2198.0471 78.5992 2238.5054
-62.9543 -0.4151 -1179.7159 2199.5476 78.6451 2240.0063
-63.0074 -0.4156 -1181.2153 2201.0479 78.6908 2241.5059
-63.0606 -0.4161 -1182.7147 2202.5483 78.7363 2243.0061
-63.1140 -0.4166 -1184.2140 2204.0486 78.7817 2244.5063
-63.1675 -0.4171 -1185.7135 2205.5491 78.8268 2246.0063
-63.2213 -0.4177 -1187.2128 2207.0493 78.8718 2247.5061
-63.2751 -0.4182 -1188.7122 2208.5498 78.9166 2249.0059
-63.3291 -0.4187 -1190.2115 2210.0500 78.9612 2250.5056
-63.3832 -0.4193 -1191.7108 2211.5505 79.0056 2252.0059
-63.4375 -0.4198 -1193.2103 2213.0508 79.0498 2253.5061
-63.4920 -0.4203 -1194.7097 2214.5513 79.0939 2255.0059
-63.5465 -0.4209 -1196.2090 2216.0515 79.1378 2256.5056
-63.6013 -0.4214 -1197.7084 2217.5520 79.1815 2258.0061
-63.6561 -0.4219 -1199.2078 2219.0525 79.2250 2259.5063
-63.7112 -0.4225 -1200.7070 2220.5527 79.2683 2261.0056
-63.7665 -0.4230 -1202.2065 2222.0532 79.3115 2262.5059
-63.8219 -0.4235 -1203.7059 2223.5535 79.3545 2264.0063
-63.8775 -0.4241 -1205.2052 2225.0540 79.3973 2265.5063
-63.9333 -0.4247 -1206.7047 2226.5542 79.4399 2267.0068
-63.9893 -0.4252 -1208.2040 2228.0547 79.4824 2268.5068
-64.0456 -0.4258 -1209.7032 2229.5549 79.5222 2270.0066
-64.1020 -0.4263 -1211.2025 2231.0554 79.0879 2271.5073
-64.1587 -0.4269 -1212.7019 2232.5557 78.6520 2273.0076
-64.2156 -0.4275 -1214.2012 2234.0562 78.2144 2274.5078
-64.2727 -0.4281 -1215.7004 2235.5564 77.7753 2276.0076
-64.3300 -0.4286 -1217.1997 2237.0569 77.3345 2277.5083
-64.3876 -0.4292 -1218.6991 2238.5571 76.8920 2279.0088
-64.4453 -0.4299 -1220.1984 2240.0576 76.4478 2280.5083
-64.5033 -0.4305 -1221.6978 2241.5579 76.0018 2282.0085
-64.5615 -0.4311 -1223.1971 2243.0583 75.5542 2283.5095
-64.6199 -0.4318 -1224.6963 2244.5588 75.1047 2285.0098
-64.6786 -0.4324 -1226.1956 2246.0591 74.6534 2286.5095
-64.7375 -0.4332 -1227.6948 2247.5596 74.2003 2288.0100
-64.7966 -0.4338 -1229.1940 2249.0598 73.7453 2289.5107
-64.8560 -0.4347 -1230.6931 2250.5603 73.2884 2291.0112
-64.9157 -0.4354 -1232.1921 2252.0605 72.8295 2292.5115
-64.9756 -0.4363 -1233.6913 2253.5610 72.3687 2294.0112
-65.0359 -0.4371 -1235.1903 2255.0613 71.9059 2295.5120
-65.0965 -0.4380 -1236.6895 2256.5618 71.4410 2297.0122
-65.1574 -0.4389 -1238.1885 2258.0620 70.9741 2298.5129
-65.2186 -0.4398 -1239.6876 2259.5625 70.5051 2300.0137
-65.2801 -0.4406 -1241.1866 2261.0627 70.0339 2301.5142
-65.3421 -0.4413 -1242.6858 2262.5632 69.5605 2303.0144
-65.4043 -0.4419 -1244.1848 2264.0635 69.0849 2304.5151
-65.4669 -0.4423 -1245.6838 2265.5640 68.6070 2306.0154
-65.5298 -0.4423 -1247.1827 2267.0642 68.1268 2307.5161
-65.5931 -0.4419 -1248.6819 2268.5647 67.6442 2309.0166
-65.6568 -0.4410 -1250.1809 2270.0652 67.1593 2310.5176
-65.7209 -0.4395 -1251.6799 2271.5654 66.6719 2312.0173
-65.7853 -0.4373 -1253.1790 2273.0659 66.1819 2313.5183
-65.8502 -0.4344 -1254.6779 2274.5662 65.6895 2315.0188
-65.9156 -0.4307 -1256.1769 2276.0667 65.1944 2316.5190
-65.9816 -0.4264 -1257.6759 2277.5669 64.6967 2318.0193
-66.0482 -0.4213 -1259.1747 2279.0674 64.1963 2319.5198
-66.1155 -0.4158 -1260.6736 2280.5676 63.6931 2321.0203
-66.1836 -0.4098 -1262.1722 2282.0681 63.1871 2322.5198
-66.2529 -0.4035 -1263.6710 2283.5684 62.6782 2324.0208
-66.3231 -0.3969 -1265.1697 2285.0688 62.1663 2325.5208
-66.3948 -0.3903 -1266.6685 2286.5691 61.6514 2327.0208
-66.4682 -0.3835 -1268.1670 2288.0696 61.1334 2328.5215
-66.5434 -0.3768 -1269.6653 2289.5698 60.6123 2330.0212
-66.6210 -0.3701 -1271.1637 2291.0703 60.0879 2331.5215
-66.7014 -0.3635 -1272.6619 2292.5706 59.5602 2333.0212
-66.7850 -0.3571 -1274.1599 2294.0710 59.0292 2334.5220
-66.8723 -0.3508 -1275.6576 2295.5715 58.4946 2336.0227
-66.9638 -0.3449 -1277.1553 2297.0718 57.9565 2337.5227
-67.0603 -0.3393 -1278.6527 2298.5723 57.4147 2339.0225
-67.1624 -0.3340 -1280.1497 2300.0725 56.8692 2340.5220
-67.2706 -0.3291 -1281.6462 2301.5730 56.3198 2342.0222
-67.3858 -0.3248 -1283.1422 2303.0732 55.7665 2343.5227
-67.5087 -0.3208 -1284.6376 2304.5737 55.2091 2345.0220
-67.6399 -0.3175 -1286.1322 2306.0740 54.6475 2346.5208
-67.7803 -0.3148 -1287.6260 2307.5745 54.0817 2348.0193
-67.9306 -0.3126 -1289.1188 2309.0747 53.5114 2349.5178
-68.0913 -0.3111 -1290.6104 2310.5752 52.9366 2351.0159
-68.2632 -0.3104 -1292.1008 2312.0754 52.3571 2352.5129
-68.4467 -0.3104 -1293.5898 2313.5759 51.7727 2354.0088
-68.6424 -0.3113 -1295.0774 2315.0762 51.1834 2355.5046
-68.8508 -0.3129 -1296.5632 2316.5767 50.5889 2356.9995
-69.0723 -0.3157 -1298.0471 2318.0769 49.9892 2358.4929
-69.3073 -0.3195 -1299.5291 2319.5774 49.3839 2359.9836
-69.5562 -0.3243 -1301.0085 2321.0779 48.7730 2361.4707
-69.8194 -0.3304 -1302.4856 2322.5781 48.1562 2362.9373
-70.0973 -0.3377 -1303.9601 2324.0786 47.5333 2364.4043
-70.3903 -0.3463 -1305.4314 2325.5789 46.9041 2365.8721
-70.6988 -0.3561 -1306.8997 2327.0793 46.2684 2367.3406
-71.0235 -0.3671 -1308.3644 2328.5796 45.6259 2368.8105
-71.3646 -0.3793 -1309.8253 2330.0801 44.9793 2370.2815
-71.7230 -0.3925 -1311.2822 2331.5803 44.3306 2371.7549
-72.0990 -0.4063 -1312.7346 2333.0808 43.6798 2373.2292
-72.4932 -0.4204 -1314.1823 2334.5811 43.0268 2374.7046
-72.9063 -0.4346 -1315.6244 2336.0815 42.3715 2376.1816
-73.3388 -0.4483 -1317.0610 2337.5818 41.7139 2377.6599
-73.7912 -0.4614 -1318.4915 2339.0823 41.0538 2379.1401
-74.2640 -0.4734 -1319.9154 2340.5825 40.3912 2380.6228
-74.7580 -0.4841 -1321.3320 2342.0830 39.7260 2382.1084
-75.2735 -0.4935 -1322.7411 2343.5833 39.0580 2383.5996
-75.8113 -0.5013 -1324.1417 2345.0837 38.3873 2385.0967
-76.3716 -0.5075 -1325.5334 2346.5842 37.7136 2386.6011
-76.9554 -0.5124 -1326.9156 2348.0845 37.0368 2388.1152
-77.5630 -0.5155 -1328.2875 2349.5850 36.3568 2389.6404
-78.1950 -0.5172 -1329.6481 2351.0852 35.6735 2391.1685
-78.8523 -0.5175 -1330.9969 2352.5857 35.0001 2392.6992
-79.5351 -0.5165 -1332.3329 2354.0859 34.6770 2394.2310
-80.2442 -0.5141 -1333.6550 2355.5864 33.9849 2395.7686
-80.9801 -0.5104 -1334.9624 2357.0867 33.2889 2397.3120
-81.7433 -0.5058 -1336.2540 2358.5872 32.5889 2398.8635
-82.5343 -0.5000 -1337.5291 2360.0874 32.4380 2400.4194
-83.3532 -0.4934 -1338.7863 2361.5879 32.0936 2401.9746
-84.2001 -0.4860 -1340.0247 2363.0881 31.6882 2403.5288
-85.0751 -0.4778 -1341.2433 2364.5886 31.4834 2405.0847
-85.9784 -0.4692 -1342.4413 2366.0889 31.4725 2406.6458
-86.9095 -0.4601 -1343.6179 2367.5894 31.2666 2408.2112
-87.8684 -0.4506 -1344.7720 2369.0896 31.3397 2409.7842
-88.8543 -0.4408 -1345.9027 2370.5901 31.7742 2411.3577
-89.8673 -0.4308 -1347.0096 2372.0906 31.3066 2412.9292
-90.9067 -0.4205 -1348.0918 2373.5908 30.6647 2414.5022
-91.9720 -0.4099 -1349.1486 2375.0913 30.8654 2416.0771
-93.0623 -0.3991 -1350.1791 2376.5916 31.0179 2417.6560
-94.1774 -0.3880 -1351.1830 2378.0920 30.6517 2419.2412
-95.3166 -0.3767 -1352.1594 2379.5923 30.9046 2420.8284
-96.4791 -0.3652 -1353.1078 2381.0928 30.3356 2422.4124
-97.6645 -0.3534 -1354.0273 2382.5930 30.2077 2423.9946
-98.8723 -0.3414 -1354.9177 2384.0935 30.6374 2425.5784
-100.1014 -0.3292 -1355.7780 2385.5938 30.7362 2427.1650
-101.3515 -0.3168 -1356.6074 2387.0942 30.4503 2428.7583
-102.6220 -0.3043 -1357.4058 2388.5945 30.2418 2430.3540
-103.9120 -0.2915 -1358.1718 2390.0950 30.2475 2431.9453
-105.2209 -0.2786 -1358.9052 2391.5952 29.5274 2433.5361
-106.5481 -0.2656 -1359.6049 2393.0957 29.4120 2435.1257
-107.8928 -0.2524 -1360.2704 2394.5959 29.5334 2436.7190
-109.2540 -0.2391 -1360.9008 2396.0964 29.4779 2438.3157
-110.6311 -0.2257 -1361.4957 2397.5969 29.0390 2439.9182
-112.0235 -0.2122 -1362.0546 2399.0972 29.2920 2441.5161
-113.4302 -0.1986 -1362.5769 2400.5977 29.3986 2443.1111
-114.8497 -0.1849 -1363.0619 2402.0979 29.6563 2444.7058
-116.2817 -0.1712 -1363.5095 2403.5984 29.3723 2446.3010
-117.7250 -0.1574 -1363.9192 2405.0986 29.1465 2447.9011
-119.1786 -0.1436 -1364.2908 2406.5991 29.3617 2449.5068
-120.6414 -0.1298 -1364.6239 2408.0994 29.8873 2451.1165
-122.1125 -0.1159 -1364.9185 2409.5999 30.0757 2452.7229
-123.5907 -0.1021 -1365.1744 2411.1001 29.5330 2454.3274
-125.0751 -0.0881 -1365.3916 2412.6006 29.6765 2455.9319
-126.5646 -0.0740 -1365.5701 2414.1008 29.8231 2457.5413
-128.0585 -0.0599 -1365.7100 2415.6013 29.5440 2459.1553
-129.5552 -0.0456 -1365.8113 2417.1016 29.7761 2460.7625
-131.0542 -0.0312 -1365.8741 2418.6021 29.9098 2462.3665
-132.5544 -0.0165 -1365.8990 2420.1025 29.4681 2463.9690
-134.0546 -0.0017 -1365.8859 2421.6028 29.3509 2465.5730
-135.5540 0.0132 -1365.8351 2423.1033 29.7643 2467.1804
-137.0515 0.0284 -1365.7467 2424.6035 30.2828 2468.7947
-138.5464 0.0439 -1365.6212 2426.1040 30.5119 2470.4045
-140.0381 0.0596 -1365.4589 2427.6042 30.3410 2472.0125
-141.5251 0.0756 -1365.2599 2429.1047 30.0276 2473.6201
-143.0069 0.0917 -1365.0243 2430.6050 30.5416 2475.2295
-144.4825 0.1082 -1364.7527 2432.1055 30.4825 2476.8433
-145.9507 0.1250 -1364.4451 2433.6057 30.5290 2478.4604
-147.4109 0.1421 -1364.1017 2435.1062 30.6774 2480.0737
-148.8627 0.1595 -1363.7227 2436.6064 30.6377 2481.6831
-150.3046 0.1773 -1363.3083 2438.1069 30.2350 2483.2905
-151.7359 0.1952 -1362.8588 2439.6072 30.4869 2484.8984
-153.1558 0.2134 -1362.3743 2441.1077 30.9932 2486.5105
-154.5635 0.2319 -1361.8555 2442.6079 30.6687 2488.1250
-155.9581 0.2508 -1361.3026 2444.1084 30.8042 2489.7332
-157.3391 0.2698 -1360.7163 2445.6089 31.0097 2491.3374
-158.7055 0.2893 -1360.0972 2447.1091 30.9401 2492.9382
-160.0569 0.3089 -1359.4457 2448.6096 30.8582 2494.5393
-161.3928 0.3290 -1358.7626 2450.1099 31.3584 2496.1418
-162.7121 0.3495 -1358.0487 2451.6104 31.8190 2497.7473
-164.0146 0.3704 -1357.3047 2453.1106 32.1575 2499.3481
-165.3001 0.3917 -1356.5310 2454.6111 32.2748 2500.9426
-166.5677 0.4135 -1355.7290 2456.1113 32.1227 2502.5327
-167.8173 0.4358 -1354.8987 2457.6118 32.5911 2504.1208
-169.0482 0.4586 -1354.0413 2459.1121 32.4986 2505.7083
-170.2601 0.4818 -1353.1572 2460.6125 32.9736 2507.2979
-171.4526 0.5057 -1352.2473 2462.1128 33.3273 2508.8796
-172.6257 0.5300 -1351.3120 2463.6133 33.3055 2510.4536
-173.7786 0.5550 -1350.3522 2465.1135 33.6698 2512.0210
-174.9113 0.5805 -1349.3685 2466.6140 33.8968 2513.5847
-176.0231 0.6067 -1348.3617 2468.1143 33.7329 2515.1465
-177.1139 0.6334 -1347.3320 2469.6147 33.7999 2516.7085
-178.1832 0.6608 -1346.2802 2471.1152 33.6244 2518.2712
-179.2306 0.6888 -1345.2065 2472.6155 33.2483 2519.8242
-180.2557 0.7174 -1344.1113 2474.1160 33.7126 2521.3689
-181.2581 0.7467 -1342.9951 2475.6162 33.7562 2522.9065
-182.2370 0.7765 -1341.8586 2477.1167 33.6128 2524.4368
-183.1924 0.8069 -1340.7023 2478.6169 33.9502 2525.9648
-184.1237 0.8379 -1339.5265 2480.1174 33.9850 2527.4895
-185.0310 0.8694 -1338.3318 2481.6177 33.9777 2529.0054
-185.9137 0.9015 -1337.1188 2483.1182 34.1769 2530.5134
-186.7717 0.9339 -1335.8883 2484.6184 34.5449 2532.0139
-187.6050 0.9667 -1334.6411 2486.1189 34.7189 2533.5078
-188.4136 0.9997 -1333.3777 2487.6191 35.1039 2534.9971
-189.1975 1.0328 -1332.0989 2489.1196 35.1509 2536.4844
-189.9567 1.0658 -1330.8053 2490.6199 35.5901 2537.9680
-190.6914 1.0987 -1329.4977 2492.1204 36.0239 2539.4436
-191.4018 1.1312 -1328.1768 2493.6206 36.2392 2540.9165
-192.0881 1.1631 -1326.8428 2495.1211 36.4440 2542.3872
-192.7501 1.1943 -1325.4968 2496.6216 36.8532 2543.8540
-193.3880 1.2248 -1324.1393 2498.1218 36.9805 2545.3196
-194.0017 1.2544 -1322.7708 2499.6223 36.6864 2546.7839
-194.5913 1.2830 -1321.3912 2501.1226 37.1021 2548.2498
-195.1565 1.3108 -1320.0016 2502.6230 36.9893 2549.7151
-195.6970 1.3374 -1318.6024 2504.1233 36.5363 2551.1780
-196.2128 1.3632 -1317.1937 2505.6238 35.8539 2552.6401
-196.7033 1.3879 -1315.7761 2507.1240 36.2844 2554.1016
-197.1686 1.4117 -1314.3500 2508.6245 36.7077 2555.5630
-197.6083 1.4346 -1312.9158 2510.1248 37.0230 2557.0251
-198.0223 1.4565 -1311.4739 2511.6252 36.4198 2558.4858
-198.4104 1.4774 -1310.0245 2513.1255 36.5241 2559.9448
-198.7724 1.4974 -1308.5686 2514.6260 36.9428 2561.4036
-199.1083 1.5163 -1307.1066 2516.1262 37.0327 2562.8616
-199.4182 1.5344 -1305.6385 2517.6267 36.8324 2564.3186
-199.7019 1.5514 -1304.1655 2519.1270 37.2453 2565.7756
-199.9600 1.5675 -1302.6876 2520.6274 37.6507 2567.2332
-200.1926 1.5827 -1301.2054 2522.1279 37.8656 2568.6909
-200.4001 1.5969 -1299.7197 2523.6282 38.2599 2570.1460
-200.5831 1.6103 -1298.2306 2525.1287 38.6473 2571.6006
-200.7419 1.6227 -1296.7388 2526.6289 39.0281 2573.0549
-200.8772 1.6345 -1295.2445 2528.1294 39.4025 2574.5078
-200.9893 1.6453 -1293.7484 2529.6296 39.7707 2575.9619
-201.0788 1.6555 -1292.2509 2531.1301 39.9749 2577.4167
-201.1458 1.6650 -1290.7521 2532.6304 40.3339 2578.8711
-201.1907 1.6737 -1289.2523 2534.1309 40.6873 2580.3245
-201.2137 1.6819 -1287.7521 2535.6311 41.0353 2581.7764
-201.2151 1.6894 -1286.2520 2537.1316 41.3779 2583.2292
-201.1948 1.6964 -1284.7518 2538.6318 41.7155 2584.6816
-201.1532 1.7026 -1283.2521 2540.1323 42.0481 2586.1338
-201.0902 1.7084 -1281.7532 2541.6326 42.3759 2587.5876
-201.0062 1.7135 -1280.2552 2543.1331 42.5309 2589.0400
-200.9011 1.7182 -1278.7587 2544.6333 42.3770 2590.4910
-200.7752 1.7223 -1277.2635 2546.1338 42.4967 2591.9424
-200.6287 1.7259 -1275.7703 2547.6343 42.8181 2593.3933
-200.4619 1.7290 -1274.2792 2549.1345 43.0809 2594.8445
-200.2747 1.7317 -1272.7905 2550.6350 43.3943 2596.2969
-200.0679 1.7338 -1271.3044 2552.1353 43.7033 2597.7493
-199.8413 1.7357 -1269.8213 2553.6357 43.8329 2599.2026
-199.5955 1.7369 -1268.3411 2555.1360 44.1362 2600.6553
-199.3306 1.7379 -1266.8643 2556.6365 44.4354 2602.1077
-199.0470 1.7385 -1265.3909 2558.1367 44.7308 2603.5593
-198.7449 1.7386 -1263.9211 2559.6372 45.0224 2605.0117
-198.4246 1.7384 -1262.4553 2561.1375 45.3103 2606.4656
-198.0864 1.7378 -1260.9934 2562.6379 45.5946 2607.9207
-197.7305 1.7370 -1259.5360 2564.1382 45.8755 2609.3760
-197.3573 1.7358 -1258.0830 2565.6387 46.1529 2610.8298
-196.9669 1.7342 -1256.6344 2567.1389 46.4270 2612.2834
-196.5595 1.7323 -1255.1903 2568.6394 46.6979 2613.7385
-196.1353 1.7302 -1253.7511 2570.1396 46.9655 2615.1934
-195.6945 1.7277 -1252.3170 2571.6401 47.2301 2616.6506
-195.2372 1.7250 -1250.8878 2573.1406 47.4916 2618.1082
-194.7638 1.7219 -1249.4641 2574.6409 47.7502 2619.5649
-194.2743 1.7186 -1248.0459 2576.1414 48.0059 2621.0212
-193.7689 1.7150 -1246.6333 2577.6416 48.2587 2622.4768
-193.2478 1.7111 -1245.2263 2579.1421 48.5088 2623.9321
-192.7111 1.7069 -1243.8252 2580.6423 48.7561 2625.3892
-192.1590 1.7025 -1242.4302 2582.1428 49.0008 2626.8459
-191.5917 1.6977 -1241.0411 2583.6431 49.2429 2628.3057
-191.0094 1.6928 -1239.6584 2585.1436 49.4824 2629.7649
-190.4123 1.6875 -1238.2821 2586.6438 49.7194 2631.2241
-189.8006 1.6820 -1236.9121 2588.1443 49.9540 2632.6829
-189.1744 1.6762 -1235.5486 2589.6445 50.1862 2634.1409
-188.5341 1.6703 -1234.1917 2591.1450 50.4160 2635.5991
-187.8799 1.6640 -1232.8413 2592.6453 50.6435 2637.0579
-187.2120 1.6574 -1231.4979 2594.1458 50.8687 2638.5181
-186.5309 1.6505 -1230.1610 2595.6460 51.0917 2639.9839
-185.8366 1.6433 -1228.8308 2597.1465 51.3125 2641.4570
-185.1299 1.6359 -1227.5072 2598.6470 51.5312 2642.9275
-184.4109 1.6281 -1226.1904 2600.1472 51.7478 2644.3967
-183.6805 1.6198 -1224.8799 2601.6477 51.9622 2645.8657
-182.9390 1.6111 -1223.5756 2603.1479 52.1747 2647.3350
-182.1870 1.6018 -1222.2771 2604.6484 52.3852 2648.8030
-181.4255 1.5921 -1220.9844 2606.1487 52.5937 2650.2715
-180.6550 1.5817 -1219.6969 2607.6492 52.8003 2651.7395
-179.8764 1.5707 -1218.4144 2609.1494 53.0049 2653.2083
-179.0905 1.5590 -1217.1365 2610.6499 53.2078 2654.6775
-178.2980 1.5468 -1215.8625 2612.1501 53.4087 2656.1646
-177.4999 1.5340 -1214.5922 2613.6506 53.6079 2657.6643
-176.6970 1.5207 -1213.3246 2615.1509 53.8053 2659.1650
-175.8904 1.5069 -1212.0597 2616.6514 54.0010 2660.6648
-175.0806 1.4928 -1210.7966 2618.1516 54.1950 2662.1641
-174.2685 1.4784 -1209.5352 2619.6521 54.3872 2663.6638
-173.4549 1.4637 -1208.2747 2621.1523 54.5778 2665.1646
-172.6403 1.4487 -1207.0146 2622.6528 54.7668 2666.6641
-171.8253 1.4337 -1205.7549 2624.1533 54.9541 2668.1638
-171.0107 1.4187 -1204.4951 2625.6536 55.1399 2669.6633
-170.1966 1.4035 -1203.2349 2627.1541 55.3241 2671.1636
-169.3837 1.3883 -1201.9740 2628.6543 55.5067 2672.6638
-168.5722 1.3732 -1200.7122 2630.1548 55.6879 2674.1636
-167.7625 1.3580 -1199.4490 2631.6550 55.8675 2675.6646
-166.9549 1.3428 -1198.1847 2633.1555 56.0457 2677.1643
-166.1495 1.3276 -1196.9188 2634.6558 56.2224 2678.6650
-165.3467 1.3124 -1195.6514 2636.1562 56.3977 2680.1653
-164.5467 1.2971 -1194.3822 2637.6565 56.5716 2681.6653
-163.7495 1.2817 -1193.1113 2639.1570 56.7441 2683.1655
-162.9555 1.2663 -1191.8384 2640.6572 56.9152 2684.6660
-162.1648 1.2509 -1190.5635 2642.1577 57.0850 2686.1658
-161.3776 1.2353 -1189.2863 2643.6580 57.2534 2687.6687
-160.5943 1.2197 -1188.0068 2645.1584 57.4205 2689.1768
-159.8151 1.2041 -1186.7247 2646.6587 57.5863 2690.6846
-159.0401 1.1886 -1185.4401 2648.1592 57.7509 2692.1929
-158.2699 1.1731 -1184.1527 2649.6597 57.9142 2693.7012
-157.5043 1.1579 -1182.8622 2651.1599 58.0762 2695.2087
-156.7439 1.1429 -1181.5690 2652.6604 58.2370 2696.7168
-155.9888 1.1284 -1180.2726 2654.1606 58.3966 2698.2253
-155.2390 1.1144 -1178.9730 2655.6611 58.5550 2699.7332
-154.4947 1.1010 -1177.6702 2657.1614 58.7122 2701.2424
-153.7563 1.0884 -1176.3643 2658.6619 58.8683 2702.7502
-153.0235 1.0766 -1175.0551 2660.1621 59.0231 2704.2595
-152.2969 1.0655 -1173.7424 2661.6626 59.1769 2705.7751
-151.5764 1.0551 -1172.4264 2663.1628 59.3295 2707.3054
-150.8622 1.0454 -1171.1068 2664.6633 59.4811 2708.8357
-150.1547 1.0364 -1169.7837 2666.1636 59.6315 2710.3655
-149.4539 1.0279 -1168.4572 2667.6641 59.7808 2711.8943
-148.7603 1.0201 -1167.1270 2669.1643 59.9291 2713.4241
-148.0736 1.0127 -1165.7928 2670.6648 60.0763 2714.9526
-147.3943 1.0057 -1164.4552 2672.1653 60.2225 2716.4822
-146.7225 0.9992 -1163.1135 2673.6655 60.3676 2718.0125
-146.0585 0.9929 -1161.7682 2675.1660 60.5118 2719.5425
-145.4019 0.9870 -1160.4189 2676.6663 60.6549 2721.0728
-144.7533 0.9812 -1159.0660 2678.1667 60.7970 2722.6033
-144.1125 0.9756 -1157.7094 2679.6670 60.9381 2724.1375
-143.4797 0.9701 -1156.3489 2681.1675 61.0783 2725.6716
-142.8548 0.9647 -1154.9849 2682.6677 61.2175 2727.2061
-142.2381 0.9593 -1153.6171 2684.1682 61.3558 2728.7390
-141.6292 0.9540 -1152.2458 2685.6685 61.4931 2730.2722
-141.0284 0.9487 -1150.8708 2687.1689 61.6295 2731.8047
-140.4359 0.9434 -1149.4926 2688.6692 61.7649 2733.3379
-139.8514 0.9382 -1148.1107 2690.1697 61.8995 2734.8701
-139.2750 0.9328 -1146.7255 2691.6699 62.0331 2736.4028
-138.7068 0.9275 -1145.3370 2693.1704 62.1659 2737.9365
-138.1468 0.9223 -1143.9451 2694.6707 62.2978 2739.4700
-137.5950 0.9170 -1142.5499 2696.1711 62.4288 2741.0046
-137.0514 0.9118 -1141.1515 2697.6716 62.5590 2742.5393
-136.5160 0.9065 -1139.7500 2699.1719 62.6883 2744.0723
-135.9890 0.9013 -1138.3453 2700.6724 62.8167 2745.6060
-135.4704 0.8961 -1136.9374 2702.1726 62.9444 2747.1382
-134.9602 0.8910 -1135.5265 2703.6731 63.0712 2748.6707
-134.4586 0.8858 -1134.1125 2705.1733 63.1972 2750.2029
-133.9655 0.8807 -1132.6956 2706.6738 63.3224 2751.7354
-133.4810 0.8756 -1131.2756 2708.1741 63.4467 2753.2676
-133.0052 0.8705 -1129.8525 2709.6746 63.5703 2754.8000
-132.5383 0.8654 -1128.4268 2711.1748 63.6931 2756.3335
-132.0800 0.8605 -1126.9979 2712.6753 63.8152 2757.8669
-131.6307 0.8554 -1125.5663 2714.1755 63.9364 2759.4014
-131.1903 0.8504 -1124.1321 2715.6760 64.0570 2760.9348
-130.7588 0.8455 -1122.6952 2717.1763 64.1767 2762.4673
-130.3362 0.8404 -1121.2555 2718.6768 64.2957 2763.9998
-129.9227 0.8355 -1119.8132 2720.1770 64.4140 2765.5310
-129.5180 0.8305 -1118.3684 2721.6775 64.5316 2767.0625
-129.1224 0.8256 -1116.9210 2723.1780 64.6484 2768.5942
-128.7357 0.8207 -1115.4716 2724.6782 64.7645 2770.1250
-128.3581 0.8158 -1114.0195 2726.1787 64.8799 2771.6572
-127.9894 0.8108 -1112.5651 2727.6790 64.9946 2773.1885
-127.6299 0.8059 -1111.1085 2729.1794 65.1086 2774.7205
-127.2793 0.8009 -1109.6498 2730.6797 65.2219 2776.2534
-126.9377 0.7960 -1108.1888 2732.1802 65.3345 2777.7856
-126.6051 0.7910 -1106.7258 2733.6804 65.4465 2779.3171
-126.2816 0.7861 -1105.2606 2735.1809 65.5578 2780.8474
-125.9672 0.7811 -1103.7935 2736.6812 65.6684 2782.3774
-125.6617 0.7761 -1102.3245 2738.1816 65.7784 2783.9067
-125.3654 0.7712 -1100.8536 2739.6819 65.8877 2785.4368
-125.0780 0.7662 -1099.3809 2741.1824 65.9964 2786.9658
-124.7998 0.7613 -1097.9065 2742.6826 66.1044 2788.4954
-124.5305 0.7563 -1096.4304 2744.1831 66.2118 2790.0249
-124.2704 0.7514 -1094.9528 2745.6833 66.3186 2791.5549
-124.0193 0.7464 -1093.4735 2747.1838 66.4248 2793.0857
-123.7773 0.7414 -1091.9928 2748.6843 66.5303 2794.6160
-123.5445 0.7365 -1090.5104 2750.1846 66.6352 2796.1489
-123.3208 0.7315 -1089.0269 2751.6851 66.7396 2797.6799
-123.1064 0.7266 -1087.5421 2753.1853 66.8433 2799.2114
-122.9010 0.7216 -1086.0560 2754.6858 66.9464 2800.7412
-122.7048 0.7166 -1084.5686 2756.1860 67.0490 2802.2717
-122.5178 0.7116 -1083.0800 2757.6865 67.1509 2803.8022
-122.3399 0.7067 -1081.5902 2759.1868 67.2523 2805.3330
-122.1712 0.7016 -1080.0992 2760.6873 67.3531 2806.8630
-122.0117 0.6966 -1078.6073 2762.1875 67.4533 2808.3938
-121.8614 0.6916 -1077.1144 2763.6880 67.5307 2809.9246
-121.7201 0.6866 -1075.6207 2765.1882 67.0452 2811.4563
-121.5881 0.6818 -1074.1260 2766.6887 67.1471 2812.9875
-121.4653 0.6768 -1072.6306 2768.1890 67.2485 2814.5193
-121.3515 0.6718 -1071.1345 2769.6895 67.3494 2816.0496
-121.2470 0.6667 -1069.6378 2771.1897 67.4496 2817.5798
-121.1516 0.6617 -1068.1406 2772.6902 67.5493 2819.1096
-121.0654 0.6567 -1066.6428 2774.1907 67.6485 2820.6392
-120.9882 0.6518 -1065.1445 2775.6909 67.7470 2822.1680
-120.9202 0.6468 -1063.6458 2777.1914 67.8451 2823.6970
-120.8614 0.6418 -1062.1466 2778.6917 67.9425 2825.2268
-120.8117 0.6368 -1060.6471 2780.1921 68.0395 2826.7556
-120.7712 0.6319 -1059.1473 2781.6924 68.1359 2828.2866
-120.7398 0.6269 -1057.6472 2783.1929 68.1095 2829.8167
-120.7175 0.6219 -1056.1470 2784.6931 67.6268 2831.3479
-120.7044 0.6168 -1054.6466 2786.1936 67.7255 2832.8794
-120.7003 0.6119 -1053.1464 2787.6938 67.8237 2834.4097
-120.7056 0.6069 -1051.6461 2789.1943 67.9213 2835.9402
-120.7199 0.6020 -1050.1458 2790.6946 68.0184 2837.4702
-120.7434 0.5970 -1048.6456 2792.1951 67.7852 2839.0007
-120.7760 0.5920 -1047.1456 2793.6953 67.3009 2840.5305
-120.8178 0.5870 -1045.6458 2795.1958 67.4014 2842.0603
-120.8688 0.5821 -1044.1464 2796.6960 67.5014 2843.5903
-120.9288 0.5770 -1042.6472 2798.1965 67.6008 2845.1206
-120.9981 0.5721 -1041.1484 2799.6970 67.6997 2846.6509
-121.0766 0.5671 -1039.6501 2801.1973 67.7979 2848.1821
-121.1641 0.5621 -1038.1522 2802.6978 67.8957 2849.7131
-121.2608 0.5571 -1036.6549 2804.1980 67.9929 2851.2449
-121.3667 0.5522 -1035.1583 2805.6985 68.0896 2852.7756
-121.4817 0.5472 -1033.6625 2807.1987 68.1274 2854.3066
-121.6058 0.5422 -1032.1672 2808.6992 68.1597 2855.8359
-121.7392 0.5372 -1030.6727 2810.1995 68.2555 2857.3672
-121.8817 0.5322 -1029.1792 2811.7000 68.2241 2858.8967
-122.0333 0.5273 -1027.6864 2813.2002 68.0544 2860.4270
-122.1940 0.5224 -1026.1948 2814.7007 67.5714 2861.9570
-122.3639 0.5173 -1024.7041 2816.2009 67.0861 2863.4873
-122.5431 0.5123 -1023.2144 2817.7014 67.1879 2865.0186
-122.7313 0.5074 -1021.7258 2819.2017 67.2890 2866.5491
-122.9287 0.5024 -1020.2386 2820.7021 67.3896 2868.0813
-123.1353 0.4974 -1018.7526 2822.2024 67.4897 2869.6133
-123.3510 0.4925 -1017.2678 2823.7029 67.5891 2871.1443
-123.5760 0.4874 -1015.7843 2825.2034 67.6880 2872.6758
-123.8101 0.4825 -1014.3024 2826.7036 67.7864 2874.2073
-124.0533 0.4775 -1012.8219 2828.2041 67.8842 2875.7378
-124.3056 0.4725 -1011.3428 2829.7043 67.9815 2877.2683
-124.5671 0.4675 -1009.8654 2831.2048 67.5637 2878.7991
-124.8378 0.4625 -1008.3895 2832.7051 67.6627 2880.3298
-125.1175 0.4575 -1006.9154 2834.2056 67.4988 2881.8616
-125.4063 0.4525 -1005.4431 2835.7058 67.5982 2883.3928
-125.7043 0.4475 -1003.9725 2837.2063 67.6971 2884.9255
-126.0113 0.4425 -1002.5039 2838.7065 67.7954 2886.4573
-126.3273 0.4375 -1001.0372 2840.2070 67.7588 2887.9878
-126.6523 0.4325 -999.5725 2841.7073 67.2744 2889.5181
-126.9865 0.4275 -998.1099 2843.2078 67.3751 2891.0481
-127.3296 0.4225 -996.6493 2844.7080 67.4752 2892.5776
-127.6817 0.4174 -995.1909 2846.2085 67.5748 2894.1074
-128.0428 0.4124 -993.7346 2847.7087 67.6738 2895.6370
-128.4128 0.4074 -992.2806 2849.2092 67.7722 2897.1672
-128.7917 0.4024 -990.8289 2850.7097 67.8701 2898.6973
-129.1795 0.3974 -989.3794 2852.2100 67.9675 2900.2283
-129.5760 0.3924 -987.9323 2853.7104 68.0643 2901.7588
-129.9813 0.3874 -986.4877 2855.2107 68.1605 2903.2908
-130.3953 0.3824 -985.0457 2856.7112 68.2563 2904.8225
-130.8179 0.3774 -983.6061 2858.2114 68.3515 2906.3538
-131.2491 0.3724 -982.1691 2859.7119 68.4462 2907.8845
-131.6889 0.3674 -980.7347 2861.2122 68.5404 2909.4155
-132.1371 0.3624 -979.3029 2862.7126 68.6340 2910.9458
-132.5937 0.3575 -977.8736 2864.2129 68.7272 2912.4761
-133.0587 0.3525 -976.4470 2865.7134 68.8198 2914.0066
-133.5319 0.3476 -975.0232 2867.2136 68.9120 2915.5371
-134.0132 0.3426 -973.6022 2868.7141 69.0036 2917.0686
-134.5026 0.3376 -972.1838 2870.2144 69.0948 2918.5999
-135.0000 0.3326 -970.7682 2871.7148 69.1855 2920.1323
-135.5052 0.3276 -969.3553 2873.2151 69.2756 2921.6646
-136.0180 0.3226 -967.9453 2874.7156 69.3653 2923.1946
-136.5384 0.3176 -966.5381 2876.2161 69.4546 2924.7251
-137.0662 0.3126 -965.1336 2877.7163 69.5433 2926.2546
-137.6014 0.3076 -963.7319 2879.2168 69.6316 2927.7842
-138.1436 0.3026 -962.3330 2880.7170 69.7194 2929.3137
-138.6929 0.2975 -960.9368 2882.2175 69.8068 2930.8425
-139.2490 0.2926 -959.5433 2883.7178 69.8937 2932.3726
-139.8118 0.2877 -958.1525 2885.2183 69.9801 2933.9014
-140.3809 0.2829 -956.7642 2886.7185 70.0661 2935.4312
-140.9560 0.2784 -955.3784 2888.2190 70.1517 2936.9614
-141.5367 0.2741 -953.9951 2889.7192 70.2368 2938.4922
-142.1226 0.2701 -952.6136 2891.2197 70.3214 2940.0229
-142.7129 0.2665 -951.2344 2892.7200 70.4056 2941.5515
-143.3073 0.2636 -949.8567 2894.2205 70.4894 2943.0803
-143.9051 0.2614 -948.4805 2895.7207 70.5728 2944.6089
-144.5056 0.2600 -947.1055 2897.2212 70.6557 2946.1360
-145.1084 0.2595 -945.7315 2898.7214 70.7382 2947.6628
-145.7127 0.2599 -944.3582 2900.2219 70.8202 2949.1890
-146.3183 0.2615 -942.9854 2901.7224 70.9019 2950.7148
-146.9244 0.2642 -941.6129 2903.2227 70.9831 2952.2400
-147.5307 0.2678 -940.2404 2904.7231 71.0640 2953.7651
-148.1366 0.2724 -938.8677 2906.2234 71.1444 2955.2893
-148.7415 0.2775 -937.4947 2907.7239 71.2244 2956.8154
-149.3451 0.2833 -936.1210 2909.2241 71.3040 2958.3235
-149.9468 0.2894 -934.7466 2910.7246 71.3832 2959.8274
-150.5460 0.2956 -933.3710 2912.2249 71.4620 2961.3303
-151.1424 0.3020 -931.9943 2913.7253 71.5404 2962.8325
-151.7355 0.3083 -930.6163 2915.2256 71.6184 2964.3335
-152.3249 0.3145 -929.2366 2916.7261 71.6961 2965.8335
-152.9102 0.3205 -927.8550 2918.2263 71.7733 2967.3323
-153.4911 0.3262 -926.4717 2919.7268 71.8502 2968.8303
-154.0672 0.3316 -925.0862 2921.2271 71.9267 2970.3259
-154.6382 0.3367 -923.6989 2922.7275 72.0028 2971.8203
-155.2037 0.3414 -922.3091 2924.2280 72.0785 2973.3140
-155.7635 0.3458 -920.9169 2925.7283 72.1538 2974.8064
-156.3170 0.3498 -919.5223 2927.2288 72.2288 2976.2866
-156.8640 0.3535 -918.1252 2928.7290 72.3034 2977.7627
-157.4043 0.3568 -916.7255 2930.2295 72.3777 2979.2405
-157.9375 0.3599 -915.3230 2931.7297 72.0502 2980.7190
-158.4631 0.3626 -913.9177 2933.2302 71.5859 2982.1995
-158.9811 0.3652 -912.5096 2934.7305 71.1197 2983.6804
-159.4913 0.3676 -911.0987 2936.2310 70.6513 2985.1633
-159.9934 0.3698 -909.6848 2937.7312 70.7338 2986.6479
-160.4875 0.3720 -908.2681 2939.2317 70.2972 2988.1338
-160.9733 0.3741 -906.8484 2940.7319 70.3816 2989.6226
-161.4509 0.3763 -905.4261 2942.2324 70.4655 2991.1128
-161.9205 0.3785 -904.0010 2943.7327 70.0864 2992.6062
-162.3816 0.3810 -902.5733 2945.2332 70.1719 2994.1003
-162.8348 0.3837 -901.1431 2946.7334 70.2569 2995.5952
-163.2798 0.3866 -899.7103 2948.2339 70.3414 2997.0918
-163.7170 0.3900 -898.2749 2949.7344 70.4255 2998.5894
-164.1462 0.3937 -896.8372 2951.2346 70.5092 3000.0881
-164.5676 0.3977 -895.3970 2952.7351 70.5924 3001.5874
-164.9812 0.4022 -893.9548 2954.2354 70.6753 3003.0884
-165.3871 0.4071 -892.5104 2955.7358 70.7577 3004.5913
-165.7852 0.4123 -891.0640 2957.2361 70.8396 3006.0959
-166.1758 0.4179 -889.6153 2958.7366 70.9212 3007.6021
-166.5587 0.4240 -888.1646 2960.2368 70.4719 3009.1096
-166.9340 0.4304 -886.7120 2961.7373 70.0005 3010.6196
-167.3015 0.4371 -885.2574 2963.2375 69.5270 3012.1316
-167.6615 0.4441 -883.8010 2964.7380 69.0512 3013.6438
-168.0136 0.4515 -882.3425 2966.2383 68.5732 3015.1570
-168.3581 0.4591 -880.8822 2967.7388 68.0928 3016.6707
-168.6947 0.4669 -879.4202 2969.2390 67.6101 3018.1855
-169.0236 0.4749 -877.9562 2970.7395 67.1250 3019.7014
-169.3448 0.4830 -876.4906 2972.2397 66.6374 3021.2175
-169.6581 0.4914 -875.0233 2973.7402 66.1473 3022.7356
-169.9636 0.4998 -873.5543 2975.2407 65.6546 3024.2551
-170.2614 0.5082 -872.0838 2976.7410 65.1594 3025.7756
-170.5515 0.5167 -870.6117 2978.2415 64.6615 3027.2981
-170.8339 0.5253 -869.1382 2979.7417 64.1609 3028.8223
-171.1085 0.5340 -867.6632 2981.2422 63.6575 3030.3486
-171.3755 0.5428 -866.1867 2982.7424 63.1513 3031.8748
-171.6349 0.5516 -864.7090 2984.2429 62.6422 3033.4014
-171.8868 0.5606 -863.2300 2985.7432 62.1301 3034.9270
-172.1311 0.5698 -861.7495 2987.2437 61.6150 3036.4551
-172.3681 0.5791 -860.2681 2988.7439 61.0968 3037.9832
-172.5980 0.5884 -858.7856 2990.2444 60.5754 3039.5117
-172.8209 0.5979 -857.3020 2991.7446 60.0508 3041.0415
-173.0370 0.6076 -855.8174 2993.2451 59.5229 3042.5718
-173.2466 0.6173 -854.3318 2994.7454 58.9916 3044.1040
-173.4502 0.6272 -852.8455 2996.2458 58.4568 3045.6375
-173.6483 0.6371 -851.3583 2997.7461 57.9184 3047.1726
-173.8412 0.6472 -849.8705 2999.2466 57.3764 3048.7070
-174.0295 0.6574 -848.3821 3000.7471 56.8306 3050.2422
-174.2141 0.6676 -846.8930 3002.2473 56.2809 3051.7776
-174.3954 0.6780 -845.4037 3003.7478 55.7273 3053.3118
-174.5744 0.6887 -843.9141 3005.2480 55.1696 3054.8469
-174.7518 0.6995 -842.4243 3006.7485 54.6077 3056.3813
-174.9284 0.7108 -840.9344 3008.2488 54.0416 3057.9165
-175.1051 0.7223 -839.4447 3009.7493 53.4710 3059.4514
-175.2830 0.7343 -837.9548 3011.2495 52.8958 3060.9856
-175.4629 0.7470 -836.4655 3012.7500 52.3160 3062.5210
-175.6462 0.7602 -834.9763 3014.2502 51.7313 3064.0562
-175.8337 0.7743 -833.4879 3015.7507 51.1416 3065.5896
-176.0268 0.7891 -832.0001 3017.2510 50.5468 3067.1238
-176.2266 0.8046 -830.5132 3018.7515 49.9466 3068.6538
-176.4342 0.8212 -829.0273 3020.2517 49.3410 3070.1819
-176.6506 0.8384 -827.5428 3021.7522 48.7297 3071.7058
-176.8771 0.8563 -826.0597 3023.2524 48.1124 3073.2278
-177.1148 0.8746 -824.5784 3024.7529 47.4891 3074.7454
-177.3649 0.8931 -823.0991 3026.2534 46.8595 3076.2581
-177.6284 0.9115 -821.6220 3027.7537 46.2233 3077.7666
-177.9064 0.9296 -820.1476 3029.2542 45.5803 3079.2688
-178.1998 0.9472 -818.6764 3030.7544 44.9335 3080.7659
-178.5098 0.9638 -817.2087 3032.2549 44.2847 3082.2539
-178.8374 0.9795 -815.7446 3033.7551 43.6337 3083.7229
-179.1831 0.9940 -814.2847 3035.2556 42.9806 3085.1619
-179.5483 1.0071 -812.8294 3036.7559 42.3251 3086.6038
-179.9333 1.0188 -811.3793 3038.2563 41.6673 3088.0498
-180.3390 1.0290 -809.9349 3039.7566 41.0071 3089.5005
-180.7661 1.0376 -808.4967 3041.2571 40.4001 3090.9565
-181.2152 1.0445 -807.0649 3042.7573 39.7349 3092.4185
-181.6865 1.0499 -805.6404 3044.2578 39.0670 3093.8853
-182.1808 1.0537 -804.2236 3045.7581 38.9324 3095.3589
-182.6980 1.0561 -802.8153 3047.2585 38.4314 3096.8391
-183.2385 1.0570 -801.4158 3048.7588 37.8600 3098.3274
-183.8026 1.0564 -800.0256 3050.2593 37.7876 3099.8357
-184.3902 1.0547 -798.6452 3051.7598 37.7954 3101.3743
-185.0014 1.0516 -797.2748 3053.2600 37.1190 3102.9241
-185.6364 1.0476 -795.9156 3054.7605 37.3760 3104.4871
-186.2950 1.0424 -794.5674 3056.2607 37.1906 3106.0652
-186.9773 1.0364 -793.2311 3057.7612 36.5304 3107.6604
-187.6833 1.0297 -791.9072 3059.2615 35.8479 3109.2651
-188.4129 1.0226 -790.5963 3060.7620 36.2786 3110.8794
-189.1662 1.0150 -789.2988 3062.2622 36.0294 3112.5068
-189.9432 1.0075 -788.0153 3063.7627 36.3621 3114.1497
-190.7435 1.0001 -786.7464 3065.2629 35.6788 3115.8083
-191.5674 0.9932 -785.4925 3066.7634 35.4993 3117.4673
-192.4144 0.9868 -784.2543 3068.2637 35.7751 3119.1255
-193.2846 0.9813 -783.0322 3069.7642 36.2066 3120.7861
-194.1775 0.9770 -781.8264 3071.2644 36.1581 3122.4512
-195.0926 0.9737 -780.6376 3072.7649 35.8082 3124.1160
-196.0296 0.9715 -779.4659 3074.2651 35.9752 3125.7732
-196.9884 0.9706 -778.3116 3075.7656 36.4043 3127.4314
-197.9679 0.9708 -777.1751 3077.2661 35.9998 3129.0918
-198.9680 0.9721 -776.0566 3078.7664 36.1335 3130.7561
-199.9881 0.9745 -774.9564 3080.2668 35.5877 3132.4194
-201.0277 0.9779 -773.8749 3081.7671 36.0215 3134.0681
-202.0863 0.9822 -772.8117 3083.2676 36.4499 3135.7078
-203.1632 0.9872 -771.7672 3084.7678 36.8701 3137.3391
-204.2582 0.9926 -770.7415 3086.2683 37.2823 3138.9651
-205.3706 0.9982 -769.7347 3087.7686 37.6870 3140.6003
-206.4998 1.0037 -768.7471 3089.2690 38.0845 3142.2249
-207.6455 1.0088 -767.7786 3090.7693 38.4064 3143.8342
-208.8075 1.0135 -766.8293 3092.2698 38.0650 3145.4326
-209.9851 1.0173 -765.8994 3093.7700 38.1303 3147.0217
-211.1778 1.0203 -764.9890 3095.2705 37.9072 3148.5796
-212.3853 1.0221 -764.0984 3096.7708 38.3008 3150.1135
-213.6070 1.0229 -763.2274 3098.2712 38.6875 3151.6301
-214.8424 1.0223 -762.3760 3099.7715 39.0675 3153.1306
-216.0911 1.0203 -761.5440 3101.2720 39.4413 3154.6177
-217.3523 1.0171 -760.7313 3102.7725 39.8089 3156.0930
