VERSION 0.7
FIELDS x y z lapdistance
SIZE 4 4 4 4
TYPE F F F F
COUNT 1 1 1 1
WIDTH 1306
HEIGHT 1
VIEWPOINT 0.000 0.000 0.000 1.000 0.000 0.000 0.000
POINTS 1306
DATA ascii
-416.6517 -94.9181 -35.6995 642.3199
-417.0661 -94.0059 -35.6812 643.3220
-417.4792 -93.0931 -35.6629 644.3241
-417.8912 -92.1799 -35.6447 645.3261
-418.3023 -91.2662 -35.6266 646.3282
-418.7126 -90.3522 -35.6085 647.3303
-419.1225 -89.4379 -35.5905 648.3323
-419.5319 -88.5235 -35.5725 649.3344
-419.9410 -87.6090 -35.5546 650.3364
-420.3500 -86.6943 -35.5367 651.3385
-420.7587 -85.7796 -35.5190 652.3406
-421.1675 -84.8649 -35.5012 653.3426
-421.5763 -83.9502 -35.4836 654.3447
-421.9851 -83.0355 -35.4660 655.3467
-422.3941 -82.1208 -35.4485 656.3488
-422.8032 -81.2063 -35.4310 657.3508
-423.2125 -80.2918 -35.4136 658.3529
-423.6220 -79.3774 -35.3962 659.3550
-424.0318 -78.4631 -35.3789 660.3571
-424.4417 -77.5489 -35.3616 661.3591
-424.8519 -76.6348 -35.3443 662.3611
-425.2624 -75.7208 -35.3270 663.3632
-425.6732 -74.8070 -35.3097 664.3652
-426.0842 -73.8933 -35.2924 665.3673
-426.4955 -72.9797 -35.2751 666.3694
-426.9071 -72.0663 -35.2577 667.3715
-427.3190 -71.1529 -35.2402 668.3735
-427.7310 -70.2397 -35.2227 669.3755
-428.1432 -69.3265 -35.2051 670.3776
-428.5555 -68.4133 -35.1874 671.3797
-428.9678 -67.5002 -35.1697 672.3817
-429.3799 -66.5870 -35.1518 673.3838
-429.7917 -65.6736 -35.1339 674.3859
-430.2031 -64.7601 -35.1159 675.3879
-430.6138 -63.8463 -35.0979 676.3900
-431.0237 -62.9320 -35.0798 677.3920
-431.4324 -62.0173 -35.0616 678.3941
-431.8396 -61.1019 -35.0434 679.3962
-432.2451 -60.1857 -35.0252 680.3982
-432.6486 -59.2686 -35.0070 681.4003
-433.0496 -58.3505 -34.9888 682.4023
-433.4478 -57.4311 -34.9706 683.4044
-433.8428 -56.5104 -34.9525 684.4064
-434.2341 -55.5881 -34.9344 685.4085
-434.6213 -54.6640 -34.9163 686.4106
-435.0039 -53.7381 -34.8983 687.4126
-435.3814 -52.8100 -34.8804 688.4147
-435.7532 -51.8797 -34.8626 689.4167
-436.1190 -50.9469 -34.8448 690.4188
-436.4779 -50.0115 -34.8271 691.4208
-436.8296 -49.0734 -34.8095 692.4229
-437.1735 -48.1323 -34.7920 693.4250
-437.5090 -47.1882 -34.7745 694.4271
-437.8355 -46.2411 -34.7570 695.4291
-438.1525 -45.2907 -34.7396 696.4312
-438.4596 -44.3370 -34.7221 697.4332
-438.7560 -43.3799 -34.7045 698.4353
-439.0415 -42.4195 -34.6869 699.4373
-439.3154 -41.4558 -34.6691 700.4394
-439.5773 -40.4887 -34.6512 701.4415
-439.8268 -39.5184 -34.6331 702.4435
-440.0635 -38.5449 -34.6148 703.4456
-440.2870 -37.5683 -34.5964 704.4476
-440.4971 -36.5887 -34.5777 705.4497
-440.6933 -35.6062 -34.5587 706.4517
-440.8755 -34.6211 -34.5396 707.4538
-441.0434 -33.6333 -34.5203 708.4559
-441.1969 -32.6433 -34.5007 709.4579
-441.3357 -31.6511 -34.4811 710.4600
-441.4598 -30.6570 -34.4612 711.4620
-441.5691 -29.6611 -34.4413 712.4641
-441.6634 -28.6637 -34.4213 713.4662
-441.7427 -27.6650 -34.4013 714.4682
-441.8069 -26.6652 -34.3813 715.4703
-441.8562 -25.6645 -34.3613 716.4724
-441.8906 -24.6633 -34.3413 717.4744
-441.9099 -23.6616 -34.3214 718.4764
-441.9143 -22.6598 -34.3016 719.4785
-441.9039 -21.6579 -34.2819 720.4806
-441.8788 -20.6564 -34.2623 721.4827
-441.8389 -19.6554 -34.2428 722.4847
-441.7845 -18.6550 -34.2234 723.4868
-441.7157 -17.6555 -34.2040 724.4888
-441.6324 -16.6570 -34.1848 725.4909
-441.5349 -15.6600 -34.1656 726.4929
-441.4232 -14.6643 -34.1466 727.4950
-441.2975 -13.6704 -34.1276 728.4971
-441.1577 -12.6784 -34.1087 729.4991
-441.0041 -11.6883 -34.0899 730.5012
-440.8367 -10.7005 -34.0713 731.5032
-440.6555 -9.7151 -34.0527 732.5053
-440.4607 -8.7324 -34.0343 733.5073
-440.2525 -7.7524 -34.0160 734.5094
-440.0308 -6.7753 -33.9979 735.5115
-439.7957 -5.8014 -33.9800 736.5135
-439.5475 -4.8308 -33.9623 737.5156
-439.2859 -3.8636 -33.9448 738.5176
-439.0113 -2.9000 -33.9275 739.5197
-438.7236 -1.9403 -33.9104 740.5218
-438.4229 -0.9847 -33.8935 741.5238
-438.1094 -0.0330 -33.8769 742.5259
-437.7829 0.9142 -33.8605 743.5280
-437.4437 1.8570 -33.8443 744.5300
-437.0916 2.7949 -33.8284 745.5320
-436.7267 3.7281 -33.8127 746.5341
-436.3490 4.6561 -33.7972 747.5362
-435.9587 5.5788 -33.7820 748.5382
-435.5555 6.4962 -33.7670 749.5403
-435.1398 7.4078 -33.7521 750.5424
-434.7115 8.3136 -33.7375 751.5444
-434.2705 9.2132 -33.7231 752.5464
-433.8170 10.1066 -33.7088 753.5485
-433.3509 10.9936 -33.6947 754.5506
-432.8724 11.8739 -33.6807 755.5527
-432.3816 12.7474 -33.6669 756.5547
-431.8786 13.6139 -33.6532 757.5568
-431.3633 14.4733 -33.6397 758.5588
-430.8361 15.3254 -33.6262 759.5609
-430.2970 16.1698 -33.6129 760.5629
-429.7460 17.0067 -33.5996 761.5650
-429.1832 17.8357 -33.5864 762.5671
-428.6089 18.6569 -33.5733 763.5692
-428.0233 19.4698 -33.5603 764.5712
-427.4262 20.2745 -33.5473 765.5732
-426.8181 21.0708 -33.5345 766.5753
-426.1988 21.8585 -33.5216 767.5774
-425.5687 22.6374 -33.5089 768.5794
-424.9277 23.4075 -33.4962 769.5815
-424.2760 24.1686 -33.4836 770.5836
-423.6136 24.9204 -33.4710 771.5856
-422.9409 25.6629 -33.4586 772.5876
-422.2575 26.3959 -33.4462 773.5897
-421.5642 27.1191 -33.4340 774.5918
-420.8605 27.8324 -33.4219 775.5938
-420.1467 28.5356 -33.4099 776.5959
-419.4230 29.2286 -33.3981 777.5980
-418.6895 29.9111 -33.3865 778.6000
-417.9461 30.5830 -33.3751 779.6021
-417.1931 31.2439 -33.3641 780.6041
-416.4304 31.8939 -33.3533 781.6062
-415.6584 32.5326 -33.3429 782.6083
-414.8771 33.1600 -33.3330 783.6103
-414.0866 33.7757 -33.3234 784.6124
-413.2872 34.3798 -33.3144 785.6144
-412.4788 34.9720 -33.3060 786.6165
-411.6620 35.5522 -33.2981 787.6185
-410.8366 36.1204 -33.2908 788.6206
-410.0030 36.6765 -33.2841 789.6227
-409.1615 37.2205 -33.2781 790.6248
-408.3123 37.7524 -33.2727 791.6268
-407.4557 38.2723 -33.2679 792.6288
-406.5919 38.7803 -33.2638 793.6309
-405.7215 39.2765 -33.2602 794.6329
-404.8444 39.7612 -33.2572 795.6350
-403.9612 40.2345 -33.2548 796.6371
-403.0721 40.6968 -33.2528 797.6392
-402.1775 41.1484 -33.2513 798.6412
-401.2779 41.5896 -33.2501 799.6432
-400.3734 42.0209 -33.2494 800.6453
-399.4644 42.4426 -33.2489 801.6474
-398.5513 42.8552 -33.2487 802.6494
-397.6342 43.2591 -33.2487 803.6515
-396.7136 43.6549 -33.2490 804.6536
-395.7898 44.0429 -33.2494 805.6556
-394.8629 44.4238 -33.2500 806.6577
-393.9333 44.7980 -33.2508 807.6597
-393.0013 45.1660 -33.2517 808.6618
-392.0670 45.5283 -33.2527 809.6639
-391.1308 45.8854 -33.2539 810.6659
-390.1926 46.2377 -33.2553 811.6680
-389.2530 46.5857 -33.2568 812.6700
-388.3119 46.9298 -33.2585 813.6721
-387.3695 47.2705 -33.2604 814.6741
-386.4261 47.6081 -33.2625 815.6762
-385.4815 47.9429 -33.2649 816.6783
-384.5363 48.2754 -33.2674 817.6803
-383.5903 48.6059 -33.2702 818.6824
-382.6437 48.9347 -33.2733 819.6844
-381.6966 49.2619 -33.2766 820.6865
-380.7491 49.5879 -33.2803 821.6885
-379.8012 49.9130 -33.2843 822.6906
-378.8530 50.2372 -33.2886 823.6927
-377.9046 50.5608 -33.2934 824.6948
-376.9562 50.8839 -33.2985 825.6968
-376.0075 51.2067 -33.3041 826.6989
-375.0589 51.5293 -33.3101 827.7009
-374.1101 51.8518 -33.3167 828.7030
-373.1614 52.1743 -33.3237 829.7050
-372.2128 52.4969 -33.3313 830.7071
-371.2640 52.8196 -33.3394 831.7092
-370.3155 53.1425 -33.3481 832.7112
-369.3670 53.4656 -33.3574 833.7133
-368.4186 53.7888 -33.3671 834.7153
-367.4702 54.1124 -33.3775 835.7174
-366.5221 54.4361 -33.3883 836.7194
-365.5738 54.7602 -33.3997 837.7215
-364.6257 55.0844 -33.4116 838.7236
-363.6778 55.4089 -33.4239 839.7256
-362.7299 55.7336 -33.4367 840.7277
-361.7820 56.0585 -33.4498 841.7297
-360.8343 56.3837 -33.4634 842.7318
-359.8866 56.7090 -33.4772 843.7339
-358.9390 57.0345 -33.4914 844.7359
-357.9915 57.3602 -33.5059 845.7380
-357.0439 57.6861 -33.5205 846.7401
-356.0965 58.0121 -33.5354 847.7421
-355.1492 58.3382 -33.5505 848.7441
-354.2018 58.6645 -33.5657 849.7462
-353.2545 58.9909 -33.5810 850.7483
-352.3073 59.3174 -33.5965 851.7504
-351.3601 59.6440 -33.6120 852.7524
-350.4129 59.9706 -33.6275 853.7545
-349.4657 60.2974 -33.6431 854.7565
-348.5187 60.6242 -33.6587 855.7585
-347.5715 60.9511 -33.6743 856.7606
-346.6244 61.2781 -33.6898 857.7627
-345.6773 61.6052 -33.7052 858.7648
-344.7303 61.9322 -33.7206 859.7668
-343.7833 62.2594 -33.7359 860.7689
-342.8362 62.5865 -33.7510 861.7709
-341.8892 62.9137 -33.7661 862.7730
-340.9422 63.2408 -33.7810 863.7750
-339.9952 63.5680 -33.7958 864.7771
-339.0481 63.8951 -33.8104 865.7792
-338.1010 64.2222 -33.8249 866.7812
-337.1539 64.5493 -33.8393 867.7833
-336.2069 64.8762 -33.8535 868.7853
-335.2597 65.2031 -33.8676 869.7874
-334.3125 65.5298 -33.8816 870.7895
-333.3653 65.8563 -33.8955 871.7915
-332.4179 66.1827 -33.9093 872.7936
-331.4704 66.5086 -33.9230 873.7957
-330.5228 66.8342 -33.9367 874.7977
-329.5751 67.1592 -33.9502 875.7997
-328.6270 67.4836 -33.9637 876.8018
-327.6788 67.8072 -33.9772 877.8039
-326.7303 68.1299 -33.9907 878.8059
-325.7813 68.4515 -34.0042 879.8080
-324.8317 68.7717 -34.0176 880.8101
-323.8818 69.0903 -34.0311 881.8121
-322.9313 69.4071 -34.0446 882.8141
-321.9800 69.7219 -34.0582 883.8162
-321.0280 70.0343 -34.0718 884.8183
-320.0752 70.3441 -34.0854 885.8204
-319.1214 70.6510 -34.0991 886.8224
-318.1666 70.9546 -34.1129 887.8245
-317.2105 71.2547 -34.1267 888.8265
-316.2533 71.5508 -34.1405 889.8286
-315.2949 71.8427 -34.1544 890.8306
-314.3349 72.1300 -34.1683 891.8327
-313.3736 72.4123 -34.1822 892.8348
-312.4106 72.6893 -34.1960 893.8369
-311.4461 72.9607 -34.2097 894.8389
-310.4800 73.2261 -34.2233 895.8409
-309.5121 73.4852 -34.2368 896.8430
-308.5424 73.7377 -34.2502 897.8451
-307.5710 73.9832 -34.2633 898.8471
-306.5978 74.2215 -34.2762 899.8492
-305.6228 74.4524 -34.2888 900.8513
-304.6460 74.6755 -34.3011 901.8533
-303.6674 74.8906 -34.3132 902.8553
-302.6870 75.0976 -34.3248 903.8574
-301.7048 75.2962 -34.3362 904.8595
-300.7211 75.4863 -34.3472 905.8615
-299.7355 75.6676 -34.3578 906.8636
-298.7486 75.8400 -34.3680 907.8657
-297.7599 76.0034 -34.3779 908.8677
-296.7698 76.1576 -34.3874 909.8698
-295.7784 76.3026 -34.3966 910.8718
-294.7856 76.4382 -34.4054 911.8739
-293.7915 76.5643 -34.4138 912.8760
-292.7963 76.6809 -34.4220 913.8780
-291.8000 76.7879 -34.4299 914.8801
-290.8027 76.8852 -34.4375 915.8821
-289.8045 76.9728 -34.4448 916.8842
-288.8056 77.0507 -34.4519 917.8862
-287.8058 77.1188 -34.4587 918.8883
-286.8055 77.1772 -34.4652 919.8904
-285.8046 77.2258 -34.4716 920.8924
-284.8034 77.2647 -34.4776 921.8945
-283.8017 77.2939 -34.4834 922.8965
-282.7999 77.3134 -34.4890 923.8986
-281.7979 77.3233 -34.4942 924.9006
-280.7959 77.3238 -34.4991 925.9027
-279.7939 77.3147 -34.5036 926.9048
-278.7919 77.2964 -34.5077 927.9069
-277.7903 77.2687 -34.5113 928.9089
-276.7890 77.2319 -34.5144 929.9109
-275.7879 77.1860 -34.5169 930.9130
-274.7874 77.1312 -34.5188 931.9151
-273.7874 77.0676 -34.5200 932.9171
-272.7879 76.9952 -34.5204 933.9192
-271.7892 76.9142 -34.5200 934.9213
-270.7911 76.8247 -34.5188 935.9233
-269.7938 76.7269 -34.5167 936.9254
-268.7974 76.6207 -34.5138 937.9274
-267.8019 76.5064 -34.5100 938.9295
-266.8073 76.3840 -34.5055 939.9316
-265.8138 76.2537 -34.5003 940.9336
-264.8214 76.1153 -34.4943 941.9357
-263.8301 75.9691 -34.4878 942.9377
-262.8400 75.8150 -34.4807 943.9398
-261.8511 75.6532 -34.4732 944.9418
-260.8635 75.4836 -34.4653 945.9439
-259.8773 75.3062 -34.4571 946.9460
-258.8926 75.1211 -34.4486 947.9480
-257.9092 74.9283 -34.4400 948.9501
-256.9275 74.7277 -34.4312 949.9521
-255.9474 74.5193 -34.4223 950.9542
-254.9690 74.3032 -34.4134 951.9562
-253.9923 74.0792 -34.4045 952.9583
-253.0175 73.8473 -34.3956 953.9604
-252.0446 73.6075 -34.3868 954.9625
-251.0737 73.3598 -34.3779 955.9645
-250.1049 73.1040 -34.3692 956.9666
-249.1382 72.8400 -34.3605 957.9686
-248.1739 72.5678 -34.3519 958.9707
-247.2119 72.2874 -34.3434 959.9727
-246.2524 71.9986 -34.3350 960.9748
-245.2955 71.7013 -34.3267 961.9769
-244.3413 71.3956 -34.3184 962.9789
-243.3898 71.0812 -34.3102 963.9810
-242.4413 70.7582 -34.3020 964.9830
-241.4958 70.4265 -34.2938 965.9851
-240.5534 70.0860 -34.2856 966.9871
-239.6142 69.7368 -34.2774 967.9892
-238.6782 69.3789 -34.2692 968.9913
-237.7457 69.0122 -34.2609 969.9933
-236.8167 68.6369 -34.2525 970.9954
-235.8911 68.2531 -34.2440 971.9974
-234.9691 67.8607 -34.2354 972.9995
-234.0505 67.4601 -34.2266 974.0016
-233.1357 67.0515 -34.2176 975.0036
-232.2244 66.6349 -34.2084 976.0057
-231.3165 66.2108 -34.1990 977.0078
-230.4122 65.7794 -34.1893 978.0098
-229.5112 65.3410 -34.1793 979.0118
-228.6133 64.8961 -34.1691 980.0139
-227.7187 64.4449 -34.1586 981.0160
-226.8268 63.9880 -34.1478 982.0181
-225.9378 63.5259 -34.1367 983.0201
-225.0512 63.0590 -34.1253 984.0222
-224.1669 62.5879 -34.1137 985.0242
-223.2846 62.1130 -34.1018 986.0262
-222.4040 61.6351 -34.0897 987.0283
-221.5247 61.1545 -34.0774 988.0304
-220.6465 60.6721 -34.0649 989.0325
-219.7691 60.1882 -34.0523 990.0345
-218.8922 59.7036 -34.0397 991.0366
-218.0152 59.2188 -34.0269 992.0386
-217.1380 58.7345 -34.0142 993.0407
-216.2604 58.2512 -34.0015 994.0427
-215.3818 57.7696 -33.9888 995.0448
-214.5020 57.2900 -33.9761 996.0469
-213.6207 56.8133 -33.9636 997.0490
-212.7376 56.3398 -33.9511 998.0510
-211.8526 55.8702 -33.9387 999.0530
-210.9652 55.4048 -33.9264 1000.0551
-210.0753 54.9442 -33.9142 1001.0572
-209.1828 54.4889 -33.9021 1002.0592
-208.2873 54.0393 -33.8900 1003.0613
-207.3888 53.5957 -33.8780 1004.0634
-206.4872 53.1587 -33.8660 1005.0654
-205.5823 52.7286 -33.8540 1006.0674
-204.6739 52.3056 -33.8420 1007.0695
-203.7621 51.8902 -33.8300 1008.0716
-202.8468 51.4826 -33.8179 1009.0736
-201.9278 51.0831 -33.8058 1010.0757
-201.0054 50.6920 -33.7936 1011.0778
-200.0792 50.3094 -33.7815 1012.0798
-199.1497 49.9357 -33.7694 1013.0818
-198.2164 49.5709 -33.7573 1014.0839
-197.2796 49.2153 -33.7453 1015.0860
-196.3394 48.8690 -33.7334 1016.0881
-195.3957 48.5322 -33.7219 1017.0901
-194.4487 48.2049 -33.7106 1018.0922
-193.4983 47.8873 -33.6998 1019.0942
-192.5448 47.5794 -33.6895 1020.0963
-191.5881 47.2814 -33.6798 1021.0983
-190.6285 46.9933 -33.6709 1022.1004
-189.6658 46.7150 -33.6629 1023.1025
-188.7005 46.4467 -33.6558 1024.1045
-187.7323 46.1882 -33.6497 1025.1066
-186.7616 45.9397 -33.6446 1026.1086
-185.7884 45.7010 -33.6407 1027.1107
-184.8127 45.4722 -33.6378 1028.1128
-183.8349 45.2532 -33.6361 1029.1149
-182.8550 45.0439 -33.6355 1030.1168
-181.8731 44.8443 -33.6359 1031.1189
-180.8892 44.6543 -33.6373 1032.1210
-179.9035 44.4737 -33.6396 1033.1230
-178.9162 44.3027 -33.6427 1034.1251
-177.9272 44.1409 -33.6466 1035.1272
-176.9368 43.9885 -33.6511 1036.1293
-175.9451 43.8453 -33.6562 1037.1313
-174.9522 43.7112 -33.6618 1038.1333
-173.9579 43.5862 -33.6677 1039.1354
-172.9626 43.4701 -33.6739 1040.1375
-171.9663 43.3630 -33.6803 1041.1395
-170.9691 43.2647 -33.6868 1042.1416
-169.9710 43.1753 -33.6933 1043.1437
-168.9723 43.0947 -33.6998 1044.1458
-167.9727 43.0228 -33.7062 1045.1478
-166.9728 42.9598 -33.7124 1046.1498
-165.9722 42.9056 -33.7184 1047.1519
-164.9712 42.8602 -33.7242 1048.1539
-163.9698 42.8237 -33.7297 1049.1560
-162.9681 42.7962 -33.7350 1050.1581
-161.9663 42.7776 -33.7400 1051.1602
-160.9641 42.7681 -33.7447 1052.1622
-159.9623 42.7677 -33.7493 1053.1642
-158.9602 42.7766 -33.7537 1054.1663
-157.9584 42.7947 -33.7580 1055.1683
-156.9567 42.8223 -33.7623 1056.1704
-155.9553 42.8593 -33.7666 1057.1725
-154.9544 42.9058 -33.7710 1058.1746
-153.9537 42.9618 -33.7756 1059.1766
-152.9539 43.0275 -33.7804 1060.1787
-151.9548 43.1027 -33.7855 1061.1807
-150.9563 43.1875 -33.7909 1062.1827
-149.9588 43.2819 -33.7967 1063.1848
-148.9621 43.3858 -33.8029 1064.1869
-147.9665 43.4993 -33.8095 1065.1890
-146.9719 43.6222 -33.8165 1066.1910
-145.9787 43.7545 -33.8239 1067.1931
-144.9868 43.8962 -33.8317 1068.1952
-143.9963 44.0471 -33.8398 1069.1971
-143.0071 44.2071 -33.8481 1070.1992
-142.0195 44.3763 -33.8568 1071.2013
-141.0334 44.5544 -33.8657 1072.2034
-140.0489 44.7414 -33.8747 1073.2054
-139.0662 44.9373 -33.8838 1074.2075
-138.0853 45.1418 -33.8931 1075.2096
-137.1064 45.3550 -33.9024 1076.2115
-136.1292 45.5768 -33.9117 1077.2136
-135.1540 45.8071 -33.9211 1078.2157
-134.1808 46.0458 -33.9305 1079.2178
-133.2097 46.2930 -33.9399 1080.2198
-132.2408 46.5485 -33.9493 1081.2219
-131.2741 46.8122 -33.9588 1082.2240
-130.3098 47.0843 -33.9683 1083.2261
-129.3479 47.3645 -33.9778 1084.2280
-128.3883 47.6531 -33.9874 1085.2301
-127.4312 47.9499 -33.9970 1086.2322
-126.4767 48.2549 -34.0066 1087.2343
-125.5249 48.5681 -34.0164 1088.2363
-124.5759 48.8896 -34.0262 1089.2384
-123.6297 49.2194 -34.0360 1090.2405
-122.6865 49.5574 -34.0459 1091.2424
-121.7463 49.9038 -34.0558 1092.2445
-120.8092 50.2586 -34.0657 1093.2466
-119.8752 50.6217 -34.0756 1094.2487
-118.9446 50.9932 -34.0855 1095.2507
-118.0174 51.3730 -34.0954 1096.2528
-117.0936 51.7613 -34.1052 1097.2549
-116.1735 52.1580 -34.1149 1098.2570
-115.2571 52.5631 -34.1246 1099.2589
-114.3444 52.9766 -34.1341 1100.2610
-113.4355 53.3986 -34.1434 1101.2631
-112.5306 53.8289 -34.1526 1102.2651
-111.6297 54.2676 -34.1616 1103.2672
-110.7329 54.7146 -34.1704 1104.2693
-109.8403 55.1700 -34.1790 1105.2714
-108.9520 55.6336 -34.1873 1106.2734
-108.0682 56.1055 -34.1954 1107.2754
-107.1887 56.5857 -34.2031 1108.2775
-106.3137 57.0741 -34.2106 1109.2795
-105.4434 57.5707 -34.2178 1110.2816
-104.5778 58.0754 -34.2247 1111.2837
-103.7169 58.5882 -34.2313 1112.2858
-102.8608 59.1092 -34.2376 1113.2878
-102.0099 59.6381 -34.2436 1114.2898
-101.1639 60.1751 -34.2494 1115.2919
-100.3230 60.7201 -34.2550 1116.2939
-99.4873 61.2730 -34.2605 1117.2960
-98.6568 61.8337 -34.2658 1118.2981
-97.8318 62.4024 -34.2710 1119.3002
-97.0120 62.9788 -34.2762 1120.3022
-96.1979 63.5630 -34.2813 1121.3043
-95.3894 64.1547 -34.2865 1122.3063
-94.5864 64.7542 -34.2917 1123.3083
-93.7891 65.3611 -34.2971 1124.3104
-92.9975 65.9756 -34.3025 1125.3125
-92.2118 66.5974 -34.3080 1126.3146
-91.4317 67.2266 -34.3137 1127.3167
-90.6577 67.8629 -34.3194 1128.3187
-89.8896 68.5064 -34.3253 1129.3208
-89.1275 69.1568 -34.3313 1130.3228
-88.3713 69.8143 -34.3373 1131.3248
-87.6212 70.4787 -34.3435 1132.3269
-86.8771 71.1498 -34.3496 1133.3290
-86.1390 71.8277 -34.3559 1134.3311
-85.4072 72.5121 -34.3621 1135.3331
-84.6815 73.2031 -34.3683 1136.3352
-83.9620 73.9004 -34.3746 1137.3372
-83.2486 74.6041 -34.3808 1138.3392
-82.5415 75.3140 -34.3871 1139.3413
-81.8406 76.0302 -34.3933 1140.3434
-81.1460 76.7524 -34.3995 1141.3455
-80.4577 77.4807 -34.4057 1142.3475
-79.7758 78.2150 -34.4119 1143.3496
-79.1005 78.9553 -34.4180 1144.3517
-78.4317 79.7013 -34.4242 1145.3536
-77.7694 80.4533 -34.4304 1146.3557
-77.1138 81.2111 -34.4366 1147.3578
-76.4650 81.9748 -34.4428 1148.3599
-75.8231 82.7442 -34.4490 1149.3619
-75.1881 83.5195 -34.4553 1150.3640
-74.5603 84.3004 -34.4616 1151.3661
-73.9396 85.0871 -34.4679 1152.3682
-73.3264 85.8794 -34.4742 1153.3701
-72.7205 86.6776 -34.4806 1154.3722
-72.1222 87.4813 -34.4869 1155.3743
-71.5314 88.2907 -34.4933 1156.3763
-70.9483 89.1058 -34.4996 1157.3784
-70.3731 89.9262 -34.5058 1158.3805
-69.8056 90.7521 -34.5120 1159.3826
-69.2461 91.5832 -34.5181 1160.3845
-68.6942 92.4196 -34.5241 1161.3866
-68.1502 93.2611 -34.5299 1162.3887
-67.6139 94.1076 -34.5354 1163.3907
-67.0853 94.9589 -34.5408 1164.3928
-66.5642 95.8148 -34.5459 1165.3949
-66.0505 96.6752 -34.5508 1166.3970
-65.5441 97.5399 -34.5553 1167.3990
-65.0447 98.4085 -34.5596 1168.4010
-64.5521 99.2811 -34.5636 1169.4031
-64.0661 100.1574 -34.5674 1170.4052
-63.5864 101.0372 -34.5709 1171.4072
-63.1126 101.9202 -34.5743 1172.4093
-62.6446 102.8062 -34.5775 1173.4114
-62.1820 103.6951 -34.5807 1174.4135
-61.7244 104.5866 -34.5839 1175.4155
-61.2716 105.4804 -34.5872 1176.4175
-60.8231 106.3766 -34.5906 1177.4196
-60.3786 107.2746 -34.5943 1178.4216
-59.9378 108.1746 -34.5983 1179.4237
-59.5004 109.0761 -34.6027 1180.4258
-59.0658 109.9790 -34.6076 1181.4279
-58.6340 110.8832 -34.6128 1182.4299
-58.2045 111.7885 -34.6185 1183.4319
-57.7769 112.6947 -34.6247 1184.4340
-57.3511 113.6018 -34.6314 1185.4360
-56.9268 114.5096 -34.6384 1186.4381
-56.5036 115.4179 -34.6458 1187.4402
-56.0815 116.3267 -34.6535 1188.4423
-55.6601 117.2358 -34.6614 1189.4443
-55.2393 118.1452 -34.6695 1190.4464
-54.8190 119.0547 -34.6776 1191.4484
-54.3990 119.9645 -34.6857 1192.4504
-53.9791 120.8743 -34.6938 1193.4525
-53.5594 121.7842 -34.7017 1194.4546
-53.1396 122.6941 -34.7093 1195.4567
-52.7199 123.6040 -34.7167 1196.4587
-52.3000 124.5138 -34.7238 1197.4608
-51.8801 125.4235 -34.7306 1198.4628
-51.4599 126.3332 -34.7369 1199.4648
-51.0397 127.2429 -34.7429 1200.4669
-50.6194 128.1526 -34.7484 1201.4690
-50.1989 129.0621 -34.7536 1202.4711
-49.7784 129.9717 -34.7583 1203.4731
-49.3579 130.8812 -34.7625 1204.4752
-48.9373 131.7908 -34.7664 1205.4773
-48.5168 132.7002 -34.7698 1206.4792
-48.0963 133.6098 -34.7727 1207.4813
-47.6759 134.5194 -34.7752 1208.4834
-47.2556 135.4291 -34.7773 1209.4855
-46.8355 136.3388 -34.7789 1210.4875
-46.4154 137.2486 -34.7801 1211.4896
-45.9955 138.1585 -34.7809 1212.4917
-45.5757 139.0684 -34.7813 1213.4938
-45.1562 139.9783 -34.7812 1214.4957
-44.7367 140.8884 -34.7808 1215.4978
-44.3173 141.7985 -34.7800 1216.4999
-43.8981 142.7086 -34.7788 1217.5020
-43.4789 143.6189 -34.7772 1218.5040
-43.0599 144.5291 -34.7754 1219.5061
-42.6409 145.4393 -34.7732 1220.5082
-42.2220 146.3495 -34.7708 1221.5101
-41.8030 147.2598 -34.7680 1222.5122
-41.3840 148.1700 -34.7651 1223.5143
-40.9649 149.0803 -34.7619 1224.5164
-40.5458 149.9905 -34.7585 1225.5184
-40.1265 150.9006 -34.7550 1226.5205
-39.7070 151.8106 -34.7514 1227.5226
-39.2873 152.7206 -34.7476 1228.5247
-38.8675 153.6303 -34.7438 1229.5266
-38.4473 154.5401 -34.7400 1230.5287
-38.0269 155.4496 -34.7361 1231.5308
-37.6062 156.3592 -34.7322 1232.5328
-37.1853 157.2685 -34.7283 1233.5349
-36.7641 158.1778 -34.7244 1234.5370
-36.3427 159.0869 -34.7205 1235.5391
-35.9209 159.9959 -34.7166 1236.5411
-35.4991 160.9047 -34.7127 1237.5431
-35.0769 161.8135 -34.7088 1238.5452
-34.6545 162.7222 -34.7048 1239.5472
-34.2319 163.6308 -34.7008 1240.5493
-33.8091 164.5393 -34.6968 1241.5514
-33.3861 165.4477 -34.6926 1242.5535
-32.9629 166.3560 -34.6883 1243.5555
-32.5395 167.2641 -34.6840 1244.5575
-32.1159 168.1722 -34.6795 1245.5596
-31.6921 169.0803 -34.6750 1246.5616
-31.2681 169.9882 -34.6703 1247.5637
-30.8440 170.8961 -34.6656 1248.5658
-30.4197 171.8040 -34.6609 1249.5679
-29.9954 172.7117 -34.6561 1250.5699
-29.5710 173.6194 -34.6513 1251.5720
-29.1465 174.5270 -34.6465 1252.5740
-28.7219 175.4346 -34.6418 1253.5760
-28.2972 176.3423 -34.6372 1254.5781
-27.8725 177.2500 -34.6328 1255.5802
-27.4479 178.1576 -34.6284 1256.5823
-27.0232 179.0653 -34.6243 1257.5844
-26.5986 179.9729 -34.6203 1258.5864
-26.1740 180.8806 -34.6165 1259.5885
-25.7495 181.7881 -34.6128 1260.5905
-25.3250 182.6959 -34.6094 1261.5925
-24.9005 183.6035 -34.6060 1262.5946
-24.4760 184.5113 -34.6028 1263.5967
-24.0516 185.4190 -34.5997 1264.5988
-23.6273 186.3268 -34.5965 1265.6008
-23.2030 187.2346 -34.5934 1266.6029
-22.7787 188.1423 -34.5901 1267.6049
-22.3545 189.0502 -34.5867 1268.6069
-21.9303 189.9580 -34.5831 1269.6090
-21.5061 190.8659 -34.5792 1270.6111
-21.0819 191.7738 -34.5749 1271.6132
-20.6578 192.6816 -34.5702 1272.6152
-20.2337 193.5895 -34.5649 1273.6173
-19.8097 194.4974 -34.5592 1274.6194
-19.3857 195.4052 -34.5529 1275.6213
-18.9617 196.3131 -34.5459 1276.6234
-18.5377 197.2211 -34.5383 1277.6255
-18.1139 198.1290 -34.5300 1278.6276
-17.6900 199.0371 -34.5210 1279.6296
-17.2663 199.9450 -34.5112 1280.6317
-16.8427 200.8531 -34.5008 1281.6338
-16.4192 201.7611 -34.4896 1282.6357
-15.9957 202.6693 -34.4777 1283.6378
-15.5724 203.5774 -34.4651 1284.6399
-15.1491 204.4856 -34.4519 1285.6420
-14.7259 205.3938 -34.4379 1286.6440
-14.3028 206.3021 -34.4234 1287.6461
-13.8798 207.2103 -34.4082 1288.6482
-13.4568 208.1187 -34.3924 1289.6503
-13.0339 209.0269 -34.3761 1290.6522
-12.6110 209.9352 -34.3593 1291.6543
-12.1881 210.8435 -34.3419 1292.6564
-11.7652 211.7518 -34.3241 1293.6584
-11.3423 212.6601 -34.3059 1294.6605
-10.9194 213.5683 -34.2872 1295.6626
-10.4964 214.4766 -34.2682 1296.6647
-10.0734 215.3847 -34.2487 1297.6667
-9.6504 216.2929 -34.2290 1298.6687
-9.2273 217.2010 -34.2089 1299.6708
-8.8042 218.1092 -34.1885 1300.6729
-8.3811 219.0172 -34.1679 1301.6749
-7.9579 219.9254 -34.1470 1302.6770
-7.5348 220.8335 -34.1259 1303.6791
-7.1116 221.7416 -34.1046 1304.6812
-6.6886 222.6496 -34.0831 1305.6831
-6.2655 223.5577 -34.0616 1306.6852
-5.8425 224.4658 -34.0400 1307.6873
-5.4196 225.3741 -34.0183 1308.6893
-4.9968 226.2823 -33.9967 1309.6914
-4.5740 227.1906 -33.9751 1310.6935
-4.1513 228.0988 -33.9536 1311.6956
-3.7287 229.0073 -33.9321 1312.6976
-3.3063 229.9155 -33.9108 1313.6996
-2.8838 230.8240 -33.8896 1314.7017
-2.4615 231.7324 -33.8684 1315.7037
-2.0392 232.6410 -33.8473 1316.7058
-1.6170 233.5495 -33.8263 1317.7079
-1.1948 234.4581 -33.8052 1318.7100
-0.7726 235.3666 -33.7840 1319.7120
-0.3505 236.2752 -33.7625 1320.7141
0.0716 237.1836 -33.7408 1321.7161
0.4937 238.0922 -33.7186 1322.7181
0.9158 239.0006 -33.6958 1323.7202
1.3380 239.9092 -33.6725 1324.7223
1.7601 240.8177 -33.6484 1325.7244
2.1823 241.7262 -33.6234 1326.7264
2.6045 242.6346 -33.5976 1327.7285
3.0267 243.5429 -33.5708 1328.7305
3.4489 244.4512 -33.5430 1329.7325
3.8712 245.3595 -33.5143 1330.7346
4.2936 246.2677 -33.4845 1331.7367
4.7160 247.1759 -33.4537 1332.7388
5.1385 248.0841 -33.4220 1333.7408
5.5611 248.9920 -33.3894 1334.7429
5.9839 249.9000 -33.3559 1335.7450
6.4067 250.8076 -33.3215 1336.7469
6.8297 251.7155 -33.2865 1337.7490
7.2529 252.6230 -33.2508 1338.7511
7.6763 253.5306 -33.2145 1339.7532
8.0998 254.4380 -33.1777 1340.7552
8.5235 255.3453 -33.1405 1341.7573
8.9473 256.2526 -33.1030 1342.7594
9.3713 257.1598 -33.0652 1343.7615
9.7954 258.0667 -33.0273 1344.7634
10.2196 258.9738 -32.9892 1345.7655
10.6439 259.8807 -32.9511 1346.7676
11.0683 260.7878 -32.9131 1347.7697
11.4926 261.6947 -32.8751 1348.7717
11.9170 262.6018 -32.8372 1349.7738
12.3412 263.5088 -32.7994 1350.7759
12.7653 264.4158 -32.7617 1351.7778
13.1893 265.3229 -32.7243 1352.7799
13.6131 266.2303 -32.6869 1353.7820
14.0366 267.1377 -32.6497 1354.7841
14.4599 268.0453 -32.6127 1355.7861
14.8828 268.9529 -32.5758 1356.7882
15.3054 269.8608 -32.5389 1357.7903
15.7276 270.7688 -32.5022 1358.7924
16.1495 271.6769 -32.4655 1359.7943
16.5710 272.5853 -32.4289 1360.7964
16.9922 273.4938 -32.3924 1361.7985
17.4130 274.4025 -32.3560 1362.8005
17.8335 275.3114 -32.3198 1363.8026
18.2537 276.2203 -32.2836 1364.8047
18.6737 277.1295 -32.2476 1365.8068
19.0935 278.0386 -32.2118 1366.8088
19.5133 278.9478 -32.1762 1367.8108
19.9332 279.8568 -32.1409 1368.8129
20.3534 280.7659 -32.1058 1369.8149
20.7740 281.6747 -32.0710 1370.8170
21.1953 282.5833 -32.0364 1371.8191
21.6175 283.4915 -32.0023 1372.8212
22.0409 284.3991 -31.9684 1373.8232
22.4657 285.3060 -31.9349 1374.8252
22.8923 286.2121 -31.9018 1375.8273
23.3212 287.1172 -31.8690 1376.8293
23.7527 288.0210 -31.8366 1377.8314
24.1872 288.9234 -31.8045 1378.8335
24.6252 289.8241 -31.7728 1379.8356
25.0673 290.7229 -31.7415 1380.8376
25.5139 291.6193 -31.7105 1381.8397
25.9655 292.5133 -31.6799 1382.8417
26.4227 293.4044 -31.6497 1383.8438
26.8862 294.2924 -31.6198 1384.8458
27.3564 295.1767 -31.5903 1385.8479
27.8341 296.0572 -31.5612 1386.8500
28.3196 296.9333 -31.5325 1387.8521
28.8136 297.8047 -31.5041 1388.8541
29.3166 298.6708 -31.4761 1389.8561
29.8292 299.5314 -31.4485 1390.8582
30.3517 300.3859 -31.4212 1391.8602
30.8848 301.2341 -31.3944 1392.8623
31.4287 302.0752 -31.3679 1393.8644
31.9840 302.9090 -31.3419 1394.8665
32.5508 303.7350 -31.3163 1395.8685
33.1295 304.5527 -31.2911 1396.8706
33.7202 305.3615 -31.2663 1397.8726
34.3233 306.1614 -31.2420 1398.8746
34.9388 306.9519 -31.2181 1399.8767
35.5668 307.7323 -31.1948 1400.8788
36.2074 308.5026 -31.1719 1401.8809
36.8604 309.2622 -31.1496 1402.8829
37.5260 310.0111 -31.1278 1403.8850
38.2039 310.7487 -31.1066 1404.8871
38.8939 311.4749 -31.0860 1405.8890
39.5960 312.1895 -31.0661 1406.8911
40.3100 312.8924 -31.0468 1407.8932
41.0356 313.5833 -31.0282 1408.8953
41.7726 314.2621 -31.0103 1409.8973
42.5206 314.9286 -30.9931 1410.8994
43.2795 315.5828 -30.9767 1411.9015
44.0488 316.2244 -30.9610 1412.9034
44.8285 316.8538 -30.9460 1413.9055
45.6181 317.4705 -30.9318 1414.9076
46.4175 318.0746 -30.9182 1415.9097
47.2262 318.6661 -30.9053 1416.9117
48.0440 319.2451 -30.8930 1417.9138
48.8707 319.8114 -30.8813 1418.9159
49.7059 320.3649 -30.8701 1419.9180
50.5494 320.9057 -30.8595 1420.9199
51.4009 321.4338 -30.8493 1421.9220
52.2603 321.9491 -30.8396 1422.9241
53.1273 322.4514 -30.8303 1423.9261
54.0017 322.9408 -30.8213 1424.9282
54.8832 323.4171 -30.8127 1425.9303
55.7719 323.8802 -30.8044 1426.9324
56.6672 324.3300 -30.7963 1427.9344
57.5694 324.7663 -30.7885 1428.9365
58.4779 325.1889 -30.7809 1429.9386
59.3928 325.5976 -30.7734 1430.9407
60.3138 325.9922 -30.7661 1431.9427
61.2409 326.3726 -30.7589 1432.9448
62.1736 326.7383 -30.7518 1433.9468
63.1122 327.0893 -30.7447 1434.9489
64.0562 327.4253 -30.7377 1435.9509
65.0056 327.7461 -30.7306 1436.9530
65.9599 328.0515 -30.7236 1437.9551
66.9192 328.3412 -30.7165 1438.9572
67.8830 328.6152 -30.7094 1439.9592
68.8512 328.8734 -30.7023 1440.9613
69.8234 329.1156 -30.6952 1441.9633
70.7996 329.3417 -30.6881 1442.9653
71.7793 329.5520 -30.6811 1443.9674
72.7623 329.7464 -30.6741 1444.9695
73.7484 329.9250 -30.6672 1445.9716
74.7370 330.0880 -30.6604 1446.9736
75.7282 330.2356 -30.6538 1447.9757
76.7213 330.3681 -30.6474 1448.9777
77.7164 330.4858 -30.6412 1449.9797
78.7130 330.5893 -30.6353 1450.9818
79.7112 330.6788 -30.6296 1451.9839
80.7102 330.7550 -30.6241 1452.9860
81.7103 330.8184 -30.6189 1453.9880
82.7110 330.8696 -30.6138 1454.9901
83.7124 330.9093 -30.6090 1455.9922
84.7138 330.9381 -30.6043 1456.9941
85.7158 330.9569 -30.5998 1457.9962
86.7177 330.9662 -30.5954 1458.9983
87.7198 330.9668 -30.5910 1460.0004
88.7218 330.9595 -30.5866 1461.0024
89.7238 330.9450 -30.5822 1462.0045
90.7256 330.9240 -30.5778 1463.0066
91.7274 330.8972 -30.5734 1464.0087
92.7287 330.8653 -30.5690 1465.0106
93.7302 330.8289 -30.5644 1466.0127
94.7314 330.7887 -30.5599 1467.0148
95.7326 330.7451 -30.5553 1468.0168
96.7335 330.6987 -30.5507 1469.0189
97.7344 330.6501 -30.5461 1470.0210
98.7352 330.5997 -30.5414 1471.0231
99.7358 330.5477 -30.5369 1472.0250
100.7364 330.4946 -30.5324 1473.0271
101.7371 330.4407 -30.5280 1474.0292
102.7376 330.3861 -30.5236 1475.0312
103.7382 330.3312 -30.5195 1476.0333
104.7389 330.2762 -30.5154 1477.0354
105.7393 330.2210 -30.5116 1478.0375
106.7399 330.1659 -30.5079 1479.0396
107.7403 330.1111 -30.5044 1480.0415
108.7410 330.0565 -30.5011 1481.0436
109.7415 330.0021 -30.4980 1482.0457
110.7422 329.9480 -30.4951 1483.0477
111.7427 329.8943 -30.4923 1484.0498
112.7435 329.8410 -30.4897 1485.0519
113.7441 329.7881 -30.4873 1486.0540
114.7447 329.7354 -30.4849 1487.0559
115.7453 329.6832 -30.4827 1488.0580
116.7461 329.6312 -30.4806 1489.0601
117.7468 329.5795 -30.4786 1490.0621
118.7476 329.5281 -30.4767 1491.0642
119.7483 329.4769 -30.4750 1492.0663
120.7492 329.4259 -30.4734 1493.0684
121.7499 329.3751 -30.4719 1494.0704
122.7506 329.3246 -30.4706 1495.0724
123.7513 329.2740 -30.4695 1496.0745
124.7522 329.2235 -30.4685 1497.0765
125.7530 329.1732 -30.4679 1498.0786
126.7538 329.1230 -30.4674 1499.0807
127.7546 329.0728 -30.4672 1500.0828
128.7555 329.0226 -30.4673 1501.0848
129.7562 328.9725 -30.4676 1502.0869
130.7570 328.9224 -30.4683 1503.0889
131.7578 328.8724 -30.4692 1504.0909
132.7586 328.8224 -30.4703 1505.0930
133.7594 328.7725 -30.4718 1506.0951
134.7603 328.7225 -30.4734 1507.0972
135.7610 328.6725 -30.4753 1508.0992
136.7620 328.6227 -30.4773 1509.1013
137.7626 328.5728 -30.4795 1510.1033
138.7635 328.5230 -30.4819 1511.1053
139.7644 328.4732 -30.4843 1512.1074
140.7652 328.4235 -30.4868 1513.1095
141.7659 328.3739 -30.4893 1514.1116
142.7669 328.3243 -30.4919 1515.1136
143.7676 328.2748 -30.4944 1516.1157
144.7686 328.2254 -30.4969 1517.1178
145.7693 328.1761 -30.4994 1518.1198
146.7701 328.1270 -30.5018 1519.1218
147.7711 328.0779 -30.5041 1520.1239
148.7719 328.0291 -30.5063 1521.1260
149.7728 327.9804 -30.5084 1522.1281
150.7737 327.9319 -30.5105 1523.1301
151.7746 327.8836 -30.5124 1524.1322
152.7755 327.8357 -30.5143 1525.1343
153.7764 327.7879 -30.5161 1526.1362
154.7773 327.7405 -30.5178 1527.1383
155.7783 327.6934 -30.5195 1528.1404
156.7792 327.6466 -30.5212 1529.1425
157.7803 327.6003 -30.5229 1530.1445
158.7812 327.5540 -30.5247 1531.1466
159.7823 327.5082 -30.5266 1532.1487
160.7832 327.4627 -30.5285 1533.1506
161.7842 327.4174 -30.5307 1534.1527
162.7853 327.3723 -30.5330 1535.1548
163.7864 327.3272 -30.5355 1536.1569
164.7874 327.2822 -30.5383 1537.1589
165.7885 327.2369 -30.5412 1538.1610
166.7894 327.1913 -30.5445 1539.1631
167.7905 327.1453 -30.5479 1540.1652
168.7913 327.0984 -30.5516 1541.1671
169.7923 327.0506 -30.5555 1542.1692
170.7931 327.0015 -30.5595 1543.1713
171.7939 326.9507 -30.5638 1544.1733
172.7945 326.8980 -30.5681 1545.1754
173.7952 326.8427 -30.5725 1546.1775
174.7955 326.7845 -30.5769 1547.1796
175.7957 326.7228 -30.5814 1548.1816
176.7954 326.6571 -30.5858 1549.1836
177.7951 326.5869 -30.5902 1550.1857
178.7942 326.5112 -30.5946 1551.1877
179.7930 326.4296 -30.5990 1552.1898
180.7912 326.3414 -30.6033 1553.1919
181.7887 326.2458 -30.6076 1554.1940
182.7854 326.1421 -30.6120 1555.1960
183.7809 326.0294 -30.6163 1556.1980
184.7755 325.9073 -30.6208 1557.2001
185.7687 325.7746 -30.6253 1558.2021
186.7605 325.6309 -30.6300 1559.2042
187.7503 325.4753 -30.6348 1560.2063
188.7382 325.3071 -30.6398 1561.2084
189.7238 325.1257 -30.6450 1562.2104
190.7065 324.9305 -30.6504 1563.2125
191.6863 324.7209 -30.6561 1564.2145
192.6628 324.4962 -30.6620 1565.2166
193.6357 324.2562 -30.6681 1566.2186
194.6046 324.0002 -30.6744 1567.2207
195.5689 323.7282 -30.6810 1568.2228
196.5286 323.4398 -30.6878 1569.2249
197.4829 323.1346 -30.6948 1570.2269
198.4320 322.8128 -30.7019 1571.2290
199.3750 322.4743 -30.7093 1572.2310
200.3119 322.1192 -30.7168 1573.2330
201.2425 321.7473 -30.7244 1574.2351
202.1662 321.3591 -30.7321 1575.2372
203.0830 320.9548 -30.7399 1576.2393
203.9927 320.5346 -30.7478 1577.2413
204.8950 320.0990 -30.7557 1578.2434
205.7899 319.6482 -30.7637 1579.2454
206.6773 319.1829 -30.7716 1580.2474
207.5572 318.7034 -30.7796 1581.2495
208.4295 318.2103 -30.7875 1582.2516
209.2943 317.7042 -30.7953 1583.2537
210.1518 317.1857 -30.8031 1584.2557
211.0020 316.6553 -30.8108 1585.2578
211.8450 316.1137 -30.8185 1586.2599
212.6811 315.5616 -30.8261 1587.2618
213.5105 314.9995 -30.8337 1588.2639
214.3336 314.4279 -30.8412 1589.2660
215.1506 313.8478 -30.8487 1590.2681
215.9619 313.2596 -30.8562 1591.2701
216.7677 312.6639 -30.8638 1592.2722
217.5684 312.0615 -30.8713 1593.2743
218.3644 311.4529 -30.8790 1594.2762
219.1560 310.8386 -30.8867 1595.2783
219.9437 310.2191 -30.8946 1596.2804
220.7277 309.5952 -30.9025 1597.2825
221.5085 308.9671 -30.9107 1598.2845
222.2863 308.3355 -30.9190 1599.2866
223.0617 307.7007 -30.9275 1600.2887
223.8348 307.0632 -30.9362 1601.2908
224.6059 306.4235 -30.9451 1602.2927
225.3754 305.7818 -30.9542 1603.2948
226.1436 305.1383 -30.9636 1604.2969
226.9107 304.4937 -30.9731 1605.2990
227.6770 303.8479 -30.9829 1606.3010
228.4425 303.2014 -30.9929 1607.3031
229.2075 302.5543 -31.0032 1608.3052
229.9721 301.9067 -31.0136 1609.3073
230.7366 301.2590 -31.0242 1610.3092
231.5009 300.6111 -31.0350 1611.3113
232.2653 299.9632 -31.0461 1612.3134
233.0297 299.3154 -31.0573 1613.3154
233.7943 298.6676 -31.0687 1614.3175
234.5590 298.0202 -31.0804 1615.3196
235.3240 297.3730 -31.0922 1616.3217
236.0890 296.7261 -31.1042 1617.3236
236.8544 296.0795 -31.1164 1618.3257
237.6201 295.4330 -31.1288 1619.3278
238.3859 294.7870 -31.1414 1620.3298
239.1520 294.1411 -31.1541 1621.3319
239.9182 293.4955 -31.1670 1622.3340
240.6848 292.8502 -31.1801 1623.3361
241.4514 292.2049 -31.1933 1624.3381
242.2180 291.5599 -31.2067 1625.3401
242.9848 290.9151 -31.2201 1626.3422
243.7519 290.2704 -31.2337 1627.3442
244.5189 289.6257 -31.2474 1628.3463
245.2860 288.9810 -31.2612 1629.3484
246.0530 288.3363 -31.2751 1630.3505
246.8200 287.6916 -31.2891 1631.3525
247.5869 287.0468 -31.3031 1632.3546
248.3537 286.4019 -31.3173 1633.3566
249.1203 285.7569 -31.3315 1634.3586
249.8870 285.1118 -31.3459 1635.3607
250.6534 284.4663 -31.3604 1636.3628
251.4197 283.8207 -31.3751 1637.3649
252.1857 283.1749 -31.3899 1638.3669
252.9516 282.5288 -31.4049 1639.3690
253.7172 281.8827 -31.4201 1640.3710
254.4827 281.2363 -31.4356 1641.3730
255.2480 280.5897 -31.4512 1642.3751
256.0133 279.9429 -31.4671 1643.3772
256.7784 279.2960 -31.4832 1644.3793
257.5435 278.6490 -31.4995 1645.3813
258.3086 278.0021 -31.5161 1646.3834
259.0737 277.3551 -31.5328 1647.3855
259.8386 276.7083 -31.5496 1648.3875
260.6038 276.0614 -31.5666 1649.3895
261.3690 275.4147 -31.5835 1650.3916
262.1345 274.7680 -31.6004 1651.3937
262.9001 274.1217 -31.6172 1652.3958
263.6660 273.4759 -31.6337 1653.3978
264.4322 272.8303 -31.6499 1654.3999
265.1989 272.1852 -31.6658 1655.4020
265.9658 271.5405 -31.6812 1656.4039
266.7333 270.8966 -31.6961 1657.4060
267.5015 270.2533 -31.7104 1658.4081
268.2702 269.6105 -31.7241 1659.4102
269.0397 268.9687 -31.7372 1660.4122
269.8098 268.3277 -31.7498 1661.4143
270.5807 267.6875 -31.7618 1662.4164
271.3521 267.0483 -31.7733 1663.4183
272.1245 266.4099 -31.7846 1664.4204
272.8976 265.7725 -31.7956 1665.4225
273.6714 265.1358 -31.8066 1666.4246
274.4458 264.5001 -31.8177 1667.4266
275.2209 263.8649 -31.8292 1668.4287
275.9963 263.2304 -31.8411 1669.4308
276.7721 262.5963 -31.8538 1670.4329
277.5479 261.9624 -31.8672 1671.4348
278.3238 261.3283 -31.8816 1672.4369
279.0994 260.6940 -31.8970 1673.4390
279.8744 260.0589 -31.9136 1674.4410
280.6483 259.4227 -31.9313 1675.4431
281.4210 258.7848 -31.9500 1676.4452
282.1916 258.1447 -31.9698 1677.4473
282.9599 257.5019 -31.9905 1678.4492
283.7254 256.8557 -32.0119 1679.4513
284.4875 256.2052 -32.0340 1680.4534
285.2451 255.5499 -32.0564 1681.4554
285.9980 254.8889 -32.0791 1682.4575
286.7450 254.2213 -32.1018 1683.4596
287.4852 253.5462 -32.1242 1684.4617
288.2179 252.8630 -32.1464 1685.4637
288.9417 252.1706 -32.1681 1686.4657
289.6559 251.4680 -32.1893 1687.4678
290.3593 250.7545 -32.2098 1688.4698
291.0504 250.0292 -32.2297 1689.4719
291.7281 249.2913 -32.2489 1690.4740
292.3913 248.5403 -32.2675 1691.4761
293.0384 247.7754 -32.2855 1692.4781
293.6679 246.9962 -32.3030 1693.4802
294.2789 246.2022 -32.3200 1694.4822
294.8699 245.3932 -32.3368 1695.4843
295.4395 244.5689 -32.3533 1696.4863
295.9864 243.7294 -32.3697 1697.4884
296.5093 242.8748 -32.3861 1698.4905
297.0071 242.0054 -32.4025 1699.4926
297.4787 241.1213 -32.4190 1700.4946
297.9230 240.2234 -32.4356 1701.4966
298.3390 239.3120 -32.4525 1702.4987
298.7261 238.3879 -32.4696 1703.5007
299.0833 237.4519 -32.4868 1704.5028
299.4102 236.5049 -32.5043 1705.5049
299.7061 235.5477 -32.5220 1706.5070
299.9709 234.5813 -32.5398 1707.5090
300.2040 233.6070 -32.5577 1708.5111
300.4056 232.6258 -32.5756 1709.5131
300.5755 231.6384 -32.5935 1710.5151
300.7137 230.6462 -32.6113 1711.5172
300.8203 229.6499 -32.6290 1712.5193
300.8956 228.6509 -32.6464 1713.5214
300.9398 227.6499 -32.6635 1714.5234
300.9531 226.6481 -32.6803 1715.5255
300.9359 225.6464 -32.6967 1716.5276
300.8885 224.6458 -32.7127 1717.5295
300.8111 223.6469 -32.7283 1718.5316
300.7041 222.6507 -32.7434 1719.5337
300.5678 221.6580 -32.7580 1720.5358
300.4023 220.6698 -32.7722 1721.5378
300.2080 219.6868 -32.7859 1722.5399
299.9850 218.7101 -32.7992 1723.5420
299.7335 217.7403 -32.8120 1724.5439
299.4536 216.7782 -32.8244 1725.5460
299.1454 215.8249 -32.8364 1726.5481
298.8091 214.8810 -32.8481 1727.5502
298.4448 213.9477 -32.8594 1728.5522
298.0524 213.0257 -32.8705 1729.5543
297.6325 212.1160 -32.8813 1730.5564
297.1849 211.2194 -32.8919 1731.5585
296.7102 210.3372 -32.9022 1732.5604
296.2084 209.4699 -32.9124 1733.5625
295.6801 208.6186 -32.9224 1734.5646
295.1256 207.7839 -32.9322 1735.5667
294.5456 206.9669 -32.9419 1736.5687
293.9406 206.1681 -32.9514 1737.5708
293.3115 205.3883 -32.9607 1738.5729
292.6589 204.6279 -32.9698 1739.5750
291.9841 203.8875 -32.9788 1740.5769
291.2875 203.1672 -32.9875 1741.5790
290.5707 202.4672 -32.9960 1742.5811
289.8344 201.7874 -33.0043 1743.5831
289.0801 201.1279 -33.0123 1744.5852
288.3087 200.4883 -33.0200 1745.5873
287.5216 199.8682 -33.0274 1746.5894
286.7200 199.2672 -33.0345 1747.5913
285.9049 198.6842 -33.0412 1748.5934
285.0777 198.1189 -33.0476 1749.5955
284.2393 197.5700 -33.0537 1750.5975
283.3909 197.0368 -33.0594 1751.5996
282.5335 196.5182 -33.0647 1752.6017
281.6681 196.0129 -33.0696 1753.6038
280.7957 195.5200 -33.0742 1754.6058
279.9172 195.0383 -33.0785 1755.6078
279.0331 194.5666 -33.0823 1756.6099
278.1444 194.1037 -33.0858 1757.6119
277.2516 193.6485 -33.0889 1758.6140
276.3556 193.2000 -33.0917 1759.6161
275.4567 192.7570 -33.0941 1760.6182
274.5555 192.3188 -33.0962 1761.6202
273.6525 191.8843 -33.0979 1762.6223
272.7483 191.4529 -33.0993 1763.6243
271.8427 191.0236 -33.1004 1764.6263
270.9365 190.5958 -33.1012 1765.6284
270.0299 190.1691 -33.1016 1766.6305
269.1230 189.7427 -33.1018 1767.6326
268.2162 189.3164 -33.1018 1768.6346
267.3095 188.8897 -33.1014 1769.6367
266.4032 188.4625 -33.1009 1770.6387
265.4972 188.0343 -33.1001 1771.6407
264.5917 187.6051 -33.0991 1772.6428
263.6867 187.1748 -33.0979 1773.6449
262.7823 186.7432 -33.0966 1774.6470
261.8786 186.3103 -33.0951 1775.6490
260.9756 185.8760 -33.0935 1776.6511
260.0731 185.4405 -33.0918 1777.6532
259.1714 185.0038 -33.0900 1778.6552
258.2701 184.5658 -33.0881 1779.6572
257.3693 184.1267 -33.0861 1780.6593
256.4691 183.6865 -33.0840 1781.6614
255.5693 183.2453 -33.0819 1782.6635
254.6700 182.8033 -33.0797 1783.6655
253.7710 182.3606 -33.0775 1784.6676
252.8725 181.9173 -33.0752 1785.6696
251.9741 181.4733 -33.0728 1786.6716
251.0760 181.0289 -33.0704 1787.6737
250.1780 180.5843 -33.0679 1788.6758
249.2801 180.1393 -33.0653 1789.6779
248.3823 179.6943 -33.0626 1790.6799
247.4845 179.2492 -33.0598 1791.6820
246.5867 178.8040 -33.0569 1792.6841
245.6889 178.3590 -33.0539 1793.6860
244.7911 177.9141 -33.0507 1794.6881
243.8932 177.4694 -33.0475 1795.6902
242.9951 177.0248 -33.0442 1796.6923
242.0970 176.5804 -33.0407 1797.6943
241.1988 176.1362 -33.0371 1798.6964
240.3004 175.6922 -33.0334 1799.6985
239.4019 175.2484 -33.0296 1800.7006
238.5035 174.8049 -33.0258 1801.7025
237.6049 174.3616 -33.0219 1802.7046
236.7061 173.9184 -33.0179 1803.7067
235.8072 173.4755 -33.0139 1804.7087
234.9083 173.0328 -33.0099 1805.7108
234.0092 172.5903 -33.0059 1806.7129
233.1100 172.1480 -33.0020 1807.7150
232.2109 171.7059 -32.9981 1808.7169
231.3116 171.2639 -32.9943 1809.7190
230.4121 170.8222 -32.9906 1810.7211
229.5126 170.3806 -32.9870 1811.7231
228.6130 169.9392 -32.9836 1812.7252
227.7133 169.4979 -32.9803 1813.7273
226.8136 169.0568 -32.9772 1814.7294
225.9137 168.6158 -32.9743 1815.7314
225.0140 168.1749 -32.9717 1816.7334
224.1141 167.7341 -32.9692 1817.7355
223.2142 167.2933 -32.9671 1818.7375
222.3142 166.8525 -32.9652 1819.7396
221.4144 166.4117 -32.9636 1820.7417
220.5144 165.9709 -32.9623 1821.7438
219.6146 165.5299 -32.9614 1822.7458
218.7148 165.0889 -32.9609 1823.7479
217.8152 164.6478 -32.9607 1824.7499
216.9156 164.2064 -32.9610 1825.7520
216.0160 163.7648 -32.9617 1826.7540
215.1165 163.3230 -32.9629 1827.7561
214.2173 162.8810 -32.9645 1828.7582
213.3181 162.4387 -32.9666 1829.7603
212.4191 161.9962 -32.9693 1830.7623
211.5202 161.5534 -32.9725 1831.7643
210.6214 161.1104 -32.9763 1832.7664
209.7228 160.6670 -32.9807 1833.7684
208.8241 160.2234 -32.9856 1834.7705
207.9258 159.7796 -32.9912 1835.7726
207.0274 159.3356 -32.9974 1836.7747
206.1292 158.8914 -33.0042 1837.7767
205.2311 158.4470 -33.0115 1838.7788
204.3331 158.0026 -33.0195 1839.7808
203.4352 157.5579 -33.0281 1840.7828
202.5372 157.1132 -33.0373 1841.7849
201.6393 156.6684 -33.0471 1842.7870
200.7415 156.2235 -33.0574 1843.7891
199.8437 155.7786 -33.0683 1844.7911
198.9459 155.3337 -33.0797 1845.7932
198.0481 154.8888 -33.0916 1846.7953
197.1504 154.4439 -33.1040 1847.7972
196.2525 153.9990 -33.1169 1848.7993
195.3548 153.5542 -33.1302 1849.8014
194.4569 153.1093 -33.1441 1850.8035
193.5591 152.6645 -33.1584 1851.8055
192.6613 152.2196 -33.1731 1852.8076
191.7635 151.7748 -33.1883 1853.8097
190.8658 151.3300 -33.2039 1854.8116
189.9681 150.8851 -33.2201 1855.8137
189.0704 150.4401 -33.2367 1856.8158
188.1728 149.9951 -33.2538 1857.8179
187.2751 149.5499 -33.2713 1858.8199
186.3776 149.1047 -33.2894 1859.8220
185.4801 148.6593 -33.3081 1860.8241
184.5827 148.2139 -33.3273 1861.8262
183.6854 147.7684 -33.3470 1862.8281
182.7882 147.3227 -33.3674 1863.8302
181.8909 146.8770 -33.3883 1864.8323
180.9938 146.4311 -33.4099 1865.8344
180.0966 145.9852 -33.4321 1866.8364
179.1996 145.5393 -33.4549 1867.8385
178.3025 145.0933 -33.4784 1868.8406
177.4055 144.6473 -33.5025 1869.8427
176.5085 144.2014 -33.5272 1870.8446
175.6116 143.7554 -33.5526 1871.8467
174.7145 143.3096 -33.5786 1872.8488
173.8175 142.8637 -33.6051 1873.8508
172.9204 142.4180 -33.6323 1874.8529
172.0233 141.9723 -33.6599 1875.8550
171.1262 141.5267 -33.6880 1876.8571
170.2290 141.0813 -33.7166 1877.8590
169.3319 140.6360 -33.7456 1878.8611
168.4346 140.1909 -33.7748 1879.8632
167.5372 139.7458 -33.8044 1880.8652
166.6398 139.3009 -33.8343 1881.8673
165.7424 138.8562 -33.8643 1882.8694
164.8448 138.4115 -33.8944 1883.8715
163.9473 137.9670 -33.9247 1884.8735
163.0498 137.5226 -33.9550 1885.8755
162.1521 137.0783 -33.9853 1886.8776
161.2544 136.6340 -34.0157 1887.8796
160.3567 136.1898 -34.0460 1888.8817
159.4590 135.7456 -34.0764 1889.8838
158.5612 135.3015 -34.1068 1890.8859
157.6633 134.8575 -34.1372 1891.8879
156.7656 134.4136 -34.1676 1892.8899
155.8677 133.9698 -34.1981 1893.8920
154.9698 133.5260 -34.2287 1894.8940
154.0717 133.0824 -34.2594 1895.8961
153.1737 132.6389 -34.2903 1896.8982
152.2755 132.1956 -34.3213 1897.9003
151.3773 131.7525 -34.3525 1898.9023
150.4790 131.3096 -34.3839 1899.9044
149.5807 130.8670 -34.4155 1900.9064
148.6821 130.4245 -34.4473 1901.9084
147.7835 129.9823 -34.4792 1902.9105
146.8847 129.5403 -34.5114 1903.9126
145.9859 129.0986 -34.5437 1904.9147
145.0869 128.6570 -34.5761 1905.9167
144.1878 128.2157 -34.6086 1906.9188
143.2887 127.7745 -34.6412 1907.9209
142.3896 127.3335 -34.6737 1908.9229
141.4903 126.8925 -34.7062 1909.9249
140.5910 126.4516 -34.7386 1910.9270
139.6918 126.0107 -34.7707 1911.9291
138.7925 125.5698 -34.8026 1912.9312
137.8932 125.1288 -34.8341 1913.9332
136.9940 124.6876 -34.8652 1914.9353
136.0950 124.2463 -34.8958 1915.9373
135.1959 123.8047 -34.9259 1916.9393
134.2970 123.3629 -34.9552 1917.9414
133.3983 122.9208 -34.9839 1918.9435
132.4996 122.4782 -35.0118 1919.9456
131.6011 122.0353 -35.0389 1920.9476
130.7028 121.5920 -35.0651 1921.9497
129.8047 121.1482 -35.0904 1922.9518
128.9069 120.7041 -35.1147 1923.9537
128.0091 120.2595 -35.1382 1924.9558
127.1116 119.8145 -35.1606 1925.9579
126.2142 119.3691 -35.1822 1926.9600
125.3170 118.9233 -35.2027 1927.9620
124.4199 118.4771 -35.2224 1928.9641
123.5230 118.0307 -35.2412 1929.9662
122.6262 117.5839 -35.2590 1930.9683
121.7296 117.1370 -35.2761 1931.9702
120.8330 116.6898 -35.2923 1932.9723
119.9364 116.2426 -35.3078 1933.9744
119.0398 115.7953 -35.3226 1934.9764
118.1432 115.3481 -35.3367 1935.9785
117.2465 114.9010 -35.3502 1936.9806
116.3497 114.4541 -35.3631 1937.9827
115.4528 114.0075 -35.3756 1938.9846
114.5557 113.5613 -35.3876 1939.9867
113.6582 113.1156 -35.3992 1940.9888
112.7606 112.6704 -35.4105 1941.9908
111.8625 112.2259 -35.4215 1942.9929
110.9642 111.7820 -35.4323 1943.9950
110.0654 111.3389 -35.4428 1944.9971
109.1663 110.8967 -35.4532 1945.9991
108.2669 110.4553 -35.4634 1947.0011
107.3669 110.0148 -35.4735 1948.0032
106.4665 109.5750 -35.4835 1949.0052
105.5658 109.1361 -35.4933 1950.0073
