VERSION 0.7
FIELDS x y z lapdistance
SIZE 4 4 4 4
TYPE F F F F
COUNT 1 1 1 1
WIDTH 1309
HEIGHT 1
VIEWPOINT 0.000 0.000 0.000 1.000 0.000 0.000 0.000
POINTS 1309
DATA ascii
-425.4723 -64.2501 -35.2532 668.3345
-425.8868 -63.3380 -35.2361 669.3365
-426.3010 -62.4258 -35.2193 670.3384
-426.7144 -61.5132 -35.2026 671.3405
-427.1265 -60.6000 -35.1861 672.3425
-427.5369 -59.6860 -35.1698 673.3445
-427.9453 -58.7712 -35.1536 674.3464
-428.3514 -57.8553 -35.1375 675.3484
-428.7550 -56.9383 -35.1215 676.3505
-429.1553 -56.0199 -35.1056 677.3525
-429.5524 -55.1001 -35.0897 678.3545
-429.9460 -54.1788 -35.0738 679.3564
-430.3360 -53.2559 -35.0580 680.3585
-430.7219 -52.3314 -35.0422 681.3605
-431.1036 -51.4050 -35.0265 682.3625
-431.4800 -50.4766 -35.0108 683.3644
-431.8505 -49.5458 -34.9951 684.3665
-432.2144 -48.6122 -34.9795 685.3685
-432.5705 -47.6758 -34.9639 686.3705
-432.9185 -46.7362 -34.9484 687.3725
-433.2577 -45.7936 -34.9328 688.3745
-433.5876 -44.8476 -34.9171 689.3765
-433.9080 -43.8983 -34.9013 690.3785
-434.2180 -42.9456 -34.8853 691.3805
-434.5169 -41.9895 -34.8691 692.3824
-434.8040 -41.0296 -34.8526 693.3845
-435.0782 -40.0659 -34.8358 694.3865
-435.3383 -39.0984 -34.8186 695.3885
-435.5837 -38.1271 -34.8010 696.3905
-435.8135 -37.1521 -34.7829 697.3925
-436.0277 -36.1734 -34.7644 698.3945
-436.2258 -35.1914 -34.7452 699.3965
-436.4081 -34.2063 -34.7255 700.3985
-436.5749 -33.2184 -34.7052 701.4005
-436.7260 -32.2282 -34.6843 702.4025
-436.8620 -31.2357 -34.6629 703.4045
-436.9824 -30.2412 -34.6411 704.4065
-437.0872 -29.2449 -34.6189 705.4085
-437.1759 -28.2471 -34.5966 706.4105
-437.2487 -27.2480 -34.5742 707.4125
-437.3053 -26.2479 -34.5519 708.4145
-437.3461 -25.2470 -34.5297 709.4165
-437.3713 -24.2456 -34.5077 710.4185
-437.3809 -23.2439 -34.4861 711.4205
-437.3754 -22.2421 -34.4646 712.4225
-437.3553 -21.2406 -34.4434 713.4245
-437.3206 -20.2393 -34.4225 714.4265
-437.2716 -19.2388 -34.4019 715.4285
-437.2078 -18.2390 -34.3814 716.4305
-437.1291 -17.2403 -34.3612 717.4325
-437.0354 -16.2429 -34.3412 718.4345
-436.9268 -15.2470 -34.3214 719.4365
-436.8030 -14.2530 -34.3016 720.4385
-436.6639 -13.2608 -34.2820 721.4405
-436.5095 -12.2710 -34.2625 722.4425
-436.3392 -11.2838 -34.2430 723.4445
-436.1526 -10.2995 -34.2237 724.4465
-435.9496 -9.3185 -34.2044 725.4485
-435.7302 -8.3410 -34.1852 726.4505
-435.4942 -7.3674 -34.1662 727.4525
-435.2426 -6.3977 -34.1473 728.4545
-434.9763 -5.4319 -34.1286 729.4565
-434.6964 -4.4700 -34.1101 730.4585
-434.4038 -3.5118 -34.0916 731.4605
-434.0995 -2.5573 -34.0734 732.4625
-433.7847 -1.6063 -34.0553 733.4645
-433.4593 -0.6588 -34.0373 734.4665
-433.1233 0.2851 -34.0194 735.4685
-432.7759 1.2247 -34.0018 736.4705
-432.4164 2.1599 -33.9843 737.4725
-432.0446 3.0901 -33.9672 738.4745
-431.6594 4.0150 -33.9502 739.4765
-431.2607 4.9341 -33.9335 740.4785
-430.8479 5.8470 -33.9171 741.4805
-430.4208 6.7532 -33.9008 742.4825
-429.9791 7.6524 -33.8848 743.4845
-429.5229 8.5444 -33.8689 744.4865
-429.0522 9.4288 -33.8531 745.4885
-428.5671 10.3055 -33.8374 746.4905
-428.0679 11.1740 -33.8217 747.4925
-427.5546 12.0345 -33.8060 748.4945
-427.0279 12.8866 -33.7903 749.4965
-426.4879 13.7306 -33.7745 750.4985
-425.9355 14.5663 -33.7587 751.5005
-425.3710 15.3941 -33.7428 752.5025
-424.7954 16.2141 -33.7270 753.5045
-424.2087 17.0262 -33.7112 754.5065
-423.6113 17.8305 -33.6955 755.5085
-423.0032 18.6266 -33.6800 756.5105
-422.3838 19.4142 -33.6648 757.5125
-421.7534 20.1929 -33.6498 758.5145
-421.1119 20.9624 -33.6352 759.5165
-420.4593 21.7226 -33.6208 760.5185
-419.7953 22.4728 -33.6069 761.5205
-419.1198 23.2129 -33.5933 762.5225
-418.4331 23.9424 -33.5801 763.5245
-417.7353 24.6613 -33.5673 764.5266
-417.0266 25.3695 -33.5549 765.5285
-416.3068 26.0665 -33.5428 766.5305
-415.5755 26.7514 -33.5313 767.5325
-414.8324 27.4234 -33.5201 768.5345
-414.0778 28.0826 -33.5095 769.5365
-413.3122 28.7288 -33.4993 770.5385
-412.5352 29.3616 -33.4897 771.5405
-411.7474 29.9807 -33.4806 772.5425
-410.9490 30.5859 -33.4721 773.5446
-410.1407 31.1779 -33.4642 774.5465
-409.3230 31.7570 -33.4569 775.5485
-408.4967 32.3238 -33.4503 776.5505
-407.6624 32.8786 -33.4443 777.5526
-406.8203 33.4216 -33.4389 778.5546
-405.9708 33.9529 -33.4342 779.5565
-405.1141 34.4726 -33.4302 780.5585
-404.2505 34.9808 -33.4268 781.5605
-403.3803 35.4774 -33.4241 782.5626
-402.5038 35.9629 -33.4219 783.5645
-401.6213 36.4376 -33.4204 784.5665
-400.7332 36.9015 -33.4193 785.5685
-399.8397 37.3549 -33.4187 786.5706
-398.9407 37.7976 -33.4184 787.5726
-398.0366 38.2293 -33.4185 788.5745
-397.1270 38.6498 -33.4189 789.5765
-396.2125 39.0590 -33.4195 790.5786
-395.2928 39.4570 -33.4202 791.5806
-394.3687 39.8442 -33.4210 792.5825
-393.4405 40.2215 -33.4218 793.5845
-392.5087 40.5901 -33.4226 794.5865
-391.5740 40.9511 -33.4232 795.5886
-390.6370 41.3060 -33.4236 796.5906
-389.6981 41.6560 -33.4238 797.5925
-388.7577 42.0020 -33.4237 798.5945
-387.8162 42.3449 -33.4234 799.5966
-386.8737 42.6853 -33.4229 800.5986
-385.9306 43.0234 -33.4223 801.6005
-384.9867 43.3597 -33.4215 802.6025
-384.0423 43.6943 -33.4207 803.6046
-383.0972 44.0275 -33.4199 804.6066
-382.1517 44.3594 -33.4191 805.6086
-381.2059 44.6900 -33.4185 806.6105
-380.2596 45.0194 -33.4180 807.6125
-379.3128 45.3472 -33.4179 808.6146
-378.3653 45.6733 -33.4181 809.6166
-377.4172 45.9975 -33.4188 810.6185
-376.4684 46.3198 -33.4200 811.6205
-375.5192 46.6405 -33.4218 812.6226
-374.5694 46.9600 -33.4242 813.6246
-373.6196 47.2791 -33.4273 814.6266
-372.6699 47.5983 -33.4311 815.6285
-371.7202 47.9181 -33.4357 816.6306
-370.7709 48.2387 -33.4409 817.6326
-369.8219 48.5601 -33.4469 818.6346
-368.8732 48.8824 -33.4536 819.6365
-367.9246 49.2053 -33.4611 820.6385
-366.9763 49.5287 -33.4691 821.6406
-366.0282 49.8529 -33.4778 822.6426
-365.0805 50.1780 -33.4871 823.6446
-364.1332 50.5043 -33.4970 824.6465
-363.1864 50.8320 -33.5074 825.6486
-362.2399 51.1608 -33.5183 826.6506
-361.2937 51.4904 -33.5297 827.6526
-360.3477 51.8204 -33.5416 828.6545
-359.4016 52.1503 -33.5540 829.6566
-358.4553 52.4794 -33.5669 830.6586
-357.5087 52.8075 -33.5802 831.6606
-356.5615 53.1344 -33.5940 832.6626
-355.6140 53.4598 -33.6082 833.6646
-354.6660 53.7840 -33.6227 834.6666
-353.7177 54.1075 -33.6376 835.6686
-352.7696 54.4310 -33.6526 836.6706
-351.8215 54.7553 -33.6679 837.6725
-350.8741 55.0807 -33.6833 838.6746
-349.9271 55.4077 -33.6988 839.6766
-348.9804 55.7362 -33.7143 840.6786
-348.0345 56.0661 -33.7298 841.6806
-347.0890 56.3972 -33.7452 842.6826
-346.1437 56.7293 -33.7605 843.6846
-345.1986 57.0620 -33.7756 844.6866
-344.2537 57.3951 -33.7905 845.6886
-343.3088 57.7281 -33.8051 846.6906
-342.3636 58.0606 -33.8194 847.6926
-341.4182 58.3922 -33.8335 848.6946
-340.4722 58.7222 -33.8472 849.6966
-339.5255 59.0502 -33.8606 850.6986
-338.5782 59.3761 -33.8737 851.7006
-337.6301 59.7001 -33.8865 852.7026
-336.6815 60.0228 -33.8991 853.7046
-335.7327 60.3448 -33.9115 854.7066
-334.7839 60.6669 -33.9237 855.7086
-333.8356 60.9897 -33.9357 856.7106
-332.8874 61.3136 -33.9478 857.7126
-331.9395 61.6382 -33.9598 858.7146
-330.9919 61.9634 -33.9718 859.7166
-330.0443 62.2892 -33.9840 860.7186
-329.0971 62.6158 -33.9963 861.7206
-328.1502 62.9431 -34.0089 862.7226
-327.2032 63.2705 -34.0217 863.7246
-326.2562 63.5977 -34.0348 864.7266
-325.3090 63.9238 -34.0482 865.7286
-324.3612 64.2489 -34.0618 866.7306
-323.4130 64.5726 -34.0758 867.7326
-322.4641 64.8943 -34.0900 868.7346
-321.5146 65.2135 -34.1045 869.7366
-320.5640 65.5303 -34.1192 870.7386
-319.6128 65.8449 -34.1341 871.7406
-318.6607 66.1568 -34.1491 872.7426
-317.7075 66.4655 -34.1643 873.7446
-316.7534 66.7707 -34.1796 874.7466
-315.7978 67.0721 -34.1949 875.7486
-314.8409 67.3690 -34.2103 876.7506
-313.8824 67.6606 -34.2258 877.7526
-312.9222 67.9463 -34.2414 878.7546
-311.9602 68.2259 -34.2570 879.7566
-310.9963 68.4995 -34.2726 880.7586
-310.0309 68.7673 -34.2882 881.7606
-309.0636 69.0288 -34.3037 882.7626
-308.0948 69.2836 -34.3192 883.7646
-307.1239 69.5310 -34.3347 884.7666
-306.1512 69.7706 -34.3500 885.7686
-305.1763 70.0022 -34.3652 886.7706
-304.1998 70.2258 -34.3802 887.7726
-303.2214 70.4416 -34.3949 888.7746
-302.2413 70.6497 -34.4094 889.7766
-301.2597 70.8504 -34.4234 890.7786
-300.2767 71.0438 -34.4371 891.7806
-299.2922 71.2298 -34.4503 892.7826
-298.3063 71.4083 -34.4629 893.7846
-297.3190 71.5787 -34.4750 894.7866
-296.3302 71.7405 -34.4866 895.7886
-295.3400 71.8931 -34.4976 896.7906
-294.3483 72.0361 -34.5080 897.7926
-293.3552 72.1694 -34.5180 898.7946
-292.3609 72.2932 -34.5275 899.7966
-291.3654 72.4070 -34.5366 900.7986
-290.3689 72.5104 -34.5453 901.8006
-289.3712 72.6029 -34.5538 902.8026
-288.3725 72.6842 -34.5620 903.8046
-287.3730 72.7545 -34.5701 904.8066
-286.3729 72.8138 -34.5779 905.8086
-285.3720 72.8620 -34.5856 906.8106
-284.3708 72.8996 -34.5931 907.8126
-283.3692 72.9274 -34.6004 908.8146
-282.3674 72.9456 -34.6073 909.8167
-281.3655 72.9543 -34.6138 910.8186
-280.3635 72.9530 -34.6199 911.8206
-279.3615 72.9409 -34.6255 912.8226
-278.3598 72.9172 -34.6303 913.8246
-277.3585 72.8813 -34.6344 914.8266
-276.3577 72.8329 -34.6376 915.8286
-275.3575 72.7724 -34.6397 916.8306
-274.3581 72.7010 -34.6405 917.8326
-273.3593 72.6198 -34.6399 918.8347
-272.3614 72.5301 -34.6376 919.8366
-271.3641 72.4322 -34.6337 920.8386
-270.3678 72.3262 -34.6281 921.8406
-269.3724 72.2117 -34.6208 922.8427
-268.3779 72.0893 -34.6120 923.8447
-267.3845 71.9596 -34.6018 924.8466
-266.3919 71.8230 -34.5904 925.8486
-265.4002 71.6797 -34.5780 926.8506
-264.4096 71.5301 -34.5648 927.8527
-263.4200 71.3741 -34.5512 928.8546
-262.4313 71.2112 -34.5373 929.8566
-261.4441 71.0403 -34.5233 930.8586
-260.4584 70.8610 -34.5095 931.8607
-259.4743 70.6728 -34.4960 932.8627
-258.4920 70.4756 -34.4828 933.8646
-257.5116 70.2693 -34.4701 934.8666
-256.5329 70.0543 -34.4578 935.8687
-255.5562 69.8311 -34.4461 936.8707
-254.5812 69.6005 -34.4348 937.8726
-253.6078 69.3628 -34.4241 938.8746
-252.6362 69.1184 -34.4139 939.8766
-251.6662 68.8673 -34.4041 940.8787
-250.6981 68.6090 -34.3947 941.8807
-249.7321 68.3432 -34.3858 942.8826
-248.7682 68.0693 -34.3773 943.8846
-247.8068 67.7871 -34.3690 944.8867
-246.8480 67.4962 -34.3610 945.8887
-245.8918 67.1970 -34.3532 946.8906
-244.9379 66.8903 -34.3455 947.8926
-243.9863 66.5767 -34.3378 948.8947
-243.0370 66.2561 -34.3301 949.8967
-242.0904 65.9276 -34.3223 950.8987
-241.1469 65.5903 -34.3143 951.9006
-240.2070 65.2432 -34.3061 952.9026
-239.2710 64.8855 -34.2977 953.9047
-238.3395 64.5164 -34.2890 954.9067
-237.4131 64.1350 -34.2801 955.9086
-236.4918 63.7411 -34.2709 956.9106
-235.5756 63.3354 -34.2614 957.9127
-234.6641 62.9194 -34.2515 958.9147
-233.7568 62.4942 -34.2413 959.9167
-232.8536 62.0606 -34.2308 960.9186
-231.9539 61.6198 -34.2199 961.9207
-231.0573 61.1723 -34.2088 962.9227
-230.1641 60.7185 -34.1973 963.9247
-229.2742 60.2582 -34.1855 964.9266
-228.3877 59.7914 -34.1735 965.9286
-227.5043 59.3186 -34.1612 966.9307
-226.6239 58.8403 -34.1488 967.9327
-225.7460 58.3574 -34.1361 968.9347
-224.8700 57.8711 -34.1233 969.9366
-223.9954 57.3825 -34.1103 970.9387
-223.1213 56.8927 -34.0972 971.9407
-222.2474 56.4026 -34.0840 972.9427
-221.3736 55.9125 -34.0708 973.9446
-220.4997 55.4225 -34.0576 974.9467
-219.6255 54.9330 -34.0446 975.9487
-218.7507 54.4445 -34.0316 976.9507
-217.8748 53.9580 -34.0189 977.9527
-216.9974 53.4743 -34.0063 978.9547
-216.1183 52.9938 -33.9938 979.9567
-215.2369 52.5172 -33.9816 980.9587
-214.3533 52.0449 -33.9695 981.9607
-213.4672 51.5773 -33.9575 982.9626
-212.5785 51.1147 -33.9457 983.9647
-211.6872 50.6570 -33.9339 984.9667
-210.7932 50.2045 -33.9221 985.9687
-209.8962 49.7580 -33.9103 986.9707
-208.9962 49.3179 -33.8986 987.9727
-208.0927 48.8848 -33.8867 988.9747
-207.1857 48.4591 -33.8748 989.9767
-206.2750 48.0413 -33.8629 990.9787
-205.3607 47.6317 -33.8510 991.9807
-204.4425 47.2308 -33.8391 992.9827
-203.5207 46.8383 -33.8273 993.9847
-202.5955 46.4536 -33.8157 994.9867
-201.6673 46.0762 -33.8044 995.9887
-200.7362 45.7064 -33.7935 996.9907
-199.8019 45.3444 -33.7830 997.9927
-198.8645 44.9905 -33.7731 998.9947
-197.9239 44.6452 -33.7638 999.9967
-196.9800 44.3091 -33.7553 1000.9987
-196.0327 43.9828 -33.7475 1002.0007
-195.0820 43.6662 -33.7404 1003.0027
-194.1283 43.3590 -33.7342 1004.0047
-193.1718 43.0608 -33.7288 1005.0067
-192.2125 42.7713 -33.7241 1006.0087
-191.2506 42.4905 -33.7202 1007.0107
-190.2863 42.2184 -33.7169 1008.0127
-189.3194 41.9555 -33.7143 1009.0147
-188.3499 41.7023 -33.7122 1010.0167
-187.3778 41.4594 -33.7107 1011.0187
-186.4032 41.2270 -33.7097 1012.0207
-185.4262 41.0047 -33.7091 1013.0227
-184.4470 40.7921 -33.7090 1014.0247
-183.4659 40.5888 -33.7094 1015.0267
-182.4828 40.3945 -33.7103 1016.0287
-181.4981 40.2091 -33.7117 1017.0307
-180.5119 40.0322 -33.7136 1018.0327
-179.5241 39.8638 -33.7161 1019.0347
-178.5350 39.7039 -33.7191 1020.0367
-177.5444 39.5531 -33.7225 1021.0387
-176.5524 39.4117 -33.7265 1022.0407
-175.5591 39.2802 -33.7310 1023.0427
-174.5645 39.1589 -33.7360 1024.0447
-173.5687 39.0475 -33.7413 1025.0468
-172.5720 38.9455 -33.7471 1026.0487
-171.5744 38.8522 -33.7532 1027.0507
-170.5759 38.7674 -33.7596 1028.0527
-169.5769 38.6912 -33.7662 1029.0547
-168.5771 38.6233 -33.7730 1030.0568
-167.5770 38.5637 -33.7798 1031.0587
-166.5764 38.5122 -33.7867 1032.0607
-165.5753 38.4687 -33.7935 1033.0627
-164.5740 38.4333 -33.8002 1034.0647
-163.5723 38.4057 -33.8068 1035.0668
-162.5706 38.3856 -33.8133 1036.0687
-161.5687 38.3728 -33.8196 1037.0707
-160.5667 38.3676 -33.8258 1038.0728
-159.5648 38.3702 -33.8319 1039.0747
-158.5630 38.3809 -33.8380 1040.0767
-157.5610 38.4000 -33.8441 1041.0787
-156.5595 38.4284 -33.8502 1042.0807
-155.5582 38.4666 -33.8563 1043.0828
-154.5574 38.5152 -33.8626 1044.0847
-153.5572 38.5743 -33.8690 1045.0867
-152.5576 38.6439 -33.8756 1046.0887
-151.5588 38.7235 -33.8825 1047.0907
-150.5608 38.8125 -33.8896 1048.0928
-149.5637 38.9102 -33.8969 1049.0947
-148.5672 39.0159 -33.9045 1050.0967
-147.5717 39.1296 -33.9125 1051.0988
-146.5772 39.2510 -33.9207 1052.1007
-145.5835 39.3804 -33.9291 1053.1028
-144.5911 39.5180 -33.9377 1054.1047
-143.5999 39.6640 -33.9465 1055.1067
-142.6098 39.8184 -33.9554 1056.1088
-141.6213 39.9812 -33.9643 1057.1107
-140.6341 40.1523 -33.9732 1058.1127
-139.6481 40.3314 -33.9820 1059.1147
-138.6638 40.5186 -33.9908 1060.1167
-137.6810 40.7140 -33.9994 1061.1188
-136.7001 40.9176 -34.0079 1062.1207
-135.7209 41.1300 -34.0163 1063.1227
-134.7437 41.3515 -34.0245 1064.1248
-133.7686 41.5819 -34.0326 1065.1267
-132.7956 41.8211 -34.0407 1066.1288
-131.8247 42.0685 -34.0487 1067.1307
-130.8557 42.3236 -34.0566 1068.1327
-129.8887 42.5861 -34.0647 1069.1348
-128.9237 42.8556 -34.0728 1070.1367
-127.9606 43.1324 -34.0810 1071.1388
-126.9999 43.4169 -34.0893 1072.1407
-126.0418 43.7097 -34.0978 1073.1427
-125.0862 44.0109 -34.1063 1074.1448
-124.1331 44.3202 -34.1151 1075.1467
-123.1826 44.6371 -34.1240 1076.1487
-122.2345 44.9612 -34.1330 1077.1508
-121.2888 45.2923 -34.1422 1078.1527
-120.3456 45.6304 -34.1515 1079.1548
-119.4052 45.9760 -34.1609 1080.1567
-118.4677 46.3295 -34.1704 1081.1587
-117.5334 46.6916 -34.1800 1082.1608
-116.6028 47.0628 -34.1895 1083.1627
-115.6758 47.4433 -34.1990 1084.1648
-114.7529 47.8332 -34.2085 1085.1667
-113.8337 48.2319 -34.2178 1086.1687
-112.9182 48.6391 -34.2271 1087.1708
-112.0063 49.0543 -34.2363 1088.1727
-111.0980 49.4771 -34.2453 1089.1748
-110.1931 49.9074 -34.2542 1090.1768
-109.2919 50.3453 -34.2630 1091.1787
-108.3946 50.7911 -34.2717 1092.1808
-107.5012 51.2448 -34.2802 1093.1827
-106.6119 51.7063 -34.2885 1094.1847
-105.7266 52.1755 -34.2967 1095.1868
-104.8454 52.6523 -34.3047 1096.1887
-103.9681 53.1366 -34.3125 1097.1908
-103.0953 53.6287 -34.3201 1098.1927
-102.2273 54.1289 -34.3275 1099.1947
-101.3639 54.6376 -34.3347 1100.1968
-100.5059 55.1549 -34.3416 1101.1987
-99.6532 55.6812 -34.3483 1102.2008
-98.8063 56.2166 -34.3547 1103.2028
-97.9649 56.7605 -34.3609 1104.2047
-97.1285 57.3123 -34.3668 1105.2068
-96.2970 57.8714 -34.3726 1106.2087
-95.4703 58.4377 -34.3783 1107.2108
-94.6487 59.0112 -34.3838 1108.2128
-93.8323 59.5920 -34.3893 1109.2147
-93.0216 60.1809 -34.3946 1110.2168
-92.2168 60.7778 -34.3999 1111.2188
-91.4181 61.3829 -34.4052 1112.2208
-90.6255 61.9959 -34.4104 1113.2228
-89.8389 62.6165 -34.4158 1114.2247
-89.0579 63.2442 -34.4212 1115.2268
-88.2824 63.8786 -34.4268 1116.2288
-87.5120 64.5192 -34.4325 1117.2307
-86.7467 65.1661 -34.4384 1118.2328
-85.9869 65.8192 -34.4445 1119.2347
-85.2328 66.4791 -34.4508 1120.2368
-84.4851 67.1460 -34.4572 1121.2388
-83.7440 67.8202 -34.4637 1122.2407
-83.0093 68.5016 -34.4703 1123.2428
-82.2810 69.1898 -34.4770 1124.2448
-81.5590 69.8846 -34.4838 1125.2468
-80.8431 70.5856 -34.4906 1126.2488
-80.1333 71.2928 -34.4975 1127.2507
-79.4298 72.0064 -34.5044 1128.2528
-78.7329 72.7261 -34.5113 1129.2548
-78.0423 73.4522 -34.5181 1130.2568
-77.3582 74.1842 -34.5247 1131.2588
-76.6804 74.9221 -34.5313 1132.2607
-76.0085 75.6655 -34.5376 1133.2628
-75.3421 76.4137 -34.5438 1134.2648
-74.6809 77.1665 -34.5498 1135.2667
-74.0245 77.9236 -34.5557 1136.2688
-73.3731 78.6849 -34.5614 1137.2708
-72.7269 79.4507 -34.5669 1138.2728
-72.0865 80.2214 -34.5723 1139.2748
-71.4525 80.9971 -34.5776 1140.2767
-70.8250 81.7784 -34.5828 1141.2788
-70.2049 82.5654 -34.5878 1142.2808
-69.5926 83.3587 -34.5928 1143.2828
-68.9887 84.1582 -34.5976 1144.2848
-68.3935 84.9642 -34.6024 1145.2867
-67.8067 85.7764 -34.6071 1146.2888
-67.2281 86.5944 -34.6118 1147.2908
-66.6575 87.4182 -34.6165 1148.2928
-66.0949 88.2473 -34.6211 1149.2948
-65.5397 89.0813 -34.6257 1150.2968
-64.9915 89.9201 -34.6302 1151.2988
-64.4504 90.7633 -34.6346 1152.3008
-63.9164 91.6111 -34.6389 1153.3027
-63.3897 92.4636 -34.6430 1154.3048
-62.8705 93.3205 -34.6469 1155.3068
-62.3583 94.1818 -34.6505 1156.3088
-61.8532 95.0471 -34.6538 1157.3108
-61.3547 95.9162 -34.6568 1158.3127
-60.8621 96.7888 -34.6595 1159.3148
-60.3747 97.6643 -34.6620 1160.3168
-59.8923 98.5426 -34.6643 1161.3188
-59.4148 99.4235 -34.6664 1162.3208
-58.9425 100.3071 -34.6684 1163.3228
-58.4755 101.1936 -34.6704 1164.3248
-58.0139 102.0829 -34.6724 1165.3268
-57.5579 102.9753 -34.6746 1166.3289
-57.1077 103.8704 -34.6769 1167.3308
-56.6631 104.7682 -34.6795 1168.3328
-56.2232 105.6687 -34.6825 1169.3348
-55.7878 106.5710 -34.6858 1170.3368
-55.3560 107.4751 -34.6896 1171.3387
-54.9267 108.3806 -34.6938 1172.3408
-54.4993 109.2868 -34.6986 1173.3428
-54.0729 110.1936 -34.7038 1174.3448
-53.6471 111.1006 -34.7096 1175.3468
-53.2219 112.0078 -34.7158 1176.3488
-52.7966 112.9152 -34.7224 1177.3508
-52.3714 113.8223 -34.7294 1178.3528
-51.9459 114.7296 -34.7367 1179.3549
-51.5205 115.6367 -34.7443 1180.3568
-51.0953 116.5440 -34.7520 1181.3588
-50.6703 117.4514 -34.7598 1182.3608
-50.2458 118.3589 -34.7677 1183.3628
-49.8215 119.2667 -34.7755 1184.3649
-49.3974 120.1745 -34.7832 1185.3668
-48.9732 121.0822 -34.7908 1186.3688
-48.5488 121.9899 -34.7981 1187.3708
-48.1242 122.8974 -34.8052 1188.3728
-47.6995 123.8051 -34.8120 1189.3749
-47.2746 124.7124 -34.8185 1190.3768
-46.8494 125.6197 -34.8247 1191.3788
-46.4239 126.5269 -34.8307 1192.3809
-45.9984 127.4340 -34.8363 1193.3828
-45.5732 128.3411 -34.8416 1194.3848
-45.1487 129.2489 -34.8465 1195.3868
-44.7259 130.1573 -34.8512 1196.3888
-44.3048 131.0665 -34.8554 1197.3909
-43.8856 131.9766 -34.8593 1198.3928
-43.4686 132.8876 -34.8628 1199.3948
-43.0537 133.7997 -34.8659 1200.3969
-42.6406 134.7126 -34.8685 1201.3988
-42.2287 135.6261 -34.8706 1202.4009
-41.8172 136.5397 -34.8722 1203.4028
-41.4053 137.4531 -34.8734 1204.4048
-40.9923 138.3661 -34.8740 1205.4069
-40.5779 139.2783 -34.8741 1206.4088
-40.1619 140.1899 -34.8737 1207.4109
-39.7443 141.1007 -34.8728 1208.4128
-39.3257 142.0110 -34.8713 1209.4148
-38.9065 142.9212 -34.8693 1210.4169
-38.4876 143.8314 -34.8667 1211.4188
-38.0695 144.7419 -34.8635 1212.4208
-37.6522 145.6530 -34.8598 1213.4229
-37.2361 146.5644 -34.8556 1214.4248
-36.8208 147.4764 -34.8508 1215.4269
-36.4061 148.3885 -34.8457 1216.4288
-35.9913 149.3005 -34.8401 1217.4308
-35.5753 150.2122 -34.8343 1218.4329
-35.1577 151.1229 -34.8283 1219.4348
-34.7376 152.0327 -34.8222 1220.4369
-34.3151 152.9411 -34.8161 1221.4388
-33.8902 153.8485 -34.8100 1222.4408
-33.4633 154.7551 -34.8040 1223.4429
-33.0354 155.6611 -34.7981 1224.4448
-32.6078 156.5673 -34.7923 1225.4469
-32.1817 157.4741 -34.7867 1226.4489
-31.7577 158.3820 -34.7813 1227.4508
-31.3359 159.2909 -34.7761 1228.4529
-30.9161 160.2006 -34.7711 1229.4548
-30.4975 161.1109 -34.7663 1230.4568
-30.0792 162.0215 -34.7618 1231.4589
-29.6601 162.9316 -34.7575 1232.4608
-29.2394 163.8411 -34.7534 1233.4629
-28.8168 164.7495 -34.7496 1234.4648
-28.3924 165.6572 -34.7460 1235.4668
-27.9666 166.5643 -34.7426 1236.4689
-27.5402 167.4709 -34.7394 1237.4708
-27.1134 168.3776 -34.7365 1238.4729
-26.6866 169.2840 -34.7337 1239.4749
-26.2593 170.1904 -34.7312 1240.4768
-25.8316 171.0965 -34.7289 1241.4789
-25.4032 172.0023 -34.7269 1242.4808
-24.9743 172.9080 -34.7251 1243.4829
-24.5453 173.8134 -34.7235 1244.4849
-24.1166 174.7191 -34.7221 1245.4868
-23.6890 175.6253 -34.7208 1246.4889
-23.2626 176.5320 -34.7197 1247.4908
-22.8376 177.4395 -34.7186 1248.4929
-22.4135 178.3473 -34.7175 1249.4949
-21.9898 179.2553 -34.7164 1250.4968
-21.5658 180.1632 -34.7151 1251.4989
-21.1413 181.0708 -34.7138 1252.5009
-20.7161 181.9780 -34.7122 1253.5028
-20.2904 182.8851 -34.7103 1254.5049
-19.8647 183.7921 -34.7081 1255.5068
-19.4394 184.6995 -34.7055 1256.5089
-19.0151 185.6071 -34.7023 1257.5109
-18.5918 186.5154 -34.6986 1258.5128
-18.1697 187.4241 -34.6942 1259.5149
-17.7481 188.3331 -34.6891 1260.5168
-17.3266 189.2422 -34.6834 1261.5189
-16.9048 190.1510 -34.6768 1262.5209
-16.4825 191.0596 -34.6696 1263.5228
-16.0594 191.9678 -34.6616 1264.5249
-15.6355 192.8757 -34.6529 1265.5269
-15.2110 193.7834 -34.6436 1266.5289
-14.7858 194.6906 -34.6336 1267.5309
-14.3601 195.5977 -34.6229 1268.5328
-13.9341 196.5045 -34.6117 1269.5349
-13.5081 197.4113 -34.6000 1270.5369
-13.0824 198.3182 -34.5877 1271.5388
-12.6572 199.2256 -34.5750 1272.5409
-12.2330 200.1333 -34.5618 1273.5428
-11.8095 201.0413 -34.5481 1274.5449
-11.3864 201.9494 -34.5341 1275.5469
-10.9631 202.8574 -34.5196 1276.5488
-10.5394 203.7653 -34.5046 1277.5509
-10.1152 204.6730 -34.4893 1278.5529
-9.6909 205.5806 -34.4735 1279.5549
-9.2663 206.4881 -34.4572 1280.5569
-8.8417 207.3955 -34.4404 1281.5588
-8.4171 208.3030 -34.4232 1282.5609
-7.9930 209.2106 -34.4055 1283.5629
-7.5695 210.1185 -34.3873 1284.5649
-7.1462 211.0265 -34.3686 1285.5669
-6.7227 211.9344 -34.3494 1286.5688
-6.2988 212.8422 -34.3298 1287.5709
-5.8744 213.7496 -34.3098 1288.5729
-5.4495 214.6567 -34.2893 1289.5748
-5.0236 215.5636 -34.2686 1290.5769
-4.5969 216.4698 -34.2474 1291.5789
-4.1691 217.3758 -34.2260 1292.5809
-3.7405 218.2812 -34.2044 1293.5829
-3.3111 219.1861 -34.1824 1294.5848
-2.8813 220.0911 -34.1603 1295.5869
-2.4516 220.9959 -34.1379 1296.5889
-2.0225 221.9013 -34.1154 1297.5909
-1.5948 222.8071 -34.0927 1298.5929
-1.1686 223.7136 -34.0699 1299.5948
-0.7439 224.6210 -34.0469 1300.5969
-0.3204 225.5286 -34.0237 1301.5989
0.1025 226.4368 -34.0003 1302.6010
0.5246 227.3452 -33.9766 1303.6029
0.9460 228.2539 -33.9527 1304.6049
1.3668 229.1631 -33.9284 1305.6069
1.7866 230.0724 -33.9038 1306.6089
2.2055 230.9823 -33.8787 1307.6108
2.6233 231.8928 -33.8532 1308.6129
3.0400 232.8036 -33.8273 1309.6149
3.4562 233.7148 -33.8010 1310.6169
3.8726 234.6258 -33.7744 1311.6189
4.2898 235.5363 -33.7475 1312.6208
4.7085 236.4463 -33.7203 1313.6229
5.1288 237.3554 -33.6928 1314.6249
5.5504 238.2640 -33.6651 1315.6270
5.9729 239.1722 -33.6372 1316.6289
6.3956 240.0802 -33.6089 1317.6309
6.8182 240.9883 -33.5804 1318.6329
7.2405 241.8965 -33.5514 1319.6349
7.6627 242.8047 -33.5221 1320.6370
8.0851 243.7128 -33.4922 1321.6389
8.5077 244.6208 -33.4619 1322.6409
8.9308 245.5287 -33.4309 1323.6429
9.3543 246.4362 -33.3993 1324.6449
9.7783 247.3434 -33.3670 1325.6470
10.2027 248.2506 -33.3340 1326.6489
10.6274 249.1574 -33.3004 1327.6509
11.0522 250.0644 -33.2662 1328.6530
11.4768 250.9713 -33.2314 1329.6549
11.9006 251.8784 -33.1962 1330.6569
12.3238 252.7861 -33.1606 1331.6589
12.7461 253.6940 -33.1247 1332.6609
13.1683 254.6021 -33.0886 1333.6630
13.5910 255.5098 -33.0524 1334.6649
14.0148 256.4169 -33.0161 1335.6669
14.4401 257.3236 -32.9798 1336.6689
14.8668 258.2294 -32.9435 1337.6709
15.2950 259.1346 -32.9071 1338.6730
15.7243 260.0392 -32.8706 1339.6749
16.1542 260.9435 -32.8341 1340.6769
16.5836 261.8482 -32.7974 1341.6790
17.0114 262.7535 -32.7605 1342.6809
17.4374 263.6598 -32.7234 1343.6830
17.8613 264.5668 -32.6860 1344.6849
18.2836 265.4746 -32.6483 1345.6869
18.7050 266.3831 -32.6104 1346.6890
19.1256 267.2916 -32.5723 1347.6909
19.5464 268.2001 -32.5341 1348.6929
19.9677 269.1086 -32.4957 1349.6949
20.3896 270.0165 -32.4574 1350.6969
20.8120 270.9244 -32.4191 1351.6990
21.2348 271.8320 -32.3809 1352.7009
21.6577 272.7396 -32.3429 1353.7029
22.0805 273.6471 -32.3051 1354.7050
22.5033 274.5549 -32.2676 1355.7069
22.9262 275.4626 -32.2304 1356.7090
23.3492 276.3700 -32.1936 1357.7109
23.7726 277.2775 -32.1572 1358.7129
24.1960 278.1849 -32.1212 1359.7150
24.6192 279.0925 -32.0857 1360.7169
25.0419 280.0003 -32.0507 1361.7190
25.4640 280.9084 -32.0161 1362.7209
25.8853 281.8168 -31.9821 1363.7229
26.3063 282.7255 -31.9485 1364.7250
26.7274 283.6342 -31.9155 1365.7269
27.1499 284.5421 -31.8830 1366.7289
27.5740 285.4494 -31.8509 1367.7310
28.0003 286.3556 -31.8193 1368.7329
28.4296 287.2606 -31.7880 1369.7350
28.8621 288.1638 -31.7570 1370.7369
29.2983 289.0653 -31.7263 1371.7389
29.7384 289.9650 -31.6959 1372.7410
30.1834 290.8623 -31.6657 1373.7429
30.6342 291.7567 -31.6358 1374.7450
31.0920 292.6474 -31.6060 1375.7469
31.5576 293.5341 -31.5765 1376.7489
32.0323 294.4161 -31.5471 1377.7510
32.5166 295.2928 -31.5179 1378.7529
33.0111 296.1638 -31.4888 1379.7550
33.5161 297.0287 -31.4599 1380.7570
34.0320 297.8871 -31.4313 1381.7589
34.5591 298.7390 -31.4028 1382.7610
35.0975 299.5836 -31.3747 1383.7629
35.6478 300.4203 -31.3471 1384.7649
36.2112 301.2486 -31.3199 1385.7670
36.7886 302.0670 -31.2934 1386.7689
37.3804 302.8752 -31.2676 1387.7710
37.9867 303.6725 -31.2425 1388.7729
38.6076 304.4585 -31.2182 1389.7749
39.2428 305.2331 -31.1948 1390.7770
39.8922 305.9958 -31.1723 1391.7789
40.5560 306.7462 -31.1506 1392.7810
41.2339 307.4837 -31.1297 1393.7830
41.9260 308.2079 -31.1097 1394.7849
42.6322 308.9186 -31.0906 1395.7870
43.3514 309.6159 -31.0722 1396.7889
44.0828 310.3006 -31.0546 1397.7910
44.8257 310.9725 -31.0378 1398.7930
45.5801 311.6319 -31.0216 1399.7949
46.3453 312.2787 -31.0060 1400.7970
47.1213 312.9123 -30.9911 1401.7990
47.9082 313.5324 -30.9768 1402.8010
48.7060 314.1385 -30.9630 1403.8030
49.5145 314.7302 -30.9498 1404.8049
50.3335 315.3074 -30.9372 1405.8070
51.1621 315.8705 -30.9251 1406.8090
51.9997 316.4204 -30.9134 1407.8109
52.8457 316.9572 -30.9023 1408.8130
53.6998 317.4808 -30.8917 1409.8149
54.5619 317.9916 -30.8815 1410.8170
55.4314 318.4893 -30.8718 1411.8190
56.3081 318.9743 -30.8626 1412.8209
57.1915 319.4471 -30.8537 1413.8229
58.0812 319.9079 -30.8452 1414.8250
58.9770 320.3568 -30.8370 1415.8269
59.8791 320.7930 -30.8292 1416.8290
60.7871 321.2165 -30.8217 1417.8309
61.7009 321.6273 -30.8145 1418.8329
62.6205 322.0255 -30.8076 1419.8350
63.5457 322.4100 -30.8008 1420.8369
64.4767 322.7800 -30.7943 1421.8389
65.4139 323.1348 -30.7878 1422.8409
66.3568 323.4738 -30.7814 1423.8429
67.3054 323.7964 -30.7750 1424.8450
68.2595 324.1020 -30.7685 1425.8469
69.2193 324.3900 -30.7618 1426.8489
70.1842 324.6599 -30.7550 1427.8510
71.1542 324.9107 -30.7481 1428.8529
72.1291 325.1428 -30.7409 1429.8550
73.1079 325.3560 -30.7336 1430.8569
74.0907 325.5514 -30.7262 1431.8589
75.0769 325.7290 -30.7187 1432.8610
76.0659 325.8893 -30.7112 1433.8629
77.0574 326.0331 -30.7038 1434.8650
78.0513 326.1605 -30.6965 1435.8669
79.0470 326.2713 -30.6894 1436.8689
80.0447 326.3656 -30.6825 1437.8710
81.0435 326.4427 -30.6759 1438.8729
82.0438 326.5023 -30.6697 1439.8750
83.0449 326.5441 -30.6637 1440.8770
84.0465 326.5686 -30.6580 1441.8789
85.0485 326.5777 -30.6527 1442.8810
86.0505 326.5732 -30.6475 1443.8829
87.0523 326.5578 -30.6427 1444.8849
88.0540 326.5329 -30.6380 1445.8870
89.0555 326.5009 -30.6334 1446.8889
90.0568 326.4631 -30.6290 1447.8910
91.0579 326.4209 -30.6246 1448.8929
92.0587 326.3753 -30.6203 1449.8949
93.0596 326.3268 -30.6161 1450.8970
94.0604 326.2766 -30.6119 1451.8989
95.0612 326.2253 -30.6077 1452.9010
96.0618 326.1747 -30.6036 1453.9030
97.0625 326.1253 -30.5994 1454.9049
98.0634 326.0779 -30.5952 1455.9070
99.0643 326.0324 -30.5911 1456.9089
100.0655 325.9886 -30.5870 1457.9110
101.0665 325.9457 -30.5830 1458.9130
102.0675 325.9025 -30.5790 1459.9149
103.0686 325.8578 -30.5752 1460.9170
104.0695 325.8112 -30.5714 1461.9189
105.0702 325.7627 -30.5677 1462.9209
106.0710 325.7126 -30.5641 1463.9230
107.0717 325.6617 -30.5605 1464.9249
108.0725 325.6104 -30.5570 1465.9270
109.0731 325.5592 -30.5535 1466.9290
110.0737 325.5081 -30.5500 1467.9309
111.0744 325.4568 -30.5466 1468.9330
112.0751 325.4050 -30.5432 1469.9349
113.0758 325.3526 -30.5399 1470.9370
114.0763 325.2997 -30.5367 1471.9390
115.0769 325.2471 -30.5336 1472.9409
116.0776 325.1951 -30.5305 1473.9430
117.0782 325.1444 -30.5277 1474.9449
118.0791 325.0951 -30.5249 1475.9470
119.0800 325.0476 -30.5224 1476.9490
120.0809 325.0019 -30.5200 1477.9509
121.0819 324.9572 -30.5180 1478.9530
122.0829 324.9129 -30.5162 1479.9550
123.0839 324.8682 -30.5147 1480.9569
124.0849 324.8223 -30.5136 1481.9590
125.0857 324.7743 -30.5128 1482.9609
126.0865 324.7242 -30.5123 1483.9630
127.0871 324.6727 -30.5122 1484.9650
128.0877 324.6206 -30.5123 1485.9669
129.0884 324.5684 -30.5127 1486.9690
130.0891 324.5165 -30.5134 1487.9709
131.0898 324.4650 -30.5142 1488.9730
132.0905 324.4145 -30.5151 1489.9750
133.0912 324.3647 -30.5162 1490.9769
134.0920 324.3151 -30.5174 1491.9790
135.0928 324.2651 -30.5187 1492.9810
136.0936 324.2148 -30.5201 1493.9830
137.0943 324.1643 -30.5216 1494.9850
138.0950 324.1146 -30.5231 1495.9869
139.0958 324.0662 -30.5248 1496.9890
140.0967 324.0197 -30.5266 1497.9910
141.0977 323.9753 -30.5285 1498.9929
142.0989 323.9328 -30.5304 1499.9950
143.1000 323.8914 -30.5325 1500.9969
144.1013 323.8502 -30.5348 1501.9990
145.1023 323.8076 -30.5372 1503.0010
146.1032 323.7629 -30.5397 1504.0029
147.1041 323.7158 -30.5424 1505.0050
148.1049 323.6662 -30.5452 1506.0070
149.1056 323.6147 -30.5480 1507.0090
150.1062 323.5626 -30.5508 1508.0110
151.1068 323.5105 -30.5537 1509.0129
152.1075 323.4590 -30.5564 1510.0150
153.1082 323.4082 -30.5590 1511.0170
154.1090 323.3583 -30.5614 1512.0190
155.1098 323.3088 -30.5637 1513.0210
156.1105 323.2593 -30.5659 1514.0229
157.1114 323.2094 -30.5679 1515.0250
158.1120 323.1588 -30.5698 1516.0270
159.1127 323.1074 -30.5717 1517.0291
160.1134 323.0557 -30.5736 1518.0310
161.1140 323.0046 -30.5755 1519.0330
162.1148 322.9549 -30.5775 1520.0350
163.1156 322.9069 -30.5796 1521.0370
164.1166 322.8603 -30.5819 1522.0389
165.1176 322.8143 -30.5845 1523.0410
166.1184 322.7681 -30.5874 1524.0430
167.1193 322.7206 -30.5906 1525.0450
168.1201 322.6707 -30.5942 1526.0470
169.1206 322.6177 -30.5981 1527.0490
170.1211 322.5616 -30.6023 1528.0510
171.1214 322.5035 -30.6067 1529.0530
172.1217 322.4445 -30.6113 1530.0551
173.1219 322.3855 -30.6161 1531.0570
174.1222 322.3270 -30.6209 1532.0590
175.1225 322.2685 -30.6257 1533.0610
176.1227 322.2092 -30.6305 1534.0630
177.1228 322.1472 -30.6353 1535.0651
178.1225 322.0798 -30.6401 1536.0670
179.1216 322.0047 -30.6449 1537.0690
180.1200 321.9203 -30.6497 1538.0710
181.1175 321.8255 -30.6545 1539.0730
182.1140 321.7203 -30.6594 1540.0750
183.1093 321.6052 -30.6645 1541.0770
184.1034 321.4800 -30.6697 1542.0790
185.0964 321.3446 -30.6751 1543.0811
186.0876 321.1990 -30.6807 1544.0830
187.0772 321.0426 -30.6866 1545.0850
188.0651 320.8743 -30.6926 1546.0870
189.0505 320.6932 -30.6988 1547.0890
190.0333 320.4977 -30.7052 1548.0911
191.0125 320.2856 -30.7119 1549.0930
191.9878 320.0561 -30.7188 1550.0950
192.9587 319.8084 -30.7259 1551.0970
193.9245 319.5420 -30.7333 1552.0990
194.8851 319.2566 -30.7409 1553.1011
195.8396 318.9522 -30.7489 1554.1030
196.7881 318.6292 -30.7571 1555.1050
197.7302 318.2882 -30.7656 1556.1071
198.6658 317.9296 -30.7744 1557.1090
199.5947 317.5540 -30.7833 1558.1110
200.5166 317.1618 -30.7924 1559.1130
201.4315 316.7531 -30.8017 1560.1150
202.3391 316.3284 -30.8110 1561.1171
203.2391 315.8883 -30.8204 1562.1190
204.1314 315.4328 -30.8299 1563.1210
205.0163 314.9625 -30.8393 1564.1230
205.8932 314.4781 -30.8486 1565.1250
206.7626 313.9798 -30.8579 1566.1271
207.6240 313.4681 -30.8671 1567.1290
208.4774 312.9433 -30.8762 1568.1310
209.3231 312.4059 -30.8852 1569.1331
210.1612 311.8568 -30.8941 1570.1350
210.9921 311.2967 -30.9029 1571.1371
211.8163 310.7271 -30.9116 1572.1390
212.6345 310.1488 -30.9203 1573.1410
213.4474 309.5628 -30.9289 1574.1431
214.2549 308.9698 -30.9374 1575.1450
215.0576 308.3703 -30.9460 1576.1470
215.8557 307.7642 -30.9545 1577.1490
216.6487 307.1521 -30.9630 1578.1510
217.4371 306.5336 -30.9715 1579.1531
218.2206 305.9090 -30.9801 1580.1550
218.9994 305.2789 -30.9887 1581.1570
219.7747 304.6439 -30.9974 1582.1591
220.5467 304.0053 -31.0061 1583.1610
221.3164 303.3637 -31.0149 1584.1631
222.0843 302.7201 -31.0236 1585.1650
222.8506 302.0749 -31.0325 1586.1670
223.6164 301.4285 -31.0414 1587.1691
224.3814 300.7815 -31.0504 1588.1710
225.1463 300.1342 -31.0594 1589.1731
225.9109 299.4868 -31.0686 1590.1750
226.6758 298.8396 -31.0780 1591.1770
227.4411 298.1926 -31.0875 1592.1791
228.2071 297.5469 -31.0972 1593.1810
228.9741 296.9022 -31.1071 1594.1831
229.7419 296.2586 -31.1173 1595.1851
230.5103 295.6156 -31.1276 1596.1870
231.2790 294.9728 -31.1383 1597.1891
232.0472 294.3297 -31.1493 1598.1910
232.8146 293.6855 -31.1605 1599.1930
233.5810 293.0400 -31.1721 1600.1951
234.3464 292.3935 -31.1840 1601.1970
235.1113 291.7464 -31.1962 1602.1991
235.8762 291.0994 -31.2087 1603.2010
236.6418 290.4530 -31.2214 1604.2030
237.4086 289.8080 -31.2343 1605.2051
238.1766 289.1646 -31.2474 1606.2070
238.9458 288.5227 -31.2607 1607.2091
239.7160 287.8819 -31.2741 1608.2111
240.4866 287.2416 -31.2877 1609.2130
241.2573 286.6014 -31.3015 1610.2151
242.0277 285.9608 -31.3154 1611.2170
242.7976 285.3196 -31.3294 1612.2191
243.5671 284.6780 -31.3436 1613.2211
244.3362 284.0359 -31.3579 1614.2230
245.1051 283.3936 -31.3724 1615.2251
245.8738 282.7511 -31.3870 1616.2271
246.6423 282.1083 -31.4017 1617.2290
247.4100 281.4646 -31.4166 1618.2311
248.1765 280.8195 -31.4317 1619.2330
248.9411 280.1720 -31.4470 1620.2351
249.7033 279.5217 -31.4626 1621.2371
250.4632 278.8689 -31.4784 1622.2390
251.2216 278.2141 -31.4945 1623.2411
251.9793 277.5586 -31.5110 1624.2430
252.7371 276.9031 -31.5277 1625.2451
253.4957 276.2490 -31.5447 1626.2471
254.2559 275.5966 -31.5620 1627.2490
255.0185 274.9466 -31.5795 1628.2511
255.7830 274.2991 -31.5972 1629.2531
256.5493 273.6538 -31.6150 1630.2551
257.3166 273.0096 -31.6329 1631.2571
258.0840 272.3656 -31.6509 1632.2590
258.8511 271.7213 -31.6689 1633.2611
259.6176 271.0762 -31.6868 1634.2631
260.3833 270.4302 -31.7046 1635.2650
261.1486 269.7834 -31.7222 1636.2671
261.9133 269.1363 -31.7395 1637.2690
262.6783 268.4893 -31.7566 1638.2711
263.4438 267.8430 -31.7735 1639.2731
264.2098 267.1975 -31.7902 1640.2750
264.9770 266.5531 -31.8066 1641.2771
265.7454 265.9101 -31.8230 1642.2791
266.5150 265.2687 -31.8394 1643.2811
267.2858 264.6287 -31.8558 1644.2831
268.0574 263.9897 -31.8725 1645.2850
268.8293 263.3510 -31.8894 1646.2871
269.6010 262.7121 -31.9067 1647.2891
270.3721 262.0724 -31.9243 1648.2911
271.1425 261.4320 -31.9423 1649.2931
271.9124 260.7912 -31.9606 1650.2950
272.6825 260.1502 -31.9791 1651.2971
273.4528 259.5096 -31.9976 1652.2991
274.2234 258.8695 -32.0161 1653.3011
274.9946 258.2300 -32.0343 1654.3031
275.7663 257.5913 -32.0522 1655.3051
276.5384 256.9526 -32.0697 1656.3071
277.3099 256.3137 -32.0867 1657.3091
278.0802 255.6732 -32.1032 1658.3110
278.8487 255.0302 -32.1193 1659.3131
279.6144 254.3842 -32.1349 1660.3151
280.3773 253.7347 -32.1501 1661.3171
281.1368 253.0813 -32.1648 1662.3191
281.8930 252.4240 -32.1793 1663.3210
282.6456 251.7626 -32.1935 1664.3231
283.3943 251.0970 -32.2076 1665.3251
284.1388 250.4263 -32.2217 1666.3271
284.8780 249.7502 -32.2359 1667.3291
285.6113 249.0675 -32.2503 1668.3311
286.3373 248.3770 -32.2649 1669.3331
287.0541 247.6771 -32.2797 1670.3351
287.7591 246.9650 -32.2948 1671.3372
288.4492 246.2389 -32.3101 1672.3391
289.1219 245.4965 -32.3257 1673.3411
289.7744 244.7361 -32.3413 1674.3431
290.4040 243.9570 -32.3571 1675.3451
291.0092 243.1587 -32.3730 1676.3470
291.5883 242.3411 -32.3890 1677.3491
292.1406 241.5053 -32.4051 1678.3511
292.6653 240.6518 -32.4212 1679.3531
293.1614 239.7814 -32.4375 1680.3551
293.6274 238.8948 -32.4541 1681.3571
294.0614 237.9917 -32.4709 1682.3591
294.4602 237.0728 -32.4881 1683.3611
294.8209 236.1381 -32.5057 1684.3632
295.1410 235.1889 -32.5238 1685.3651
295.4187 234.2265 -32.5424 1686.3671
295.6545 233.2528 -32.5614 1687.3691
295.8495 232.2702 -32.5807 1688.3711
296.0065 231.2809 -32.6003 1689.3732
296.1279 230.2866 -32.6200 1690.3751
296.2156 229.2886 -32.6396 1691.3771
296.2706 228.2883 -32.6591 1692.3792
296.2930 227.2868 -32.6784 1693.3811
296.2828 226.2852 -32.6971 1694.3831
296.2401 225.2842 -32.7154 1695.3851
296.1647 224.2853 -32.7331 1696.3871
296.0575 223.2892 -32.7501 1697.3892
295.9192 222.2970 -32.7665 1698.3911
295.7508 221.3094 -32.7822 1699.3931
295.5531 220.3272 -32.7973 1700.3951
295.3267 219.3513 -32.8118 1701.3971
295.0717 218.3824 -32.8258 1702.3992
294.7880 217.4215 -32.8394 1703.4011
294.4753 216.4697 -32.8525 1704.4031
294.1326 215.5283 -32.8654 1705.4052
293.7603 214.5981 -32.8779 1706.4071
293.3578 213.6806 -32.8902 1707.4092
292.9253 212.7770 -32.9022 1708.4111
292.4624 211.8885 -32.9140 1709.4131
291.9696 211.0160 -32.9255 1710.4152
291.4469 210.1614 -32.9367 1711.4171
290.8939 209.3260 -32.9475 1712.4191
290.3092 208.5124 -32.9579 1713.4211
289.6914 207.7237 -32.9680 1714.4231
289.0415 206.9611 -32.9777 1715.4252
288.3603 206.2264 -32.9870 1716.4271
287.6493 205.5207 -32.9960 1717.4291
286.9110 204.8432 -33.0045 1718.4312
286.1489 204.1929 -33.0125 1719.4331
285.3659 203.5679 -33.0202 1720.4352
284.5646 202.9662 -33.0274 1721.4371
283.7474 202.3866 -33.0342 1722.4391
282.9156 201.8278 -33.0406 1723.4412
282.0710 201.2890 -33.0466 1724.4431
281.2144 200.7689 -33.0523 1725.4452
280.3474 200.2669 -33.0576 1726.4471
279.4710 199.7812 -33.0624 1727.4491
278.5869 199.3095 -33.0668 1728.4512
277.6969 198.8493 -33.0708 1729.4531
276.8022 198.3980 -33.0743 1730.4552
275.9044 197.9532 -33.0774 1731.4572
275.0045 197.5128 -33.0800 1732.4591
274.1031 197.0748 -33.0821 1733.4612
273.2013 196.6383 -33.0838 1734.4631
272.2990 196.2027 -33.0851 1735.4651
271.3964 195.7675 -33.0861 1736.4672
270.4936 195.3328 -33.0867 1737.4691
269.5907 194.8983 -33.0870 1738.4712
268.6878 194.4638 -33.0870 1739.4731
267.7854 194.0284 -33.0867 1740.4751
266.8835 193.5917 -33.0861 1741.4772
265.9824 193.1537 -33.0853 1742.4791
265.0815 192.7150 -33.0843 1743.4812
264.1805 192.2765 -33.0831 1744.4832
263.2794 191.8387 -33.0817 1745.4851
262.3774 191.4018 -33.0802 1746.4872
261.4753 190.9660 -33.0785 1747.4891
260.5726 190.5309 -33.0766 1748.4912
259.6700 190.0959 -33.0747 1749.4932
258.7678 189.6602 -33.0728 1750.4951
257.8661 189.2228 -33.0708 1751.4972
256.9658 188.7832 -33.0688 1752.4991
256.0667 188.3412 -33.0669 1753.5011
255.1685 187.8966 -33.0651 1754.5032
254.2716 187.4501 -33.0633 1755.5051
253.3753 187.0019 -33.0617 1756.5072
252.4797 186.5527 -33.0603 1757.5092
251.5844 186.1031 -33.0589 1758.5111
250.6887 185.6535 -33.0577 1759.5132
249.7930 185.2045 -33.0567 1760.5151
248.8966 184.7564 -33.0557 1761.5172
247.9998 184.3098 -33.0547 1762.5192
247.1021 183.8648 -33.0538 1763.5211
246.2032 183.4217 -33.0529 1764.5232
245.3034 182.9810 -33.0518 1765.5251
244.4021 182.5432 -33.0506 1766.5272
243.4993 182.1086 -33.0493 1767.5292
242.5950 181.6772 -33.0476 1768.5311
241.6894 181.2484 -33.0457 1769.5332
240.7831 180.8210 -33.0435 1770.5352
239.8767 180.3939 -33.0408 1771.5371
238.9708 179.9656 -33.0378 1772.5392
238.0659 179.5353 -33.0344 1773.5411
237.1621 179.1026 -33.0307 1774.5432
236.2593 178.6679 -33.0265 1775.5452
235.3574 178.2318 -33.0221 1776.5471
234.4556 177.7945 -33.0175 1777.5492
233.5545 177.3567 -33.0126 1778.5511
232.6534 176.9182 -33.0076 1779.5532
231.7528 176.4791 -33.0025 1780.5552
230.8527 176.0390 -32.9973 1781.5571
229.9530 175.5979 -32.9922 1782.5592
229.0535 175.1563 -32.9872 1783.5612
228.1542 174.7144 -32.9823 1784.5632
227.2548 174.2730 -32.9776 1785.5652
226.3550 173.8322 -32.9730 1786.5671
225.4548 173.3922 -32.9687 1787.5692
224.5542 172.9527 -32.9647 1788.5712
223.6535 172.5139 -32.9609 1789.5731
222.7525 172.0753 -32.9575 1790.5752
221.8517 171.6367 -32.9544 1791.5771
220.9508 171.1980 -32.9517 1792.5792
220.0500 170.7593 -32.9493 1793.5812
219.1491 170.3209 -32.9473 1794.5831
218.2480 169.8826 -32.9457 1795.5852
217.3470 169.4443 -32.9445 1796.5872
216.4461 169.0054 -32.9437 1797.5892
215.5458 168.5654 -32.9432 1798.5912
214.6463 168.1240 -32.9431 1799.5931
213.7476 167.6810 -32.9435 1800.5952
212.8493 167.2369 -32.9442 1801.5972
211.9516 166.7918 -32.9453 1802.5992
211.0542 166.3463 -32.9469 1803.6012
210.1569 165.9005 -32.9489 1804.6031
209.2594 165.4546 -32.9514 1805.6052
208.3621 165.0087 -32.9544 1806.6072
207.4647 164.5629 -32.9578 1807.6093
206.5673 164.1173 -32.9618 1808.6112
205.6698 163.6719 -32.9664 1809.6132
204.7720 163.2268 -32.9716 1810.6152
203.8742 162.7822 -32.9774 1811.6172
202.9761 162.3380 -32.9838 1812.6191
202.0777 161.8940 -32.9909 1813.6212
201.1795 161.4502 -32.9988 1814.6232
200.2814 161.0057 -33.0074 1815.6252
199.3840 160.5604 -33.0168 1816.6272
198.4872 160.1135 -33.0269 1817.6292
197.5911 159.6650 -33.0378 1818.6312
196.6959 159.2154 -33.0495 1819.6332
195.8007 158.7652 -33.0619 1820.6353
194.9052 158.3158 -33.0750 1821.6372
194.0089 157.8681 -33.0888 1822.6392
193.1114 157.4228 -33.1031 1823.6412
192.2127 156.9799 -33.1182 1824.6432
191.3132 156.5389 -33.1338 1825.6453
190.4131 156.0988 -33.1499 1826.6472
189.5132 155.6585 -33.1666 1827.6492
188.6139 155.2170 -33.1838 1828.6512
187.7157 154.7733 -33.2016 1829.6532
186.8186 154.3272 -33.2198 1830.6552
185.9225 153.8792 -33.2385 1831.6572
185.0270 153.4300 -33.2576 1832.6592
184.1317 152.9805 -33.2772 1833.6613
183.2363 152.5312 -33.2971 1834.6632
182.3409 152.0822 -33.3174 1835.6652
181.4451 151.6335 -33.3382 1836.6672
180.5494 151.1850 -33.3594 1837.6692
179.6537 150.7362 -33.3810 1838.6713
178.7582 150.2872 -33.4030 1839.6732
177.8630 149.8378 -33.4255 1840.6752
176.9678 149.3883 -33.4485 1841.6772
176.0723 148.9392 -33.4720 1842.6792
175.1764 148.4911 -33.4960 1843.6813
174.2798 148.0444 -33.5206 1844.6832
173.3825 147.5992 -33.5457 1845.6852
172.4847 147.1551 -33.5714 1846.6873
171.5867 146.7114 -33.5977 1847.6892
170.6890 146.2673 -33.6246 1848.6912
169.7916 145.8219 -33.6520 1849.6932
168.8951 145.3757 -33.6798 1850.6952
167.9986 144.9287 -33.7082 1851.6973
167.1021 144.4822 -33.7370 1852.6992
166.2051 144.0369 -33.7662 1853.7012
165.3069 143.5933 -33.7957 1854.7032
164.4080 143.1519 -33.8254 1855.7052
163.5079 142.7123 -33.8554 1856.7073
162.6075 142.2740 -33.8854 1857.7092
161.7067 141.8363 -33.9155 1858.7112
160.8059 141.3983 -33.9456 1859.7133
159.9056 140.9595 -33.9757 1860.7152
159.0060 140.5192 -34.0056 1861.7173
158.1071 140.0777 -34.0355 1862.7192
157.2086 139.6352 -34.0653 1863.7212
156.3103 139.1920 -34.0951 1864.7233
155.4124 138.7485 -34.1248 1865.7252
154.5147 138.3045 -34.1546 1866.7272
153.6172 137.8597 -34.1845 1867.7292
152.7203 137.4140 -34.2145 1868.7312
151.8239 136.9671 -34.2446 1869.7333
150.9283 136.5191 -34.2750 1870.7352
150.0330 136.0703 -34.3057 1871.7372
149.1378 135.6211 -34.3366 1872.7393
148.2424 135.1724 -34.3677 1873.7412
147.3464 134.7249 -34.3992 1874.7433
146.4497 134.2790 -34.4310 1875.7452
145.5521 133.8350 -34.4631 1876.7472
144.6535 133.3926 -34.4955 1877.7493
143.7544 132.9517 -34.5281 1878.7512
142.8547 132.5116 -34.5611 1879.7533
141.9550 132.0717 -34.5942 1880.7552
141.0555 131.6317 -34.6276 1881.7572
140.1561 131.1912 -34.6610 1882.7593
139.2570 130.7502 -34.6945 1883.7612
138.3580 130.3090 -34.7280 1884.7633
137.4590 129.8679 -34.7612 1885.7653
136.5597 129.4273 -34.7942 1886.7672
135.6600 128.9873 -34.8268 1887.7693
134.7598 128.5483 -34.8589 1888.7712
133.8594 128.1101 -34.8903 1889.7732
132.9586 127.6722 -34.9210 1890.7753
132.0579 127.2341 -34.9507 1891.7772
131.1575 126.7953 -34.9795 1892.7793
130.2576 126.3555 -35.0073 1893.7812
129.3583 125.9147 -35.0339 1894.7832
128.4594 125.4726 -35.0593 1895.7853
127.5612 125.0292 -35.0836 1896.7872
126.6637 124.5842 -35.1067 1897.7893
125.7669 124.1378 -35.1287 1898.7913
124.8707 123.6903 -35.1496 1899.7932
123.9745 123.2424 -35.1694 1900.7953
123.0783 122.7946 -35.1881 1901.7972
122.1816 122.3476 -35.2059 1902.7993
121.2847 121.9016 -35.2228 1903.8013
120.3871 121.4565 -35.2387 1904.8032
119.4892 121.0117 -35.2537 1905.8053
118.5917 120.5666 -35.2679 1906.8073
117.6945 120.1209 -35.2812 1907.8092
116.7975 119.6742 -35.2936 1908.8113
115.9012 119.2266 -35.3051 1909.8132
115.0051 118.7780 -35.3158 1910.8153
114.1096 118.3288 -35.3256 1911.8173
113.2141 117.8796 -35.3346 1912.8192
112.3179 117.4312 -35.3428 1913.8213
111.4213 116.9842 -35.3501 1914.8232
110.5239 116.5383 -35.3567 1915.8253
109.6261 116.0934 -35.3625 1916.8273
108.7280 115.6495 -35.3676 1917.8292
107.8293 115.2061 -35.3721 1918.8313
106.9305 114.7635 -35.3759 1919.8333
106.0311 114.3215 -35.3791 1920.8353
105.1316 113.8803 -35.3819 1921.8373
104.2315 113.4399 -35.3842 1922.8392
103.3308 113.0007 -35.3860 1923.8413
102.4296 112.5628 -35.3875 1924.8433
101.5281 112.1256 -35.3886 1925.8452
100.6264 111.6886 -35.3895 1926.8473
99.7247 111.2515 -35.3902 1927.8492
98.8230 110.8143 -35.3906 1928.8513
97.9214 110.3773 -35.3909 1929.8533
97.0197 109.9405 -35.3909 1930.8552
96.1179 109.5035 -35.3908 1931.8573
95.2166 109.0659 -35.3904 1932.8593
94.3155 108.6276 -35.3899 1933.8613
93.4151 108.1879 -35.3891 1934.8633
92.5157 107.7463 -35.3882 1935.8652
91.6176 107.3019 -35.3872 1936.8673
90.7213 106.8541 -35.3860 1937.8693
89.8270 106.4020 -35.3848 1938.8713
88.9351 105.9455 -35.3835 1939.8733
88.0456 105.4842 -35.3822 1940.8752
87.1586 105.0180 -35.3809 1941.8773
86.2744 104.5467 -35.3797 1942.8793
85.3932 104.0701 -35.3785 1943.8812
84.5149 103.5875 -35.3775 1944.8833
83.6401 103.0989 -35.3765 1945.8853
82.7691 102.6034 -35.3758 1946.8873
81.9026 102.1005 -35.3752 1947.8893
81.0409 101.5892 -35.3748 1948.8912
80.1845 101.0688 -35.3746 1949.8933
79.3344 100.5386 -35.3747 1950.8953
78.4910 99.9976 -35.3750 1951.8973
77.6549 99.4454 -35.3755 1952.8993
76.8265 98.8816 -35.3762 1953.9012
76.0062 98.3063 -35.3771 1954.9033
75.1943 97.7191 -35.3781 1955.9053
74.3910 97.1199 -35.3794 1956.9073
73.5972 96.5087 -35.3808 1957.9093
72.8130 95.8851 -35.3825 1958.9113
72.0386 95.2491 -35.3844 1959.9133
71.2748 94.6007 -35.3866 1960.9153
70.5212 93.9402 -35.3892 1961.9174
69.7782 93.2681 -35.3921 1962.9193
69.0457 92.5845 -35.3953 1963.9213
68.3236 91.8896 -35.3990 1964.9233
67.6128 91.1836 -35.4031 1965.9253
66.9133 90.4662 -35.4077 1966.9272
66.2257 89.7373 -35.4129 1967.9293
65.5505 88.9970 -35.4187 1968.9313
64.8880 88.2452 -35.4251 1969.9333
64.2384 87.4825 -35.4320 1970.9353
63.6016 86.7089 -35.4396 1971.9373
62.9778 85.9247 -35.4478 1972.9393
62.3671 85.1305 -35.4565 1973.9413
61.7691 84.3264 -35.4657 1974.9434
61.1835 83.5134 -35.4754 1975.9453
60.6094 82.6923 -35.4854 1976.9473
60.0460 81.8638 -35.4958 1977.9493
59.4928 81.0284 -35.5065 1978.9513
