VERSION 0.7
FIELDS x y z lapdistance
SIZE 4 4 4 4
TYPE F F F F
COUNT 1 1 1 1
WIDTH 1315
HEIGHT 1
VIEWPOINT 0.000 0.000 0.000 1.000 0.000 0.000 0.000
POINTS 1315
DATA ascii
-82.9379 81.5398 -34.2902 1154.4070
-82.2629 82.2804 -34.2961 1155.4091
-81.5939 83.0263 -34.3024 1156.4111
-80.9308 83.7776 -34.3090 1157.4132
-80.2737 84.5342 -34.3158 1158.4153
-79.6226 85.2958 -34.3230 1159.4174
-78.9773 86.0626 -34.3305 1160.4196
-78.3386 86.8347 -34.3383 1161.4216
-77.7066 87.6123 -34.3463 1162.4237
-77.0813 88.3954 -34.3544 1163.4258
-76.4625 89.1835 -34.3627 1164.4279
-75.8504 89.9768 -34.3711 1165.4299
-75.2457 90.7758 -34.3795 1166.4320
-74.6493 91.5810 -34.3878 1167.4341
-74.0617 92.3929 -34.3960 1168.4363
-73.4835 93.2113 -34.4041 1169.4384
-72.9148 94.0363 -34.4119 1170.4404
-72.3560 94.8681 -34.4194 1171.4425
-71.8075 95.7065 -34.4267 1172.4446
-71.2689 96.5516 -34.4337 1173.4467
-70.7399 97.4027 -34.4404 1174.4487
-70.2206 98.2597 -34.4467 1175.4508
-69.7106 99.1222 -34.4528 1176.4529
-69.2091 99.9899 -34.4585 1177.4551
-68.7158 100.8621 -34.4640 1178.4572
-68.2303 101.7386 -34.4692 1179.4592
-67.7523 102.6194 -34.4741 1180.4613
-67.2812 103.5039 -34.4788 1181.4634
-66.8163 104.3915 -34.4833 1182.4655
-66.3572 105.2822 -34.4877 1183.4675
-65.9035 106.1757 -34.4920 1184.4696
-65.4546 107.0715 -34.4963 1185.4717
-65.0096 107.9695 -34.5005 1186.4739
-64.5681 108.8691 -34.5050 1187.4760
-64.1299 109.7702 -34.5096 1188.4780
-63.6945 110.6728 -34.5145 1189.4801
-63.2615 111.5764 -34.5198 1190.4822
-62.8305 112.4811 -34.5255 1191.4843
-62.4012 113.3866 -34.5316 1192.4863
-61.9737 114.2928 -34.5382 1193.4884
-61.5475 115.1998 -34.5453 1194.4906
-61.1224 116.1072 -34.5528 1195.4927
-60.6985 117.0152 -34.5607 1196.4948
-60.2759 117.9237 -34.5688 1197.4968
-59.8543 118.8328 -34.5772 1198.4989
-59.4338 119.7423 -34.5857 1199.5010
-59.0140 120.6522 -34.5943 1200.5031
-58.5948 121.5624 -34.6028 1201.5051
-58.1760 122.4727 -34.6111 1202.5072
-57.7575 123.3833 -34.6193 1203.5094
-57.3390 124.2937 -34.6272 1204.5115
-56.9203 125.2041 -34.6348 1205.5135
-56.5010 126.1143 -34.6420 1206.5156
-56.0809 127.0240 -34.6488 1207.5177
-55.6596 127.9332 -34.6552 1208.5198
-55.2373 128.8420 -34.6611 1209.5219
-54.8148 129.7505 -34.6665 1210.5239
-54.3924 130.6592 -34.6714 1211.5260
-53.9706 131.5683 -34.6757 1212.5282
-53.5493 132.4775 -34.6794 1213.5303
-53.1286 133.3869 -34.6826 1214.5323
-52.7077 134.2964 -34.6853 1215.5344
-52.2863 135.2055 -34.6873 1216.5365
-51.8643 136.1145 -34.6889 1217.5386
-51.4421 137.0231 -34.6900 1218.5406
-51.0193 137.9318 -34.6905 1219.5427
-50.5960 138.8401 -34.6907 1220.5449
-50.1723 139.7482 -34.6905 1221.5470
-49.7487 140.6564 -34.6899 1222.5491
-49.3256 141.5647 -34.6890 1223.5511
-48.9032 142.4734 -34.6879 1224.5532
-48.4816 143.3826 -34.6865 1225.5553
-48.0609 144.2920 -34.6850 1226.5574
-47.6409 145.2018 -34.6833 1227.5594
-47.2212 146.1118 -34.6815 1228.5615
-46.8015 147.0218 -34.6796 1229.5637
-46.3819 147.9319 -34.6777 1230.5658
-45.9625 148.8419 -34.6758 1231.5679
-45.5433 149.7520 -34.6739 1232.5699
-45.1243 150.6623 -34.6720 1233.5720
-44.7054 151.5727 -34.6702 1234.5741
-44.2867 152.4830 -34.6685 1235.5762
-43.8678 153.3934 -34.6669 1236.5782
-43.4486 154.3037 -34.6653 1237.5804
-43.0290 155.2137 -34.6637 1238.5825
-42.6087 156.1234 -34.6622 1239.5846
-42.1877 157.0328 -34.6606 1240.5867
-41.7661 157.9418 -34.6591 1241.5887
-41.3441 158.8506 -34.6574 1242.5908
-40.9219 159.7595 -34.6556 1243.5929
-40.4996 160.6682 -34.6536 1244.5950
-40.0774 161.5770 -34.6514 1245.5970
-39.6555 162.4861 -34.6490 1246.5992
-39.2338 163.3951 -34.6462 1247.6013
-38.8122 164.3041 -34.6432 1248.6034
-38.3904 165.2131 -34.6398 1249.6055
-37.9684 166.1219 -34.6361 1250.6075
-37.5466 167.0309 -34.6320 1251.6096
-37.1252 167.9401 -34.6274 1252.6117
-36.7043 168.8495 -34.6225 1253.6138
-36.2837 169.7590 -34.6171 1254.6158
-35.8629 170.6686 -34.6114 1255.6180
-35.4418 171.5780 -34.6052 1256.6201
-35.0204 172.4869 -34.5987 1257.6222
-34.5985 173.3959 -34.5919 1258.6243
-34.1763 174.3046 -34.5848 1259.6263
-33.7537 175.2132 -34.5774 1260.6284
-33.3309 176.1216 -34.5699 1261.6305
-32.9078 177.0301 -34.5623 1262.6326
-32.4846 177.9384 -34.5546 1263.6348
-32.0612 178.8466 -34.5469 1264.6368
-31.6374 179.7547 -34.5395 1265.6389
-31.2132 180.6625 -34.5322 1266.6410
-30.7886 181.5702 -34.5252 1267.6431
-30.3638 182.4777 -34.5185 1268.6451
-29.9391 183.3854 -34.5123 1269.6472
-29.5148 184.2931 -34.5065 1270.6493
-29.0908 185.2010 -34.5012 1271.6514
-28.6671 186.1093 -34.4964 1272.6536
-28.2438 187.0176 -34.4920 1273.6556
-27.8206 187.9259 -34.4881 1274.6577
-27.3971 188.8341 -34.4846 1275.6598
-26.9732 189.7421 -34.4816 1276.6619
-26.5486 190.6498 -34.4788 1277.6639
-26.1233 191.5571 -34.4763 1278.6660
-25.6977 192.4642 -34.4739 1279.6681
-25.2719 193.3716 -34.4716 1280.6703
-24.8465 194.2788 -34.4692 1281.6724
-24.4215 195.1863 -34.4667 1282.6744
-23.9971 196.0940 -34.4638 1283.6765
-23.5732 197.0020 -34.4605 1284.6786
-23.1496 197.9102 -34.4566 1285.6807
-22.7265 198.8185 -34.4521 1286.6827
-22.3036 199.7269 -34.4468 1287.6848
-21.8808 200.6355 -34.4406 1288.6869
-21.4580 201.5441 -34.4336 1289.6891
-21.0350 202.4525 -34.4256 1290.6912
-20.6119 203.3607 -34.4166 1291.6932
-20.1885 204.2690 -34.4067 1292.6953
-19.7653 205.1772 -34.3958 1293.6974
-19.3425 206.0856 -34.3839 1294.6995
-18.9201 206.9943 -34.3711 1295.7015
-18.4981 207.9030 -34.3575 1296.7036
-18.0762 208.8118 -34.3431 1297.7057
-17.6541 209.7207 -34.3279 1298.7079
-17.2323 210.6296 -34.3121 1299.7100
-16.8109 211.5386 -34.2957 1300.7120
-16.3896 212.4477 -34.2788 1301.7141
-15.9683 213.3567 -34.2614 1302.7162
-15.5472 214.2658 -34.2435 1303.7183
-15.1264 215.1750 -34.2253 1304.7203
-14.7062 216.0846 -34.2068 1305.7224
-14.2866 216.9945 -34.1879 1306.7246
-13.8677 217.9046 -34.1687 1307.7267
-13.4492 218.8149 -34.1493 1308.7288
-13.0312 219.7254 -34.1296 1309.7308
-12.6135 220.6361 -34.1097 1310.7329
-12.1959 221.5469 -34.0896 1311.7350
-11.7784 222.4576 -34.0693 1312.7371
-11.3606 223.3682 -34.0488 1313.7391
-10.9425 224.2786 -34.0283 1314.7412
-10.5237 225.1888 -34.0077 1315.7434
-10.1042 226.0986 -33.9871 1316.7455
-9.6837 227.0080 -33.9666 1317.7476
-9.2626 227.9171 -33.9462 1318.7496
-8.8410 228.8259 -33.9261 1319.7517
-8.4192 229.7347 -33.9062 1320.7538
-7.9971 230.6433 -33.8868 1321.7559
-7.5746 231.5517 -33.8678 1322.7579
-7.1516 232.4601 -33.8493 1323.7601
-6.7283 233.3682 -33.8314 1324.7622
-6.3049 234.2763 -33.8140 1325.7643
-5.8813 235.1843 -33.7971 1326.7664
-5.4571 236.0920 -33.7806 1327.7684
-5.0319 236.9992 -33.7643 1328.7705
-4.6058 237.9060 -33.7481 1329.7726
-4.1791 238.8125 -33.7316 1330.7747
-3.7520 239.7189 -33.7145 1331.7767
-3.3248 240.6254 -33.6968 1332.7789
-2.8979 241.5318 -33.6780 1333.7810
-2.4714 242.4383 -33.6581 1334.7831
-2.0453 243.3450 -33.6368 1335.7852
-1.6196 244.2519 -33.6141 1336.7872
-1.1943 245.1590 -33.5898 1337.7893
-0.7697 246.0663 -33.5639 1338.7914
-0.3460 246.9740 -33.5365 1339.7935
0.0766 247.8820 -33.5077 1340.7955
0.4985 248.7906 -33.4774 1341.7977
0.9196 249.6994 -33.4458 1342.7998
1.3404 250.6081 -33.4129 1343.8019
1.7610 251.5171 -33.3790 1344.8040
2.1818 252.4258 -33.3441 1345.8060
2.6029 253.3345 -33.3083 1346.8081
3.0241 254.2430 -33.2718 1347.8102
3.4454 255.1515 -33.2346 1348.8123
3.8669 256.0599 -33.1967 1349.8145
4.2886 256.9681 -33.1584 1350.8165
4.7102 257.8764 -33.1195 1351.8186
5.1313 258.7849 -33.0803 1352.8207
5.5518 259.6935 -33.0407 1353.8228
5.9718 260.6024 -33.0009 1354.8248
6.3918 261.5114 -32.9611 1355.8269
6.8118 262.4204 -32.9213 1356.8290
7.2317 263.3293 -32.8816 1357.8311
7.6514 264.2385 -32.8422 1358.8333
8.0714 265.1475 -32.8031 1359.8353
8.4922 266.0562 -32.7646 1360.8374
8.9137 266.9644 -32.7265 1361.8395
9.3358 267.8726 -32.6890 1362.8416
9.7582 268.7805 -32.6520 1363.8436
10.1806 269.6884 -32.6156 1364.8457
10.6032 270.5964 -32.5796 1365.8478
11.0259 271.5044 -32.5440 1366.8500
11.4486 272.4123 -32.5088 1367.8521
11.8712 273.3202 -32.4738 1368.8541
12.2934 274.2282 -32.4389 1369.8562
12.7156 275.1364 -32.4041 1370.8583
13.1380 276.0444 -32.3694 1371.8604
13.5609 276.9522 -32.3347 1372.8624
13.9848 277.8596 -32.3000 1373.8645
14.4099 278.7663 -32.2653 1374.8666
14.8361 279.6727 -32.2306 1375.8688
15.2632 280.5786 -32.1959 1376.8708
15.6908 281.4842 -32.1612 1377.8729
16.1190 282.3895 -32.1266 1378.8750
16.5478 283.2945 -32.0921 1379.8771
16.9773 284.1992 -32.0577 1380.8792
17.4076 285.1035 -32.0235 1381.8812
17.8391 286.0074 -31.9894 1382.8833
18.2720 286.9104 -31.9555 1383.8854
18.7066 287.8129 -31.9219 1384.8876
19.1426 288.7145 -31.8884 1385.8896
19.5797 289.6155 -31.8553 1386.8917
20.0179 290.5162 -31.8225 1387.8938
20.4576 291.4160 -31.7901 1388.8959
20.8996 292.3149 -31.7581 1389.8979
21.3446 293.2121 -31.7265 1390.9000
21.7936 294.1075 -31.6954 1391.9021
22.2473 295.0005 -31.6648 1392.9043
22.7063 295.8908 -31.6346 1393.9064
23.1713 296.7780 -31.6050 1394.9084
23.6428 297.6617 -31.5759 1395.9105
24.1215 298.5416 -31.5473 1396.9126
24.6078 299.4172 -31.5192 1397.9147
25.1022 300.2885 -31.4917 1398.9167
25.6052 301.1548 -31.4648 1399.9188
26.1172 302.0157 -31.4384 1400.9209
26.6388 302.8711 -31.4125 1401.9231
27.1705 303.7201 -31.3871 1402.9252
27.7126 304.5626 -31.3621 1403.9272
28.2658 305.3977 -31.3375 1404.9293
28.8303 306.2253 -31.3132 1405.9314
29.4064 307.0448 -31.2892 1406.9335
29.9941 307.8560 -31.2655 1407.9355
30.5936 308.6586 -31.2419 1408.9376
31.2050 309.4524 -31.2186 1409.9398
31.8281 310.2368 -31.1954 1410.9419
32.4631 311.0117 -31.1725 1411.9440
33.1099 311.7768 -31.1499 1412.9460
33.7684 312.5317 -31.1275 1413.9481
34.4387 313.2763 -31.1055 1414.9502
35.1208 314.0100 -31.0839 1415.9523
35.8147 314.7326 -31.0627 1416.9543
36.5203 315.4439 -31.0421 1417.9564
37.2373 316.1439 -31.0220 1418.9586
37.9652 316.8321 -31.0026 1419.9607
38.7039 317.5091 -30.9839 1420.9628
39.4527 318.1748 -30.9659 1421.9648
40.2109 318.8296 -30.9487 1422.9669
40.9783 319.4738 -30.9323 1423.9690
41.7546 320.1074 -30.9166 1424.9711
42.5396 320.7299 -30.9018 1425.9731
43.3335 321.3412 -30.8878 1426.9752
44.1365 321.9407 -30.8745 1427.9774
44.9486 322.5277 -30.8620 1428.9795
45.7697 323.1021 -30.8501 1429.9816
46.5996 323.6635 -30.8389 1430.9836
47.4381 324.2121 -30.8282 1431.9857
48.2848 324.7479 -30.8181 1432.9878
49.1392 325.2713 -30.8084 1433.9899
50.0008 325.7827 -30.7992 1434.9919
50.8694 326.2827 -30.7902 1435.9941
51.7444 326.7711 -30.7816 1436.9962
52.6256 327.2480 -30.7732 1437.9983
53.5131 327.7132 -30.7651 1439.0004
54.4066 328.1668 -30.7571 1440.0024
55.3059 328.6087 -30.7492 1441.0045
56.2111 329.0386 -30.7415 1442.0066
57.1221 329.4560 -30.7338 1443.0087
58.0389 329.8603 -30.7262 1444.0107
58.9615 330.2513 -30.7185 1445.0128
59.8898 330.6285 -30.7109 1446.0149
60.8238 330.9918 -30.7032 1447.0171
61.7631 331.3410 -30.6955 1448.0192
62.7074 331.6762 -30.6878 1449.0212
63.6565 331.9974 -30.6800 1450.0233
64.6104 332.3045 -30.6722 1451.0254
65.5687 332.5970 -30.6645 1452.0275
66.5315 332.8747 -30.6568 1453.0295
67.4986 333.1371 -30.6492 1454.0316
68.4699 333.3838 -30.6417 1455.0338
69.4451 333.6144 -30.6344 1456.0359
70.4239 333.8289 -30.6273 1457.0380
71.4060 334.0273 -30.6205 1458.0400
72.3914 334.2096 -30.6139 1459.0421
73.3796 334.3758 -30.6076 1460.0442
74.3702 334.5265 -30.6015 1461.0463
75.3630 334.6624 -30.5958 1462.0483
76.3576 334.7842 -30.5904 1463.0504
77.3539 334.8925 -30.5852 1464.0526
78.3515 334.9876 -30.5804 1465.0547
79.3501 335.0699 -30.5758 1466.0568
80.3497 335.1397 -30.5714 1467.0588
81.3501 335.1976 -30.5672 1468.0609
82.3511 335.2441 -30.5633 1469.0630
83.3525 335.2800 -30.5594 1470.0651
84.3542 335.3062 -30.5556 1471.0671
85.3561 335.3237 -30.5519 1472.0692
86.3583 335.3334 -30.5482 1473.0714
87.3604 335.3366 -30.5444 1474.0735
88.3625 335.3340 -30.5405 1475.0756
89.3645 335.3260 -30.5364 1476.0776
90.3664 335.3126 -30.5323 1477.0797
91.3684 335.2941 -30.5279 1478.0818
92.3701 335.2706 -30.5234 1479.0839
93.3719 335.2423 -30.5188 1480.0859
94.3734 335.2098 -30.5140 1481.0881
95.3749 335.1736 -30.5091 1482.0902
96.3762 335.1344 -30.5041 1483.0923
97.3773 335.0928 -30.4990 1484.0944
98.3785 335.0497 -30.4938 1485.0964
99.3796 335.0057 -30.4887 1486.0985
100.3807 334.9608 -30.4835 1487.1006
101.3816 334.9150 -30.4784 1488.1027
102.3827 334.8684 -30.4734 1489.1047
103.3837 334.8211 -30.4686 1490.1069
104.3846 334.7732 -30.4640 1491.1090
105.3855 334.7245 -30.4596 1492.1111
106.3864 334.6750 -30.4555 1493.1132
107.3872 334.6248 -30.4518 1494.1152
108.3879 334.5736 -30.4485 1495.1173
109.3887 334.5215 -30.4455 1496.1194
110.3893 334.4688 -30.4428 1497.1215
111.3900 334.4157 -30.4405 1498.1237
112.3908 334.3627 -30.4384 1499.1257
113.3915 334.3096 -30.4366 1500.1278
114.3922 334.2564 -30.4350 1501.1299
115.3927 334.2028 -30.4336 1502.1320
116.3934 334.1487 -30.4324 1503.1340
117.3940 334.0942 -30.4312 1504.1361
118.3945 334.0393 -30.4301 1505.1382
119.3951 333.9839 -30.4290 1506.1403
120.3956 333.9276 -30.4280 1507.1425
121.3961 333.8706 -30.4270 1508.1445
122.3966 333.8135 -30.4260 1509.1466
123.3969 333.7562 -30.4251 1510.1487
124.3974 333.6988 -30.4242 1511.1508
125.3979 333.6420 -30.4234 1512.1528
126.3984 333.5859 -30.4228 1513.1549
127.3990 333.5311 -30.4224 1514.1570
128.3996 333.4774 -30.4222 1515.1591
129.4005 333.4254 -30.4222 1516.1613
130.4012 333.3751 -30.4226 1517.1633
131.4022 333.3264 -30.4233 1518.1654
132.4031 333.2784 -30.4244 1519.1675
133.4040 333.2305 -30.4258 1520.1696
134.4049 333.1825 -30.4277 1521.1716
135.4058 333.1339 -30.4299 1522.1737
136.4067 333.0848 -30.4324 1523.1758
137.4077 333.0350 -30.4351 1524.1780
138.4084 332.9842 -30.4381 1525.1801
139.4091 332.9326 -30.4412 1526.1821
140.4099 332.8806 -30.4444 1527.1842
141.4107 332.8286 -30.4475 1528.1863
142.4114 332.7768 -30.4506 1529.1884
143.4121 332.7250 -30.4535 1530.1904
144.4128 332.6731 -30.4563 1531.1925
145.4136 332.6213 -30.4589 1532.1946
146.4144 332.5699 -30.4612 1533.1968
147.4152 332.5195 -30.4632 1534.1989
148.4161 332.4704 -30.4650 1535.2009
149.4170 332.4222 -30.4665 1536.2030
150.4179 332.3752 -30.4679 1537.2051
151.4190 332.3295 -30.4690 1538.2072
152.4200 332.2845 -30.4701 1539.2092
153.4212 332.2401 -30.4712 1540.2113
154.4224 332.1961 -30.4722 1541.2135
155.4235 332.1524 -30.4733 1542.2156
156.4246 332.1085 -30.4745 1543.2177
157.4257 332.0641 -30.4759 1544.2197
158.4268 332.0190 -30.4775 1545.2218
159.4278 331.9730 -30.4793 1546.2239
160.4288 331.9262 -30.4813 1547.2260
161.4297 331.8784 -30.4836 1548.2280
162.4305 331.8295 -30.4861 1549.2301
163.4315 331.7793 -30.4889 1550.2323
164.4323 331.7281 -30.4919 1551.2344
165.4330 331.6756 -30.4952 1552.2365
166.4336 331.6220 -30.4986 1553.2385
167.4342 331.5673 -30.5021 1554.2406
168.4347 331.5116 -30.5058 1555.2427
169.4351 331.4551 -30.5097 1556.2448
170.4356 331.3980 -30.5136 1557.2468
171.4360 331.3405 -30.5176 1558.2489
172.4365 331.2823 -30.5217 1559.2511
173.4368 331.2231 -30.5258 1560.2532
174.4371 331.1630 -30.5299 1561.2552
175.4373 331.1016 -30.5340 1562.2573
176.4373 331.0383 -30.5380 1563.2594
177.4372 330.9725 -30.5421 1564.2615
178.4369 330.9037 -30.5461 1565.2635
179.4364 330.8317 -30.5500 1566.2656
180.4358 330.7558 -30.5538 1567.2678
181.4346 330.6752 -30.5576 1568.2699
182.4329 330.5889 -30.5613 1569.2720
183.4306 330.4962 -30.5649 1570.2740
184.4278 330.3966 -30.5685 1571.2761
185.4240 330.2888 -30.5721 1572.2782
186.4193 330.1721 -30.5757 1573.2803
187.4133 330.0446 -30.5794 1574.2823
188.4055 329.9054 -30.5831 1575.2844
189.3961 329.7531 -30.5871 1576.2866
190.3844 329.5875 -30.5912 1577.2887
191.3702 329.4078 -30.5955 1578.2908
192.3534 329.2140 -30.6001 1579.2928
193.3333 329.0051 -30.6049 1580.2949
194.3099 328.7809 -30.6100 1581.2970
195.2828 328.5406 -30.6154 1582.2991
196.2513 328.2836 -30.6210 1583.3011
197.2152 328.0093 -30.6268 1584.3033
198.1739 327.7175 -30.6327 1585.3054
199.1268 327.4079 -30.6389 1586.3075
200.0740 327.0808 -30.6452 1587.3096
201.0150 326.7365 -30.6516 1588.3116
201.9497 326.3755 -30.6581 1589.3137
202.8781 325.9981 -30.6647 1590.3158
203.7998 325.6051 -30.6714 1591.3179
204.7148 325.1964 -30.6781 1592.3199
205.6230 324.7728 -30.6849 1593.3221
206.5241 324.3346 -30.6916 1594.3242
207.4183 323.8822 -30.6984 1595.3263
208.3053 323.4163 -30.7052 1596.3284
209.1854 322.9372 -30.7119 1597.3304
210.0586 322.4456 -30.7187 1598.3325
210.9249 321.9418 -30.7254 1599.3346
211.7841 321.4262 -30.7320 1600.3367
212.6362 320.8991 -30.7387 1601.3387
213.4815 320.3606 -30.7453 1602.3409
214.3195 319.8113 -30.7519 1603.3430
215.1506 319.2515 -30.7585 1604.3451
215.9748 318.6816 -30.7650 1605.3472
216.7925 318.1024 -30.7716 1606.3492
217.6040 317.5146 -30.7782 1607.3513
218.4099 316.9190 -30.7848 1608.3534
219.2105 316.3165 -30.7915 1609.3555
220.0067 315.7078 -30.7983 1610.3577
220.7987 315.0940 -30.8051 1611.3597
221.5872 314.4756 -30.8121 1612.3618
222.3728 313.8536 -30.8193 1613.3639
223.1560 313.2285 -30.8267 1614.3660
223.9373 312.6010 -30.8342 1615.3680
224.7169 311.9714 -30.8421 1616.3701
225.4950 311.3401 -30.8503 1617.3722
226.2720 310.7072 -30.8588 1618.3743
227.0479 310.0730 -30.8676 1619.3765
227.8226 309.4376 -30.8768 1620.3785
228.5963 308.8009 -30.8864 1621.3806
229.3688 308.1626 -30.8963 1622.3827
230.1400 307.5228 -30.9066 1623.3848
230.9099 306.8816 -30.9172 1624.3868
231.6792 306.2394 -30.9282 1625.3889
232.4479 305.5967 -30.9393 1626.3910
233.2163 304.9534 -30.9508 1627.3932
233.9843 304.3099 -30.9624 1628.3953
234.7520 303.6660 -30.9742 1629.3973
235.5196 303.0219 -30.9861 1630.3994
236.2870 302.3776 -30.9982 1631.4015
237.0539 301.7327 -31.0105 1632.4036
237.8201 301.0870 -31.0228 1633.4056
238.5857 300.4406 -31.0353 1634.4077
239.3509 299.7937 -31.0479 1635.4098
240.1158 299.1464 -31.0606 1636.4120
240.8808 298.4991 -31.0734 1637.4141
241.6459 297.8521 -31.0863 1638.4161
242.4111 297.2053 -31.0993 1639.4182
243.1766 296.5588 -31.1124 1640.4203
243.9421 295.9123 -31.1255 1641.4224
244.7076 295.2657 -31.1388 1642.4244
245.4730 294.6191 -31.1521 1643.4265
246.2384 293.9725 -31.1655 1644.4286
247.0040 293.3258 -31.1790 1645.4308
247.7696 292.6795 -31.1925 1646.4329
248.5355 292.0334 -31.2061 1647.4349
249.3016 291.3877 -31.2197 1648.4370
250.0682 290.7424 -31.2334 1649.4391
250.8350 290.0974 -31.2471 1650.4412
251.6020 289.4527 -31.2609 1651.4432
252.3690 288.8079 -31.2747 1652.4453
253.1357 288.1626 -31.2887 1653.4475
253.9019 287.5172 -31.3028 1654.4496
254.6683 286.8716 -31.3170 1655.4517
255.4348 286.2264 -31.3313 1656.4537
256.2018 285.5816 -31.3457 1657.4558
256.9691 284.9372 -31.3604 1658.4579
257.7367 284.2932 -31.3751 1659.4600
258.5045 283.6495 -31.3900 1660.4620
259.2726 283.0060 -31.4051 1661.4641
260.0412 282.3631 -31.4203 1662.4663
260.8101 281.7206 -31.4356 1663.4684
261.5793 281.0785 -31.4511 1664.4705
262.3485 280.4365 -31.4667 1665.4725
263.1178 279.7946 -31.4824 1666.4746
263.8871 279.1527 -31.4981 1667.4767
264.6563 278.5105 -31.5138 1668.4788
265.4252 277.8682 -31.5295 1669.4808
266.1941 277.2256 -31.5449 1670.4830
266.9629 276.5831 -31.5601 1671.4851
267.7318 275.9406 -31.5748 1672.4872
268.5007 275.2980 -31.5889 1673.4893
269.2691 274.6551 -31.6023 1674.4913
270.0373 274.0118 -31.6148 1675.4934
270.8055 273.3685 -31.6263 1676.4955
271.5737 272.7251 -31.6367 1677.4976
272.3419 272.0816 -31.6459 1678.4996
273.1099 271.4379 -31.6539 1679.5018
273.8776 270.7937 -31.6607 1680.5039
274.6450 270.1494 -31.6666 1681.5060
275.4124 269.5050 -31.6716 1682.5081
276.1800 268.8608 -31.6762 1683.5101
276.9477 268.2169 -31.6806 1684.5122
277.7154 267.5728 -31.6854 1685.5143
278.4830 266.9287 -31.6910 1686.5164
279.2505 266.2845 -31.6979 1687.5184
280.0179 265.6399 -31.7065 1688.5206
280.7852 264.9955 -31.7171 1689.5227
281.5521 264.3506 -31.7301 1690.5248
282.3185 263.7052 -31.7456 1691.5269
283.0844 263.0593 -31.7637 1692.5289
283.8498 262.4129 -31.7843 1693.5310
284.6149 261.7663 -31.8073 1694.5331
285.3799 261.1194 -31.8324 1695.5352
286.1443 260.4716 -31.8593 1696.5374
286.9073 259.8228 -31.8876 1697.5394
287.6687 259.1721 -31.9170 1698.5415
288.4277 258.5184 -31.9469 1699.5436
289.1832 257.8608 -31.9769 1700.5457
289.9343 257.1983 -32.0067 1701.5477
290.6802 256.5296 -32.0359 1702.5498
291.4195 255.8538 -32.0642 1703.5519
292.1514 255.1698 -32.0913 1704.5540
292.8748 254.4768 -32.1173 1705.5562
293.5885 253.7737 -32.1419 1706.5582
294.2916 253.0601 -32.1652 1707.5603
294.9830 252.3352 -32.1872 1708.5624
295.6616 251.5982 -32.2081 1709.5645
296.3262 250.8484 -32.2279 1710.5665
296.9752 250.0852 -32.2468 1711.5686
297.6072 249.3078 -32.2649 1712.5707
298.2207 248.5157 -32.2824 1713.5728
298.8144 247.7086 -32.2995 1714.5750
299.3871 246.8864 -32.3163 1715.5770
299.9377 246.0494 -32.3328 1716.5791
300.4658 245.1979 -32.3493 1717.5812
300.9703 244.3324 -32.3657 1718.5833
301.4510 243.4532 -32.3821 1719.5853
301.9075 242.5614 -32.3987 1720.5874
302.3388 241.6571 -32.4154 1721.5895
302.7447 240.7410 -32.4321 1722.5917
303.1240 239.8136 -32.4490 1723.5938
303.4758 238.8756 -32.4660 1724.5958
303.7991 237.9272 -32.4830 1725.5979
304.0931 236.9694 -32.5000 1726.6000
304.3571 236.0030 -32.5171 1727.6021
304.5908 235.0287 -32.5341 1728.6041
304.7941 234.0476 -32.5510 1729.6062
304.9672 233.0608 -32.5678 1730.6083
305.1107 232.0691 -32.5845 1731.6105
305.2248 231.0738 -32.6009 1732.6125
305.3100 230.0755 -32.6172 1733.6146
305.3667 229.0751 -32.6332 1734.6167
305.3957 228.0737 -32.6489 1735.6188
305.3979 227.0717 -32.6643 1736.6208
305.3745 226.0701 -32.6794 1737.6229
305.3259 225.0693 -32.6942 1738.6250
305.2531 224.0699 -32.7087 1739.6272
305.1562 223.0727 -32.7228 1740.6293
305.0360 222.0779 -32.7366 1741.6313
304.8926 221.0863 -32.7501 1742.6334
304.7260 220.0982 -32.7631 1743.6355
304.5362 219.1144 -32.7758 1744.6376
304.3231 218.1353 -32.7882 1745.6396
304.0865 217.1617 -32.8001 1746.6417
303.8264 216.1941 -32.8117 1747.6438
303.5427 215.2330 -32.8229 1748.6460
303.2357 214.2792 -32.8338 1749.6481
302.9056 213.3331 -32.8444 1750.6501
302.5526 212.3954 -32.8546 1751.6522
302.1765 211.4666 -32.8646 1752.6543
301.7776 210.5474 -32.8743 1753.6564
301.3553 209.6388 -32.8837 1754.6584
300.9092 208.7415 -32.8929 1755.6605
300.4388 207.8569 -32.9020 1756.6626
299.9434 206.9857 -32.9109 1757.6648
299.4231 206.1294 -32.9198 1758.6669
298.8776 205.2889 -32.9285 1759.6689
298.3067 204.4653 -32.9372 1760.6710
297.7107 203.6599 -32.9458 1761.6731
297.0895 202.8737 -32.9544 1762.6752
296.4439 202.1075 -32.9629 1763.6772
295.7754 201.3610 -32.9714 1764.6793
295.0853 200.6344 -32.9797 1765.6815
294.3750 199.9278 -32.9880 1766.6836
293.6452 199.2410 -32.9962 1767.6857
292.8974 198.5741 -33.0042 1768.6877
292.1326 197.9268 -33.0121 1769.6898
291.3520 197.2986 -33.0198 1770.6919
290.5569 196.6886 -33.0273 1771.6940
289.7487 196.0963 -33.0346 1772.6960
288.9287 195.5203 -33.0415 1773.6981
288.0981 194.9597 -33.0482 1774.7003
287.2581 194.4133 -33.0546 1775.7024
286.4097 193.8802 -33.0606 1776.7045
285.5535 193.3595 -33.0663 1777.7065
284.6903 192.8506 -33.0716 1778.7086
283.8205 192.3530 -33.0767 1779.7107
282.9449 191.8658 -33.0813 1780.7128
282.0641 191.3881 -33.0857 1781.7148
281.1786 190.9186 -33.0898 1782.7170
280.2896 190.4565 -33.0936 1783.7191
279.3972 190.0004 -33.0971 1784.7212
278.5022 189.5493 -33.1003 1785.7233
277.6056 189.1023 -33.1034 1786.7253
276.7073 188.6581 -33.1061 1787.7274
275.8081 188.2160 -33.1086 1788.7295
274.9081 187.7753 -33.1107 1789.7316
274.0078 187.3352 -33.1126 1790.7336
273.1076 186.8949 -33.1142 1791.7358
272.2076 186.4543 -33.1155 1792.7379
271.3076 186.0135 -33.1165 1793.7400
270.4077 185.5727 -33.1173 1794.7421
269.5078 185.1317 -33.1178 1795.7441
268.6082 184.6904 -33.1180 1796.7462
267.7086 184.2489 -33.1179 1797.7483
266.8090 183.8075 -33.1176 1798.7504
265.9091 183.3667 -33.1171 1799.7524
265.0085 182.9269 -33.1163 1800.7546
264.1074 182.4887 -33.1154 1801.7567
263.2054 182.0523 -33.1142 1802.7588
262.3024 181.6178 -33.1128 1803.7609
261.3986 181.1850 -33.1113 1804.7629
260.4942 180.7535 -33.1094 1805.7650
259.5896 180.3223 -33.1074 1806.7671
258.6852 179.8907 -33.1051 1807.7692
257.7812 179.4577 -33.1026 1808.7714
256.8785 179.0231 -33.0998 1809.7734
255.9766 178.5863 -33.0968 1810.7755
255.0758 178.1471 -33.0935 1811.7776
254.1763 177.7056 -33.0899 1812.7797
253.2778 177.2621 -33.0861 1813.7817
252.3802 176.8165 -33.0821 1814.7838
251.4833 176.3696 -33.0779 1815.7859
250.5871 175.9216 -33.0735 1816.7880
249.6909 175.4729 -33.0689 1817.7902
248.7950 175.0240 -33.0642 1818.7922
247.8994 174.5744 -33.0595 1819.7943
247.0043 174.1239 -33.0548 1820.7964
246.1098 173.6722 -33.0501 1821.7985
245.2160 173.2194 -33.0455 1822.8005
244.3224 172.7658 -33.0410 1823.8026
243.4288 172.3123 -33.0367 1824.8047
242.5348 171.8594 -33.0326 1825.8069
241.6406 171.4071 -33.0286 1826.8090
240.7462 170.9552 -33.0249 1827.8110
239.8514 170.5041 -33.0213 1828.8131
238.9562 170.0540 -33.0179 1829.8152
238.0603 169.6050 -33.0147 1830.8173
237.1638 169.1572 -33.0116 1831.8193
236.2669 168.7104 -33.0087 1832.8214
235.3695 168.2646 -33.0059 1833.8235
234.4715 167.8194 -33.0032 1834.8257
233.5736 167.3748 -33.0006 1835.8278
232.6755 166.9303 -32.9981 1836.8298
231.7774 166.4857 -32.9957 1837.8319
230.8794 166.0411 -32.9934 1838.8340
229.9813 165.5965 -32.9913 1839.8361
229.0831 165.1521 -32.9892 1840.8381
228.1848 164.7081 -32.9872 1841.8402
227.2862 164.2647 -32.9854 1842.8423
226.3870 163.8220 -32.9837 1843.8445
225.4876 163.3804 -32.9821 1844.8466
224.5876 162.9397 -32.9808 1845.8486
223.6872 162.4999 -32.9796 1846.8507
222.7864 162.0607 -32.9787 1847.8528
221.8855 161.6219 -32.9781 1848.8549
220.9844 161.1835 -32.9779 1849.8569
220.0833 160.7454 -32.9780 1850.8590
219.1819 160.3075 -32.9785 1851.8612
218.2804 159.8697 -32.9795 1852.8633
217.3791 159.4317 -32.9811 1853.8654
216.4782 158.9931 -32.9832 1854.8674
215.5777 158.5536 -32.9858 1855.8695
214.6777 158.1130 -32.9891 1856.8716
213.7782 157.6713 -32.9930 1857.8737
212.8793 157.2283 -32.9976 1858.8757
211.9810 156.7842 -33.0028 1859.8778
211.0832 156.3389 -33.0087 1860.8800
210.1859 155.8928 -33.0152 1861.8821
209.2890 155.4461 -33.0224 1862.8842
208.3922 154.9991 -33.0302 1863.8862
207.4953 154.5522 -33.0386 1864.8883
206.5983 154.1055 -33.0475 1865.8904
205.7011 153.6594 -33.0569 1866.8925
204.8037 153.2136 -33.0668 1867.8945
203.9060 152.7680 -33.0771 1868.8967
203.0084 152.3227 -33.0877 1869.8988
202.1107 151.8775 -33.0987 1870.9009
201.2129 151.4325 -33.1100 1871.9030
200.3149 150.9881 -33.1216 1872.9050
199.4164 150.5446 -33.1334 1873.9071
198.5174 150.1021 -33.1456 1874.9092
197.6179 149.6605 -33.1580 1875.9113
196.7182 149.2195 -33.1707 1876.9133
195.8182 148.7788 -33.1837 1877.9155
194.9184 148.3380 -33.1970 1878.9176
194.0188 147.8968 -33.2107 1879.9197
193.1194 147.4550 -33.2247 1880.9218
192.2204 147.0126 -33.2392 1881.9238
191.3215 146.5701 -33.2542 1882.9259
190.4227 146.1274 -33.2696 1883.9280
189.5239 145.6845 -33.2856 1884.9301
188.6252 145.2415 -33.3023 1885.9321
187.7265 144.7985 -33.3195 1886.9343
186.8275 144.3560 -33.3375 1887.9364
185.9282 143.9143 -33.3561 1888.9385
185.0286 143.4732 -33.3755 1889.9406
184.1290 143.0322 -33.3957 1890.9426
183.2296 142.5909 -33.4167 1891.9447
182.3305 142.1490 -33.4384 1892.9468
181.4318 141.7062 -33.4610 1893.9489
180.5336 141.2624 -33.4844 1894.9510
179.6360 140.8174 -33.5085 1895.9531
178.7392 140.3711 -33.5334 1896.9552
177.8430 139.9236 -33.5590 1897.9573
176.9474 139.4747 -33.5852 1898.9594
176.0524 139.0250 -33.6121 1899.9614
175.1575 138.5748 -33.6395 1900.9635
174.2626 138.1247 -33.6675 1901.9656
173.3677 137.6749 -33.6959 1902.9677
172.4725 137.2252 -33.7247 1903.9698
171.5772 136.7759 -33.7538 1904.9719
170.6818 136.3271 -33.7833 1905.9740
169.7859 135.8790 -33.8130 1906.9761
168.8897 135.4317 -33.8429 1907.9781
167.9930 134.9855 -33.8729 1908.9802
167.0958 134.5403 -33.9031 1909.9823
166.1983 134.0955 -33.9335 1910.9844
165.3007 133.6509 -33.9639 1911.9866
164.4031 133.2064 -33.9945 1912.9886
163.5055 132.7620 -34.0252 1913.9907
162.6078 132.3177 -34.0560 1914.9928
161.7101 131.8735 -34.0868 1915.9949
160.8125 131.4293 -34.1178 1916.9969
159.9147 130.9849 -34.1488 1917.9990
159.0171 130.5406 -34.1799 1919.0011
158.1194 130.0965 -34.2111 1920.0032
157.2214 129.6525 -34.2423 1921.0054
156.3235 129.2088 -34.2736 1922.0074
155.4253 128.7657 -34.3050 1923.0095
154.5267 128.3233 -34.3364 1924.0116
153.6277 127.8818 -34.3680 1925.0137
152.7283 127.4412 -34.3997 1926.0157
151.8283 127.0015 -34.4315 1927.0178
150.9280 126.5627 -34.4633 1928.0199
150.0276 126.1242 -34.4953 1929.0220
149.1270 125.6855 -34.5272 1930.0242
148.2268 125.2464 -34.5592 1931.0262
147.3270 124.8064 -34.5912 1932.0283
146.4279 124.3654 -34.6232 1933.0304
145.5290 123.9235 -34.6550 1934.0325
144.6305 123.4810 -34.6867 1935.0345
143.7321 123.0382 -34.7183 1936.0366
142.8336 122.5954 -34.7496 1937.0387
141.9351 122.1529 -34.7807 1938.0409
141.0364 121.7106 -34.8114 1939.0430
140.1376 121.2686 -34.8419 1940.0450
139.2387 120.8266 -34.8720 1941.0471
138.3400 120.3846 -34.9017 1942.0492
137.4412 119.9421 -34.9310 1943.0513
136.5428 119.4994 -34.9598 1944.0533
135.6445 119.0564 -34.9882 1945.0554
134.7463 118.6129 -35.0161 1946.0575
133.8482 118.1688 -35.0434 1947.0597
132.9505 117.7242 -35.0702 1948.0618
132.0530 117.2796 -35.0964 1949.0638
131.1552 116.8353 -35.1219 1950.0659
130.2570 116.3915 -35.1467 1951.0680
129.3585 115.9486 -35.1707 1952.0701
128.4596 115.5063 -35.1939 1953.0721
127.5606 115.0643 -35.2162 1954.0742
126.6614 114.6222 -35.2377 1955.0764
125.7624 114.1798 -35.2583 1956.0785
124.8638 113.7369 -35.2781 1957.0806
123.9653 113.2935 -35.2971 1958.0826
123.0672 112.8495 -35.3154 1959.0847
122.1693 112.4050 -35.3329 1960.0868
121.2717 111.9595 -35.3499 1961.0889
120.3748 111.5132 -35.3665 1962.0909
119.4783 111.0659 -35.3826 1963.0930
118.5819 110.6179 -35.3985 1964.0952
117.6859 110.1694 -35.4142 1965.0973
116.7902 109.7205 -35.4299 1966.0994
115.8946 109.2711 -35.4455 1967.1014
114.9991 108.8215 -35.4613 1968.1035
114.1037 108.3721 -35.4772 1969.1056
113.2080 107.9230 -35.4934 1970.1077
112.3123 107.4741 -35.5098 1971.1097
111.4165 107.0255 -35.5265 1972.1118
110.5201 106.5774 -35.5436 1973.1140
109.6234 106.1303 -35.5609 1974.1161
108.7262 105.6843 -35.5785 1975.1182
107.8286 105.2394 -35.5963 1976.1202
106.9303 104.7955 -35.6142 1977.1223
106.0317 104.3526 -35.6322 1978.1244
105.1324 103.9109 -35.6501 1979.1265
104.2324 103.4704 -35.6678 1980.1285
103.3319 103.0310 -35.6851 1981.1307
102.4312 102.5921 -35.7021 1982.1328
101.5304 102.1534 -35.7186 1983.1349
100.6297 101.7145 -35.7345 1984.1370
99.7291 101.2753 -35.7497 1985.1390
98.8290 100.8353 -35.7642 1986.1411
97.9296 100.3935 -35.7780 1987.1432
97.0314 99.9494 -35.7909 1988.1453
96.1346 99.5026 -35.8029 1989.1473
95.2392 99.0526 -35.8141 1990.1495
94.3456 98.5992 -35.8243 1991.1516
93.4539 98.1422 -35.8337 1992.1537
92.5644 97.6806 -35.8421 1993.1558
91.6778 97.2138 -35.8497 1994.1578
90.7943 96.7410 -35.8563 1995.1599
89.9142 96.2618 -35.8621 1996.1620
89.0378 95.7760 -35.8671 1997.1641
88.1651 95.2833 -35.8712 1998.1663
87.2968 94.7831 -35.8746 1999.1683
86.4335 94.2743 -35.8774 2000.1704
85.5760 93.7560 -35.8796 2001.1725
84.7249 93.2270 -35.8814 2002.1746
83.8810 92.6865 -35.8829 2003.1766
83.0451 92.1339 -35.8843 2004.1787
82.2176 91.5688 -35.8856 2005.1808
81.3990 90.9908 -35.8870 2006.1829
80.5904 90.3988 -35.8885 2007.1851
79.7925 89.7926 -35.8903 2008.1871
79.0056 89.1722 -35.8924 2009.1892
78.2296 88.5381 -35.8948 2010.1913
77.4650 87.8905 -35.8975 2011.1934
76.7120 87.2293 -35.9005 2012.1954
75.9708 86.5549 -35.9038 2013.1975
75.2414 85.8680 -35.9076 2014.1996
74.5238 85.1684 -35.9116 2015.2017
73.8185 84.4565 -35.9161 2016.2039
73.1257 83.7326 -35.9211 2017.2059
72.4454 82.9967 -35.9265 2018.2080
71.7782 82.2491 -35.9324 2019.2101
71.1238 81.4903 -35.9389 2020.2122
70.4826 80.7204 -35.9459 2021.2142
69.8549 79.9393 -35.9536 2022.2163
69.2412 79.1471 -35.9620 2023.2184
68.6415 78.3442 -35.9710 2024.2206
68.0556 77.5314 -35.9807 2025.2227
67.4836 76.7087 -35.9910 2026.2247
66.9258 75.8763 -36.0020 2027.2268
66.3823 75.0346 -36.0135 2028.2289
65.8531 74.1836 -36.0257 2029.2310
65.3384 73.3240 -36.0385 2030.2330
64.8381 72.4559 -36.0519 2031.2351
64.3519 71.5797 -36.0658 2032.2372
63.8791 70.6961 -36.0803 2033.2394
63.4200 69.8056 -36.0953 2034.2415
62.9747 68.9081 -36.1108 2035.2435
62.5437 68.0036 -36.1268 2036.2456
62.1274 67.0922 -36.1433 2037.2477
61.7259 66.1743 -36.1604 2038.2498
61.3396 65.2498 -36.1779 2039.2518
60.9681 64.3194 -36.1960 2040.2539
60.6116 63.3830 -36.2145 2041.2560
60.2705 62.4408 -36.2334 2042.2582
59.9452 61.4932 -36.2528 2043.2603
59.6358 60.5404 -36.2726 2044.2623
59.3426 59.5823 -36.2928 2045.2644
59.0662 58.6194 -36.3134 2046.2665
58.8069 57.6517 -36.3346 2047.2686
58.5651 56.6794 -36.3562 2048.2708
58.3417 55.7029 -36.3783 2049.2727
58.1364 54.7223 -36.4009 2050.2749
57.9496 53.7383 -36.4241 2051.2769
57.7812 52.7505 -36.4478 2052.2791
57.6309 51.7601 -36.4719 2053.2810
57.4982 50.7671 -36.4965 2054.2832
57.3829 49.7719 -36.5215 2055.2854
57.2844 48.7752 -36.5468 2056.2874
57.2022 47.7766 -36.5724 2057.2896
57.1364 46.7772 -36.5982 2058.2915
57.0868 45.7766 -36.6241 2059.2937
57.0531 44.7756 -36.6500 2060.2957
57.0353 43.7738 -36.6760 2061.2979
57.0340 42.7723 -36.7017 2062.2998
57.0497 41.7704 -36.7272 2063.3020
57.0821 40.7692 -36.7523 2064.3042
57.1313 39.7687 -36.7769 2065.3062
57.1972 38.7690 -36.8007 2066.3083
57.2789 37.7707 -36.8238 2067.3103
57.3764 36.7734 -36.8460 2068.3125
57.4898 35.7783 -36.8672 2069.3145
57.6197 34.7846 -36.8875 2070.3167
57.7660 33.7937 -36.9067 2071.3186
57.9287 32.8050 -36.9248 2072.3208
58.1078 31.8191 -36.9419 2073.3230
58.3030 30.8365 -36.9578 2074.3250
58.5151 29.8571 -36.9727 2075.3271
58.7449 28.8820 -36.9866 2076.3291
58.9932 27.9111 -36.9996 2077.3313
59.2600 26.9454 -37.0117 2078.3333
59.5451 25.9846 -37.0230 2079.3354
59.8486 25.0296 -37.0334 2080.3376
60.1701 24.0807 -37.0430 2081.3396
60.5088 23.1375 -37.0518 2082.3418
60.8639 22.2007 -37.0597 2083.3438
61.2353 21.2699 -37.0667 2084.3459
61.6225 20.3457 -37.0729 2085.3479
62.0249 19.4279 -37.0782 2086.3501
62.4416 18.5166 -37.0825 2087.3521
62.8728 17.6122 -37.0861 2088.3542
63.3194 16.7148 -37.0888 2089.3564
63.7815 15.8258 -37.0907 2090.3584
64.2592 14.9449 -37.0919 2091.3606
64.7523 14.0727 -37.0923 2092.3625
65.2609 13.2092 -37.0919 2093.3647
65.7856 12.3557 -37.0908 2094.3667
66.3272 11.5125 -37.0889 2095.3689
66.8850 10.6801 -37.0863 2096.3708
67.4587 9.8582 -37.0827 2097.3730
68.0468 9.0468 -37.0782 2098.3752
68.6492 8.2462 -37.0725 2099.3772
69.2653 7.4559 -37.0657 2100.3794
69.8939 6.6757 -37.0574 2101.3813
70.5345 5.9051 -37.0474 2102.3835
71.1868 5.1445 -37.0358 2103.3855
71.8498 4.3933 -37.0222 2104.3877
72.5229 3.6511 -37.0065 2105.3896
73.2063 2.9183 -36.9886 2106.3918
73.9003 2.1954 -36.9684 2107.3940
74.6045 1.4833 -36.9460 2108.3960
75.3197 0.7815 -36.9214 2109.3982
76.0451 0.0911 -36.8945 2110.4001
76.7816 -0.5882 -36.8654 2111.4023
77.5283 -1.2552 -36.8344 2112.4043
78.2861 -1.9103 -36.8014 2113.4065
79.0544 -2.5528 -36.7668 2114.4084
79.8330 -3.1826 -36.7305 2115.4106
80.6216 -3.7998 -36.6929 2116.4128
81.4198 -4.4042 -36.6541 2117.4148
82.2277 -4.9960 -36.6142 2118.4170
83.0447 -5.5744 -36.5735 2119.4189
83.8716 -6.1393 -36.5321 2120.4211
84.7077 -6.6896 -36.4903 2121.4231
85.5540 -7.2248 -36.4482 2122.4253
86.4102 -7.7438 -36.4060 2123.4275
87.2763 -8.2460 -36.3639 2124.4294
88.1525 -8.7309 -36.3220 2125.4316
89.0379 -9.1979 -36.2805 2126.4336
89.9327 -9.6471 -36.2394 2127.4358
90.8362 -10.0785 -36.1987 2128.4377
91.7480 -10.4927 -36.1585 2129.4399
92.6668 -10.8898 -36.1188 2130.4419
93.5930 -11.2709 -36.0794 2131.4441
94.5250 -11.6368 -36.0402 2132.4463
95.4625 -11.9884 -36.0012 2133.4482
96.4050 -12.3272 -35.9622 2134.4504
97.3515 -12.6536 -35.9231 2135.4524
98.3025 -12.9674 -35.8839 2136.4546
99.2574 -13.2680 -35.8446 2137.4565
100.2166 -13.5553 -35.8051 2138.4587
101.1799 -13.8286 -35.7656 2139.4607
102.1472 -14.0874 -35.7261 2140.4629
103.1185 -14.3313 -35.6866 2141.4651
104.0934 -14.5597 -35.6475 2142.4670
105.0717 -14.7725 -35.6086 2143.4692
106.0533 -14.9696 -35.5703 2144.4712
107.0384 -15.1510 -35.5325 2145.4734
108.0257 -15.3165 -35.4955 2146.4753
109.0161 -15.4663 -35.4593 2147.4775
110.0084 -15.6000 -35.4240 2148.4795
111.0032 -15.7172 -35.3898 2149.4817
111.9999 -15.8178 -35.3567 2150.4839
112.9977 -15.9012 -35.3248 2151.4858
113.9972 -15.9673 -35.2941 2152.4880
114.9976 -16.0159 -35.2646 2153.4900
115.9987 -16.0472 -35.2363 2154.4922
117.0002 -16.0620 -35.2091 2155.4941
118.0022 -16.0597 -35.1830 2156.4963
119.0037 -16.0399 -35.1577 2157.4983
120.0047 -16.0022 -35.1334 2158.5005
121.0051 -15.9462 -35.1098 2159.5027
122.0040 -15.8719 -35.0868 2160.5046
123.0018 -15.7789 -35.0645 2161.5068
123.9971 -15.6675 -35.0426 2162.5088
124.9906 -15.5375 -35.0211 2163.5110
125.9812 -15.3893 -35.0000 2164.5129
126.9692 -15.2228 -34.9793 2165.5151
127.9542 -15.0382 -34.9589 2166.5173
128.9353 -14.8357 -34.9388 2167.5193
129.9127 -14.6154 -34.9191 2168.5215
130.8858 -14.3776 -34.8996 2169.5234
131.8548 -14.1224 -34.8805 2170.5256
132.8189 -13.8503 -34.8616 2171.5276
133.7782 -13.5615 -34.8429 2172.5298
134.7324 -13.2560 -34.8246 2173.5317
135.6814 -12.9342 -34.8064 2174.5339
136.6249 -12.5967 -34.7883 2175.5361
137.5626 -12.2447 -34.7703 2176.5381
138.4956 -11.8790 -34.7523 2177.5403
139.4235 -11.5011 -34.7342 2178.5422
140.3468 -11.1123 -34.7159 2179.5444
141.2659 -10.7138 -34.6975 2180.5464
142.1816 -10.3066 -34.6787 2181.5486
143.0934 -9.8922 -34.6596 2182.5505
144.0029 -9.4713 -34.6403 2183.5527
144.9099 -9.0451 -34.6206 2184.5549
145.8145 -8.6151 -34.6006 2185.5569
146.7180 -8.1819 -34.5803 2186.5591
147.6201 -7.7468 -34.5598 2187.5610
148.5222 -7.3102 -34.5389 2188.5632
149.4236 -6.8731 -34.5179 2189.5652
150.3251 -6.4360 -34.4966 2190.5674
151.2265 -5.9990 -34.4754 2191.5693
152.1283 -5.5623 -34.4540 2192.5715
153.0302 -5.1259 -34.4328 2193.5737
153.9320 -4.6898 -34.4116 2194.5757
154.8341 -4.2537 -34.3906 2195.5779
155.7361 -3.8177 -34.3697 2196.5798
156.6383 -3.3818 -34.3490 2197.5820
157.5404 -2.9463 -34.3285 2198.5840
158.4430 -2.5113 -34.3080 2199.5862
159.3459 -2.0772 -34.2876 2200.5881
160.2496 -1.6444 -34.2671 2201.5903
161.1539 -1.2128 -34.2465 2202.5925
162.0584 -0.7824 -34.2258 2203.5945
162.9637 -0.3529 -34.2049 2204.5967
163.8691 0.0755 -34.1838 2205.5986
164.7751 0.5034 -34.1625 2206.6008
165.6811 0.9308 -34.1409 2207.6028
166.5872 1.3586 -34.1192 2208.6050
167.4930 1.7868 -34.0974 2209.6072
168.3982 2.2158 -34.0756 2210.6091
169.3034 2.6458 -34.0538 2211.6113
170.2077 3.0763 -34.0322 2212.6133
171.1118 3.5079 -34.0110 2213.6155
172.0152 3.9408 -33.9904 2214.6174
172.9183 4.3753 -33.9705 2215.6196
173.8203 4.8110 -33.9517 2216.6216
174.7219 5.2483 -33.9341 2217.6238
175.6229 5.6867 -33.9180 2218.6260
176.5232 6.1261 -33.9037 2219.6279
177.4234 6.5664 -33.8913 2220.6301
178.3232 7.0073 -33.8809 2221.6321
179.2229 7.4486 -33.8726 2222.6343
180.1225 7.8898 -33.8663 2223.6362
181.0224 8.3308 -33.8617 2224.6384
181.9222 8.7716 -33.8584 2225.6404
182.8219 9.2135 -33.8558 2226.6426
183.7206 9.6567 -33.8531 2227.6448
184.6184 10.1014 -33.8494 2228.6467
185.5158 10.5476 -33.8435 2229.6489
186.4122 10.9953 -33.8343 2230.6509
187.3073 11.4460 -33.8204 2231.6531
188.2003 11.8996 -33.8008 2232.6550
189.0921 12.3562 -33.7742 2233.6572
189.9823 12.8147 -33.7396 2234.6592
190.8716 13.2745 -33.6962 2235.6614
191.7605 13.7344 -33.6435 2236.6636
192.6493 14.1930 -33.5812 2237.6655
193.5388 14.6488 -33.5095 2238.6677
194.4298 15.1000 -33.4288 2239.6697
195.3236 15.5448 -33.3399 2240.6719
196.2207 15.9805 -33.2441 2241.6738
197.1228 16.4049 -33.1428 2242.6760
198.0312 16.8148 -33.0378 2243.6780
198.9474 17.2068 -32.9309 2244.6802
199.8724 17.5768 -32.8242 2245.6824
200.8082 17.9190 -32.7197 2246.6843
201.7568 18.2267 -32.6194 2247.6865
202.7178 18.4937 -32.5250 2248.6885
203.6913 18.7149 -32.4379 2249.6907
204.6750 18.8869 -32.3590 2250.6926
205.6671 19.0091 -32.2888 2251.6948
206.6647 19.0831 -32.2276 2252.6970
207.6647 19.1113 -32.1753 2253.6990
208.6658 19.0967 -32.1318 2254.7012
209.6657 19.0425 -32.0969 2255.7031
210.6634 18.9524 -32.0702 2256.7053
211.6577 18.8302 -32.0513 2257.7073
212.6482 18.6789 -32.0399 2258.7095
213.6342 18.5014 -32.0355 2259.7114
214.6160 18.2998 -32.0375 2260.7136
215.5928 18.0758 -32.0453 2261.7158
216.5642 17.8309 -32.0583 2262.7178
217.5308 17.5662 -32.0757 2263.7200
218.4915 17.2830 -32.0969 2264.7219
219.4471 16.9824 -32.1209 2265.7241
220.3974 16.6659 -32.1469 2266.7261
221.3430 16.3348 -32.1741 2267.7283
222.2839 15.9914 -32.2016 2268.7302
223.2214 15.6382 -32.2285 2269.7324
224.1562 15.2779 -32.2540 2270.7346
225.0899 14.9146 -32.2772 2271.7366
226.0247 14.5543 -32.2972 2272.7388
226.9659 14.2109 -32.3132 2273.7407
227.9230 13.9150 -32.3243 2274.7429
228.9056 13.7231 -32.3300 2275.7449
229.9057 13.7164 -32.3299 2276.7471
230.8874 13.9104 -32.3244 2277.7490
231.8321 14.2427 -32.3141 2278.7512
232.7274 14.6913 -32.2999 2279.7534
233.5321 15.2850 -32.2827 2280.7554
234.1597 16.0617 -32.2639 2281.7576
234.6003 16.9604 -32.2443 2282.7595
234.9415 17.9021 -32.2237 2283.7617
235.2356 18.8599 -32.2022 2284.7637
235.5070 19.8244 -32.1806 2285.7659
235.7648 20.7923 -32.1601 2286.7678
236.0126 21.7632 -32.1421 2287.7700
236.2541 22.7356 -32.1277 2288.7722
236.4950 23.7082 -32.1181 2289.7742
236.7419 24.6796 -32.1143 2290.7764
237.0014 25.6472 -32.1172 2291.7783
237.2789 26.6102 -32.1275 2292.7805
237.5769 27.5665 -32.1459 2293.7825
237.8966 28.5161 -32.1728 2294.7847
238.2383 29.4575 -32.2083 2295.7869
238.6028 30.3896 -32.2525 2296.7888
238.9912 31.3121 -32.3052 2297.7910
239.4052 32.2224 -32.3661 2298.7930
239.8484 33.1185 -32.4346 2299.7952
240.3256 33.9964 -32.5098 2300.7971
240.8428 34.8508 -32.5908 2301.7993
241.4063 35.6745 -32.6759 2302.8013
242.0233 36.4593 -32.7637 2303.8035
242.6964 37.1961 -32.8521 2304.8057
243.4202 37.8832 -32.9395 2305.8076
244.1852 38.5250 -33.0249 2306.8098
244.9815 39.1273 -33.1074 2307.8118
245.8024 39.6964 -33.1865 2308.8140
246.6429 40.2367 -33.2620 2309.8159
247.4996 40.7515 -33.3335 2310.8181
248.3695 41.2439 -33.4006 2311.8201
249.2505 41.7176 -33.4628 2312.8223
250.1402 42.1755 -33.5197 2313.8245
251.0367 42.6204 -33.5708 2314.8264
251.9387 43.0546 -33.6156 2315.8286
252.8449 43.4803 -33.6537 2316.8306
253.7547 43.8997 -33.6852 2317.8328
254.6664 44.3144 -33.7099 2318.8347
255.5798 44.7265 -33.7283 2319.8369
256.4939 45.1367 -33.7406 2320.8389
257.4086 45.5460 -33.7477 2321.8411
258.3231 45.9558 -33.7502 2322.8433
259.2375 46.3654 -33.7490 2323.8452
260.1523 46.7747 -33.7450 2324.8474
261.0660 47.1856 -33.7393 2325.8494
261.9790 47.5994 -33.7328 2326.8516
262.8902 48.0158 -33.7262 2327.8535
263.8008 48.4342 -33.7205 2328.8557
264.7101 48.8552 -33.7161 2329.8577
265.6182 49.2793 -33.7137 2330.8599
266.5250 49.7058 -33.7135 2331.8621
267.4305 50.1345 -33.7158 2332.8640
268.3352 50.5658 -33.7205 2333.8662
269.2389 50.9983 -33.7277 2334.8682
270.1426 51.4314 -33.7370 2335.8704
271.0458 51.8651 -33.7484 2336.8723
271.9489 52.2997 -33.7615 2337.8745
272.8516 52.7348 -33.7761 2338.8767
273.7539 53.1698 -33.7917 2339.8787
274.6568 53.6047 -33.8082 2340.8809
275.5599 54.0385 -33.8252 2341.8828
276.4636 54.4712 -33.8424 2342.8850
277.3674 54.9033 -33.8598 2343.8870
278.2715 55.3354 -33.8770 2344.8892
279.1752 55.7680 -33.8938 2345.8911
280.0787 56.2013 -33.9103 2346.8933
280.9819 56.6353 -33.9261 2347.8955
281.8845 57.0699 -33.9414 2348.8975
282.7873 57.5051 -33.9559 2349.8997
283.6895 57.9403 -33.9697 2350.9016
284.5923 58.3756 -33.9826 2351.9038
285.4944 58.8113 -33.9948 2352.9058
286.3963 59.2482 -34.0060 2353.9080
287.2973 59.6866 -34.0164 2354.9099
288.1977 60.1266 -34.0259 2355.9121
289.0972 60.5682 -34.0345 2356.9143
289.9961 61.0109 -34.0422 2357.9163
290.8949 61.4544 -34.0490 2358.9185
291.7932 61.8980 -34.0549 2359.9204
292.6916 62.3420 -34.0598 2360.9226
293.5896 62.7863 -34.0639 2361.9246
294.4880 63.2307 -34.0670 2362.9268
295.3863 63.6745 -34.0693 2363.9287
296.2853 64.1173 -34.0707 2364.9309
297.1851 64.5588 -34.0712 2365.9331
298.0851 64.9989 -34.0710 2366.9351
298.9857 65.4387 -34.0699 2367.9373
299.8862 65.8780 -34.0679 2368.9392
300.7873 66.3167 -34.0652 2369.9414
301.6887 66.7540 -34.0617 2370.9434
302.5910 67.1903 -34.0575 2371.9456
303.4933 67.6260 -34.0524 2372.9475
304.3958 68.0615 -34.0467 2373.9497
305.2988 68.4962 -34.0402 2374.9519
306.2021 68.9298 -34.0331 2375.9539
307.1058 69.3631 -34.0254 2376.9561
308.0092 69.7963 -34.0170 2377.9580
308.9128 70.2295 -34.0081 2378.9602
309.8166 70.6622 -33.9987 2379.9622
310.7207 71.0941 -33.9888 2380.9644
311.6253 71.5257 -33.9785 2381.9666
312.5296 71.9568 -33.9677 2382.9685
313.4347 72.3873 -33.9565 2383.9707
314.3400 72.8163 -33.9450 2384.9727
315.2460 73.2443 -33.9330 2385.9749
316.1527 73.6706 -33.9207 2386.9768
317.0607 74.0945 -33.9080 2387.9790
317.9698 74.5157 -33.8949 2388.9810
318.8803 74.9343 -33.8813 2389.9832
319.7924 75.3495 -33.8673 2390.9854
320.7062 75.7600 -33.8529 2391.9873
321.6224 76.1656 -33.8379 2392.9895
322.5414 76.5651 -33.8225 2393.9915
323.4633 76.9575 -33.8065 2394.9937
324.3885 77.3419 -33.7900 2395.9956
325.3174 77.7175 -33.7729 2396.9978
326.2499 78.0835 -33.7552 2397.9998
327.1866 78.4396 -33.7370 2399.0020
328.1272 78.7852 -33.7183 2400.0042
329.0714 79.1197 -33.6990 2401.0061
330.0197 79.4435 -33.6791 2402.0083
330.9715 79.7556 -33.6587 2403.0103
331.9275 80.0557 -33.6378 2404.0125
332.8867 80.3445 -33.6163 2405.0144
333.8494 80.6219 -33.5943 2406.0166
334.8153 80.8872 -33.5718 2407.0186
335.7849 81.1402 -33.5488 2408.0208
336.7573 81.3811 -33.5253 2409.0229
337.7325 81.6100 -33.5013 2410.0249
338.7108 81.8262 -33.4770 2411.0271
339.6914 82.0302 -33.4522 2412.0291
340.6747 82.2227 -33.4271 2413.0312
341.6599 82.4031 -33.4017 2414.0332
342.6477 82.5710 -33.3761 2415.0354
343.6370 82.7274 -33.3504 2416.0374
344.6282 82.8729 -33.3245 2417.0396
345.6210 83.0068 -33.2986 2418.0417
346.6152 83.1292 -33.2728 2419.0437
347.6108 83.2404 -33.2471 2420.0459
348.6075 83.3394 -33.2216 2421.0479
349.6057 83.4260 -33.1962 2422.0500
350.6046 83.5002 -33.1712 2423.0520
351.6046 83.5617 -33.1464 2424.0542
352.6052 83.6106 -33.1219 2425.0564
353.6064 83.6472 -33.0977 2426.0583
354.6078 83.6714 -33.0738 2427.0605
355.6095 83.6834 -33.0502 2428.0625
356.6115 83.6838 -33.0268 2429.0647
357.6130 83.6722 -33.0038 2430.0667
358.6147 83.6489 -32.9810 2431.0688
359.6156 83.6143 -32.9584 2432.0708
360.6166 83.5678 -32.9361 2433.0730
361.6169 83.5100 -32.9139 2434.0752
362.6162 83.4414 -32.8920 2435.0771
363.6150 83.3618 -32.8703 2436.0793
364.6125 83.2704 -32.8489 2437.0813
365.6092 83.1677 -32.8276 2438.0835
366.6046 83.0551 -32.8065 2439.0854
367.5991 82.9322 -32.7858 2440.0876
368.5919 82.7986 -32.7653 2441.0896
369.5833 82.6536 -32.7451 2442.0918
370.5730 82.4977 -32.7254 2443.0940
371.5610 82.3310 -32.7061 2444.0959
372.5470 82.1533 -32.6873 2445.0981
373.5308 81.9643 -32.6690 2446.1001
374.5125 81.7635 -32.6513 2447.1023
375.4914 81.5504 -32.6343 2448.1042
376.4677 81.3245 -32.6181 2449.1064
377.4406 81.0860 -32.6025 2450.1084
378.4109 80.8356 -32.5878 2451.1106
379.3784 80.5737 -32.5738 2452.1128
380.3422 80.3008 -32.5607 2453.1147
381.3033 80.0170 -32.5486 2454.1169
382.2609 79.7228 -32.5373 2455.1189
383.2157 79.4181 -32.5270 2456.1211
384.1670 79.1034 -32.5178 2457.1230
385.1150 78.7787 -32.5097 2458.1252
386.0594 78.4440 -32.5028 2459.1272
387.0003 78.0991 -32.4971 2460.1294
387.9374 77.7440 -32.4928 2461.1316
388.8706 77.3793 -32.4898 2462.1335
389.8004 77.0050 -32.4884 2463.1357
390.7260 76.6217 -32.4884 2464.1377
391.6483 76.2290 -32.4900 2465.1399
392.5662 75.8274 -32.4932 2466.1418
393.4802 75.4167 -32.4979 2467.1440
394.3901 74.9967 -32.5040 2468.1462
395.2955 74.5675 -32.5115 2469.1482
396.1964 74.1285 -32.5203 2470.1504
397.0920 73.6794 -32.5302 2471.1523
