VERSION 0.7
FIELDS x y z lapdistance
SIZE 4 4 4 4
TYPE F F F F
COUNT 1 1 1 1
WIDTH 1315
HEIGHT 1
VIEWPOINT 0.000 0.000 0.000 1.000 0.000 0.000 0.000
POINTS 1315
DATA ascii
-64.4189 100.4420 -34.5580 1160.6770
-63.8394 101.2598 -34.5642 1161.6793
-63.2643 102.0806 -34.5701 1162.6816
-62.6936 102.9045 -34.5758 1163.6838
-62.1273 103.7315 -34.5815 1164.6862
-61.5653 104.5614 -34.5871 1165.6885
-61.0076 105.3943 -34.5928 1166.6908
-60.4542 106.2299 -34.5985 1167.6931
-59.9050 107.0683 -34.6045 1168.6954
-59.3599 107.9095 -34.6108 1169.6978
-58.8190 108.7533 -34.6173 1170.7001
-58.2822 109.5997 -34.6242 1171.7024
-57.7493 110.4487 -34.6315 1172.7047
-57.2205 111.3000 -34.6392 1173.7070
-56.6956 112.1539 -34.6473 1174.7094
-56.1746 113.0101 -34.6557 1175.7117
-55.6575 113.8686 -34.6645 1176.7140
-55.1440 114.7295 -34.6735 1177.7163
-54.6345 115.5924 -34.6828 1178.7185
-54.1285 116.4576 -34.6922 1179.7208
-53.6261 117.3249 -34.7017 1180.7231
-53.1274 118.1942 -34.7112 1181.7255
-52.6322 119.0656 -34.7207 1182.7278
-52.1404 119.9389 -34.7300 1183.7301
-51.6521 120.8142 -34.7392 1184.7324
-51.1671 121.6914 -34.7481 1185.7347
-50.6855 122.5704 -34.7566 1186.7371
-50.2071 123.4511 -34.7649 1187.7394
-49.7320 124.3336 -34.7728 1188.7417
-49.2600 125.2178 -34.7803 1189.7440
-48.7910 126.1037 -34.7874 1190.7463
-48.3252 126.9911 -34.7941 1191.7487
-47.8623 127.8802 -34.8003 1192.7510
-47.4024 128.7706 -34.8062 1193.7533
-46.9453 129.6626 -34.8117 1194.7556
-46.4910 130.5560 -34.8167 1195.7578
-46.0395 131.4509 -34.8214 1196.7601
-45.5906 132.3471 -34.8256 1197.7625
-45.1444 133.2445 -34.8294 1198.7648
-44.7008 134.1433 -34.8328 1199.7671
-44.2596 135.0433 -34.8357 1200.7694
-43.8210 135.9445 -34.8382 1201.7717
-43.3847 136.8469 -34.8401 1202.7740
-42.9508 137.7505 -34.8416 1203.7764
-42.5192 138.6551 -34.8425 1204.7787
-42.0898 139.5608 -34.8429 1205.7810
-41.6627 140.4676 -34.8427 1206.7833
-41.2376 141.3753 -34.8420 1207.7856
-40.8147 142.2840 -34.8407 1208.7880
-40.3938 143.1936 -34.8390 1209.7903
-39.9750 144.1041 -34.8367 1210.7925
-39.5580 145.0156 -34.8338 1211.7948
-39.1430 145.9280 -34.8305 1212.7971
-38.7298 146.8411 -34.8267 1213.7994
-38.3185 147.7551 -34.8225 1214.8018
-37.9089 148.6700 -34.8179 1215.8041
-37.5011 149.5856 -34.8129 1216.8064
-37.0951 150.5020 -34.8077 1217.8087
-36.6907 151.4191 -34.8022 1218.8110
-36.2880 152.3370 -34.7966 1219.8134
-35.8869 153.2555 -34.7909 1220.8157
-35.4874 154.1747 -34.7851 1221.8180
-35.0895 155.0946 -34.7794 1222.8203
-34.6930 156.0153 -34.7737 1223.8226
-34.2981 156.9364 -34.7680 1224.8250
-33.9046 157.8582 -34.7625 1225.8273
-33.5125 158.7807 -34.7571 1226.8296
-33.1219 159.7036 -34.7519 1227.8318
-32.7326 160.6273 -34.7468 1228.8341
-32.3447 161.5514 -34.7418 1229.8364
-31.9580 162.4761 -34.7369 1230.8387
-31.5726 163.4014 -34.7321 1231.8411
-31.1885 164.3272 -34.7274 1232.8434
-30.8055 165.2535 -34.7227 1233.8457
-30.4238 166.1802 -34.7181 1234.8480
-30.0431 167.1075 -34.7135 1235.8503
-29.6637 168.0351 -34.7089 1236.8527
-29.2852 168.9633 -34.7043 1237.8550
-28.9079 169.8918 -34.6997 1238.8573
-28.5315 170.8208 -34.6952 1239.8596
-28.1562 171.7502 -34.6906 1240.8619
-27.7818 172.6799 -34.6861 1241.8643
-27.4085 173.6099 -34.6816 1242.8665
-27.0359 174.5404 -34.6772 1243.8688
-26.6642 175.4713 -34.6728 1244.8711
-26.2934 176.4025 -34.6684 1245.8734
-25.9234 177.3340 -34.6641 1246.8757
-25.5542 178.2658 -34.6598 1247.8781
-25.1857 179.1980 -34.6556 1248.8804
-24.8180 180.1304 -34.6514 1249.8827
-24.4510 181.0631 -34.6471 1250.8850
-24.0846 181.9961 -34.6429 1251.8873
-23.7188 182.9293 -34.6386 1252.8896
-23.3537 183.8626 -34.6343 1253.8920
-22.9891 184.7963 -34.6299 1254.8943
-22.6251 185.7302 -34.6253 1255.8966
-22.2616 186.6642 -34.6206 1256.8989
-21.8985 187.5985 -34.6157 1257.9012
-21.5359 188.5329 -34.6105 1258.9036
-21.1738 189.4674 -34.6051 1259.9058
-20.8120 190.4021 -34.5993 1260.9081
-20.4506 191.3370 -34.5931 1261.9104
-20.0895 192.2720 -34.5865 1262.9127
-19.7287 193.2071 -34.5795 1263.9150
-19.3682 194.1423 -34.5720 1264.9174
-19.0079 195.0776 -34.5639 1265.9197
-18.6479 196.0130 -34.5553 1266.9220
-18.2880 196.9484 -34.5462 1267.9243
-17.9283 197.8839 -34.5364 1268.9266
-17.5687 198.8194 -34.5261 1269.9290
-17.2092 199.7551 -34.5151 1270.9313
-16.8498 200.6906 -34.5035 1271.9336
-16.4904 201.6261 -34.4912 1272.9359
-16.1310 202.5618 -34.4783 1273.9382
-15.7716 203.4973 -34.4647 1274.9404
-15.4122 204.4327 -34.4505 1275.9427
-15.0527 205.3682 -34.4357 1276.9451
-14.6930 206.3037 -34.4202 1277.9474
-14.3332 207.2392 -34.4041 1278.9497
-13.9733 208.1744 -34.3875 1279.9520
-13.6132 209.1096 -34.3702 1280.9543
-13.2529 210.0448 -34.3525 1281.9567
-12.8923 210.9799 -34.3343 1282.9590
-12.5315 211.9149 -34.3156 1283.9613
-12.1704 212.8496 -34.2965 1284.9636
-11.8089 213.7842 -34.2770 1285.9659
-11.4471 214.7187 -34.2572 1286.9683
-11.0848 215.6531 -34.2370 1287.9706
-10.7222 216.5873 -34.2165 1288.9729
-10.3591 217.5213 -34.1957 1289.9752
-9.9955 218.4551 -34.1746 1290.9775
-9.6315 219.3886 -34.1533 1291.9797
-9.2669 220.3221 -34.1319 1292.9821
-8.9018 221.2553 -34.1102 1293.9844
-8.5360 222.1883 -34.0884 1294.9867
-8.1697 223.1209 -34.0665 1295.9890
-7.8027 224.0534 -34.0445 1296.9913
-7.4350 224.9855 -34.0225 1297.9937
-7.0666 225.9175 -34.0006 1298.9960
-6.6975 226.8490 -33.9788 1299.9983
-6.3276 227.7805 -33.9571 1301.0006
-5.9570 228.7114 -33.9356 1302.0029
-5.5854 229.6422 -33.9144 1303.0052
-5.2131 230.5724 -33.8935 1304.0076
-4.8399 231.5026 -33.8730 1305.0099
-4.4658 232.4322 -33.8528 1306.0122
-4.0907 233.3614 -33.8331 1307.0144
-3.7147 234.2902 -33.8136 1308.0167
-3.3377 235.2187 -33.7944 1309.0190
-2.9596 236.1468 -33.7754 1310.0214
-2.5804 237.0745 -33.7564 1311.0237
-2.2002 238.0017 -33.7372 1312.0260
-1.8188 238.9284 -33.7177 1313.0283
-1.4363 239.8546 -33.6976 1314.0306
-1.0526 240.7804 -33.6767 1315.0330
-0.6677 241.7056 -33.6550 1316.0353
-0.2815 242.6302 -33.6322 1317.0376
0.1060 243.5544 -33.6082 1318.0399
0.4947 244.4778 -33.5830 1319.0422
0.8847 245.4007 -33.5565 1320.0446
1.2762 246.3231 -33.5287 1321.0469
1.6690 247.2447 -33.4996 1322.0492
2.0634 248.1658 -33.4692 1323.0515
2.4591 249.0860 -33.4377 1324.0537
2.8564 250.0056 -33.4050 1325.0560
3.2552 250.9246 -33.3714 1326.0583
3.6557 251.8427 -33.3367 1327.0607
4.0578 252.7602 -33.3013 1328.0630
4.4616 253.6769 -33.2651 1329.0653
4.8671 254.5927 -33.2282 1330.0676
5.2744 255.5078 -33.1908 1331.0699
5.6836 256.4219 -33.1528 1332.0723
6.0948 257.3353 -33.1144 1333.0746
6.5078 258.2477 -33.0756 1334.0769
6.9229 259.1592 -33.0366 1335.0792
7.3402 260.0697 -32.9973 1336.0815
7.7596 260.9792 -32.9580 1337.0839
8.1813 261.8876 -32.9188 1338.0862
8.6054 262.7948 -32.8796 1339.0884
9.0320 263.7010 -32.8407 1340.0907
9.4612 264.6060 -32.8021 1341.0930
9.8931 265.5096 -32.7639 1342.0953
10.3279 266.4119 -32.7260 1343.0977
10.7656 267.3130 -32.6886 1344.1000
11.2064 268.2123 -32.6517 1345.1023
11.6504 269.1102 -32.6151 1346.1046
12.0977 270.0065 -32.5789 1347.1069
12.5484 270.9010 -32.5429 1348.1093
13.0027 271.7937 -32.5072 1349.1116
13.4607 272.6846 -32.4716 1350.1139
13.9225 273.5735 -32.4362 1351.1162
14.3883 274.4603 -32.4008 1352.1185
14.8580 275.3449 -32.3654 1353.1208
15.3320 276.2274 -32.3300 1354.1232
15.8102 277.1076 -32.2947 1355.1255
16.2926 277.9854 -32.2594 1356.1277
16.7796 278.8607 -32.2242 1357.1300
17.2711 279.7334 -32.1890 1358.1323
17.7674 280.6036 -32.1539 1359.1346
18.2686 281.4710 -32.1189 1360.1370
18.7747 282.3354 -32.0842 1361.1393
19.2860 283.1967 -32.0497 1362.1416
19.8026 284.0550 -32.0154 1363.1439
20.3247 284.9100 -31.9813 1364.1462
20.8524 285.7615 -31.9476 1365.1486
21.3857 286.6095 -31.9142 1366.1509
21.9249 287.4538 -31.8812 1367.1532
22.4700 288.2943 -31.8485 1368.1555
23.0211 289.1309 -31.8163 1369.1578
23.5784 289.9633 -31.7845 1370.1602
24.1421 290.7915 -31.7531 1371.1624
24.7122 291.6152 -31.7221 1372.1647
25.2890 292.4344 -31.6916 1373.1670
25.8724 293.2487 -31.6615 1374.1693
26.4627 294.0582 -31.6318 1375.1716
27.0601 294.8627 -31.6026 1376.1740
27.6644 295.6618 -31.5737 1377.1763
28.2758 296.4554 -31.5452 1378.1786
28.8946 297.2436 -31.5171 1379.1809
29.5207 298.0258 -31.4893 1380.1832
30.1542 298.8019 -31.4618 1381.1855
30.7954 299.5720 -31.4346 1382.1879
31.4440 300.3356 -31.4078 1383.1902
32.1003 301.0927 -31.3813 1384.1925
32.7643 301.8430 -31.3550 1385.1948
33.4360 302.5865 -31.3292 1386.1971
34.1154 303.3230 -31.3037 1387.1995
34.8024 304.0523 -31.2787 1388.2017
35.4972 304.7743 -31.2542 1389.2040
36.1997 305.4888 -31.2302 1390.2063
36.9098 306.1958 -31.2068 1391.2086
37.6275 306.8952 -31.1841 1392.2109
38.3527 307.5866 -31.1620 1393.2133
39.0855 308.2701 -31.1407 1394.2156
39.8258 308.9456 -31.1200 1395.2179
40.5735 309.6128 -31.1001 1396.2202
41.3286 310.2717 -31.0810 1397.2225
42.0910 310.9221 -31.0626 1398.2249
42.8607 311.5640 -31.0449 1399.2272
43.6374 312.1971 -31.0280 1400.2295
44.4214 312.8213 -31.0117 1401.2318
45.2125 313.4367 -30.9961 1402.2341
46.0104 314.0428 -30.9812 1403.2363
46.8154 314.6398 -30.9669 1404.2386
47.6273 315.2275 -30.9532 1405.2410
48.4458 315.8058 -30.9400 1406.2433
49.2711 316.3745 -30.9274 1407.2456
50.1029 316.9337 -30.9153 1408.2479
50.9412 317.4831 -30.9037 1409.2502
51.7857 318.0226 -30.8926 1410.2526
52.6366 318.5523 -30.8820 1411.2549
53.4936 319.0720 -30.8718 1412.2572
54.3566 319.5816 -30.8620 1413.2595
55.2256 320.0811 -30.8526 1414.2618
56.1003 320.5704 -30.8435 1415.2642
56.9806 321.0492 -30.8348 1416.2664
57.8666 321.5178 -30.8264 1417.2687
58.7581 321.9760 -30.8183 1418.2710
59.6547 322.4240 -30.8104 1419.2733
60.5564 322.8614 -30.8028 1420.2756
61.4632 323.2885 -30.7954 1421.2780
62.3748 323.7052 -30.7881 1422.2803
63.2911 324.1114 -30.7809 1423.2826
64.2119 324.5072 -30.7737 1424.2849
65.1372 324.8925 -30.7666 1425.2872
66.0667 325.2674 -30.7593 1426.2896
67.0004 325.6320 -30.7520 1427.2919
67.9380 325.9861 -30.7445 1428.2942
68.8795 326.3299 -30.7368 1429.2965
69.8246 326.6633 -30.7289 1430.2988
70.7733 326.9864 -30.7209 1431.3010
71.7254 327.2993 -30.7126 1432.3033
72.6810 327.6020 -30.7042 1433.3057
73.6397 327.8943 -30.6958 1434.3080
74.6014 328.1763 -30.6873 1435.3103
75.5661 328.4483 -30.6789 1436.3126
76.5336 328.7098 -30.6705 1437.3149
77.5039 328.9615 -30.6623 1438.3173
78.4766 329.2029 -30.6543 1439.3196
79.4518 329.4345 -30.6466 1440.3219
80.4292 329.6562 -30.6391 1441.3242
81.4089 329.8682 -30.6318 1442.3265
82.3905 330.0707 -30.6248 1443.3289
83.3740 330.2638 -30.6181 1444.3312
84.3593 330.4475 -30.6115 1445.3335
85.3462 330.6223 -30.6052 1446.3358
86.3347 330.7881 -30.5990 1447.3381
87.3245 330.9451 -30.5929 1448.3403
88.3158 331.0936 -30.5869 1449.3427
89.3083 331.2336 -30.5810 1450.3450
90.3018 331.3654 -30.5750 1451.3473
91.2964 331.4893 -30.5691 1452.3496
92.2920 331.6051 -30.5631 1453.3519
93.2884 331.7134 -30.5571 1454.3542
94.2857 331.8141 -30.5511 1455.3566
95.2837 331.9074 -30.5450 1456.3589
96.2822 331.9936 -30.5388 1457.3612
97.2813 332.0728 -30.5327 1458.3635
98.2811 332.1452 -30.5266 1459.3658
99.2812 332.2110 -30.5205 1460.3682
100.2818 332.2703 -30.5145 1461.3705
101.2826 332.3233 -30.5086 1462.3728
102.2837 332.3702 -30.5029 1463.3750
103.2852 332.4112 -30.4973 1464.3773
104.2869 332.4464 -30.4919 1465.3796
105.2887 332.4760 -30.4868 1466.3820
106.2907 332.5002 -30.4819 1467.3843
107.2929 332.5192 -30.4774 1468.3866
108.2951 332.5331 -30.4733 1469.3889
109.2974 332.5421 -30.4694 1470.3912
110.2997 332.5464 -30.4659 1471.3936
111.3019 332.5462 -30.4627 1472.3959
112.3043 332.5417 -30.4598 1473.3982
113.3065 332.5329 -30.4572 1474.4005
114.3088 332.5202 -30.4548 1475.4028
115.3110 332.5037 -30.4527 1476.4052
116.3131 332.4835 -30.4507 1477.4075
117.3151 332.4598 -30.4489 1478.4098
118.3171 332.4330 -30.4472 1479.4121
119.3189 332.4029 -30.4456 1480.4143
120.3206 332.3698 -30.4441 1481.4166
121.3222 332.3338 -30.4427 1482.4189
122.3239 332.2953 -30.4414 1483.4213
123.3253 332.2541 -30.4402 1484.4236
124.3267 332.2105 -30.4392 1485.4259
125.3280 332.1647 -30.4383 1486.4282
126.3292 332.1166 -30.4376 1487.4305
127.3302 332.0665 -30.4372 1488.4329
128.3312 332.0144 -30.4370 1489.4352
129.3320 331.9602 -30.4372 1490.4375
130.3327 331.9041 -30.4376 1491.4398
131.3333 331.8461 -30.4384 1492.4421
132.3339 331.7862 -30.4396 1493.4445
133.3344 331.7243 -30.4412 1494.4468
134.3345 331.6604 -30.4431 1495.4490
135.3346 331.5945 -30.4453 1496.4513
136.3346 331.5266 -30.4478 1497.4536
137.3345 331.4564 -30.4505 1498.4559
138.3342 331.3842 -30.4534 1499.4583
139.3337 331.3096 -30.4565 1500.4606
140.3331 331.2327 -30.4596 1501.4629
141.3323 331.1535 -30.4628 1502.4652
142.3312 331.0718 -30.4660 1503.4675
143.3300 330.9875 -30.4690 1504.4698
144.3286 330.9006 -30.4720 1505.4722
145.3269 330.8110 -30.4749 1506.4745
146.3249 330.7188 -30.4776 1507.4768
147.3226 330.6234 -30.4802 1508.4791
148.3202 330.5253 -30.4826 1509.4814
149.3175 330.4242 -30.4849 1510.4838
150.3143 330.3199 -30.4872 1511.4861
151.3107 330.2126 -30.4893 1512.4883
152.3069 330.1018 -30.4914 1513.4906
153.3027 329.9879 -30.4935 1514.4929
154.2981 329.8704 -30.4956 1515.4952
155.2931 329.7495 -30.4978 1516.4976
156.2877 329.6250 -30.5001 1517.4999
157.2818 329.4967 -30.5025 1518.5022
158.2753 329.3649 -30.5051 1519.5045
159.2685 329.2291 -30.5078 1520.5068
160.2610 329.0895 -30.5107 1521.5092
161.2530 328.9459 -30.5139 1522.5115
162.2443 328.7981 -30.5172 1523.5138
163.2351 328.6461 -30.5208 1524.5161
164.2251 328.4901 -30.5246 1525.5184
165.2145 328.3295 -30.5287 1526.5208
166.2030 328.1646 -30.5330 1527.5229
167.1909 327.9952 -30.5375 1528.5253
168.1780 327.8213 -30.5423 1529.5276
169.1643 327.6427 -30.5474 1530.5299
170.1496 327.4594 -30.5526 1531.5322
171.1341 327.2711 -30.5581 1532.5345
172.1176 327.0781 -30.5637 1533.5369
173.1002 326.8800 -30.5694 1534.5392
174.0817 326.6768 -30.5753 1535.5415
175.0621 326.4686 -30.5812 1536.5438
176.0414 326.2550 -30.5872 1537.5461
177.0195 326.0362 -30.5933 1538.5485
177.9964 325.8119 -30.5993 1539.5508
178.9720 325.5822 -30.6053 1540.5531
179.9463 325.3468 -30.6113 1541.5554
180.9192 325.1058 -30.6174 1542.5577
181.8906 324.8591 -30.6234 1543.5601
182.8604 324.6066 -30.6295 1544.5623
183.8289 324.3481 -30.6357 1545.5646
184.7957 324.0837 -30.6420 1546.5669
185.7608 323.8132 -30.6484 1547.5692
186.7242 323.5366 -30.6549 1548.5715
187.6857 323.2536 -30.6617 1549.5739
188.6454 322.9645 -30.6686 1550.5762
189.6031 322.6690 -30.6757 1551.5785
190.5589 322.3669 -30.6829 1552.5808
191.5124 322.0585 -30.6903 1553.5831
192.4639 321.7433 -30.6979 1554.5854
193.4131 321.4216 -30.7056 1555.5878
194.3601 321.0932 -30.7134 1556.5901
195.3047 320.7581 -30.7213 1557.5924
196.2468 320.4161 -30.7294 1558.5947
197.1864 320.0674 -30.7376 1559.5969
198.1235 319.7119 -30.7460 1560.5992
199.0580 319.3497 -30.7543 1561.6016
199.9899 318.9806 -30.7628 1562.6039
200.9191 318.6049 -30.7712 1563.6062
201.8455 318.2223 -30.7796 1564.6085
202.7691 317.8332 -30.7880 1565.6108
203.6900 317.4373 -30.7962 1566.6132
204.6080 317.0350 -30.8043 1567.6155
205.5231 316.6263 -30.8123 1568.6178
206.4354 316.2112 -30.8200 1569.6201
207.3448 315.7898 -30.8275 1570.6224
208.2514 315.3624 -30.8348 1571.6248
209.1551 314.9288 -30.8418 1572.6271
210.0559 314.4893 -30.8485 1573.6294
210.9538 314.0440 -30.8551 1574.6317
211.8488 313.5928 -30.8614 1575.6340
212.7409 313.1362 -30.8674 1576.6362
213.6302 312.6738 -30.8733 1577.6385
214.5167 312.2061 -30.8791 1578.6409
215.4003 311.7330 -30.8847 1579.6432
216.2811 311.2546 -30.8902 1580.6455
217.1592 310.7712 -30.8957 1581.6478
218.0343 310.2827 -30.9011 1582.6501
218.9067 309.7893 -30.9065 1583.6525
219.7765 309.2912 -30.9120 1584.6548
220.6434 308.7881 -30.9176 1585.6571
221.5077 308.2805 -30.9232 1586.6594
222.3693 307.7683 -30.9291 1587.6617
223.2281 307.2518 -30.9351 1588.6641
224.0845 306.7309 -30.9414 1589.6664
224.9381 306.2057 -30.9479 1590.6687
225.7891 305.6763 -30.9547 1591.6709
226.6376 305.1429 -30.9619 1592.6732
227.4836 304.6054 -30.9693 1593.6755
228.3271 304.0641 -30.9771 1594.6779
229.1682 303.5189 -30.9852 1595.6802
230.0068 302.9699 -30.9936 1596.6825
230.8430 302.4173 -31.0024 1597.6848
231.6768 301.8612 -31.0115 1598.6871
232.5083 301.3015 -31.0209 1599.6895
233.3374 300.7385 -31.0306 1600.6918
234.1643 300.1721 -31.0406 1601.6941
234.9889 299.6024 -31.0508 1602.6964
235.8114 299.0297 -31.0613 1603.6987
236.6316 298.4537 -31.0721 1604.7010
237.4498 297.8747 -31.0831 1605.7034
238.2659 297.2928 -31.0943 1606.7057
239.0798 296.7081 -31.1058 1607.7080
239.8917 296.1206 -31.1174 1608.7102
240.7017 295.5304 -31.1293 1609.7125
241.5098 294.9375 -31.1414 1610.7148
242.3159 294.3420 -31.1536 1611.7172
243.1204 293.7440 -31.1660 1612.7195
243.9228 293.1437 -31.1785 1613.7218
244.7236 292.5410 -31.1911 1614.7241
245.5226 291.9360 -31.2039 1615.7264
246.3199 291.3288 -31.2168 1616.7288
247.1158 290.7195 -31.2298 1617.7311
247.9099 290.1080 -31.2430 1618.7334
248.7024 289.4947 -31.2562 1619.7357
249.4936 288.8793 -31.2695 1620.7380
250.2832 288.2622 -31.2829 1621.7404
251.0715 287.6432 -31.2964 1622.7427
251.8584 287.0226 -31.3100 1623.7449
252.6438 286.4003 -31.3238 1624.7472
253.4282 285.7764 -31.3378 1625.7495
254.2113 285.1509 -31.3519 1626.7518
254.9932 284.5240 -31.3662 1627.7542
255.7740 283.8956 -31.3807 1628.7565
256.5536 283.2658 -31.3954 1629.7588
257.3323 282.6348 -31.4103 1630.7611
258.1099 282.0026 -31.4253 1631.7634
258.8865 281.3691 -31.4406 1632.7657
259.6621 280.7344 -31.4561 1633.7681
260.4368 280.0986 -31.4718 1634.7704
261.2106 279.4617 -31.4876 1635.7727
261.9834 278.8236 -31.5035 1636.7750
262.7554 278.1844 -31.5195 1637.7773
263.5262 277.5442 -31.5356 1638.7797
264.2962 276.9026 -31.5516 1639.7820
265.0649 276.2599 -31.5675 1640.7842
265.8327 275.6157 -31.5831 1641.7865
266.5992 274.9700 -31.5984 1642.7888
267.3641 274.3224 -31.6133 1643.7911
268.1275 273.6730 -31.6276 1644.7935
268.8890 273.0214 -31.6412 1645.7958
269.6484 272.3674 -31.6540 1646.7981
270.4056 271.7107 -31.6660 1647.8004
271.1601 271.0511 -31.6772 1648.8027
271.9120 270.3882 -31.6875 1649.8051
272.6606 269.7219 -31.6970 1650.8074
273.4060 269.0518 -31.7059 1651.8097
274.1478 268.3778 -31.7144 1652.8120
274.8855 267.6993 -31.7227 1653.8143
275.6191 267.0165 -31.7314 1654.8167
276.3482 266.3289 -31.7405 1655.8188
277.0726 265.6363 -31.7507 1656.8212
277.7921 264.9385 -31.7622 1657.8235
278.5063 264.2354 -31.7753 1658.8258
279.2151 263.5269 -31.7903 1659.8281
279.9183 262.8127 -31.8074 1660.8304
280.6153 262.0928 -31.8265 1661.8328
281.3059 261.3667 -31.8478 1662.8351
281.9899 260.6344 -31.8710 1663.8374
282.6668 259.8956 -31.8960 1664.8397
283.3361 259.1498 -31.9224 1665.8420
283.9973 258.3970 -31.9499 1666.8444
284.6501 257.6370 -31.9783 1667.8467
285.2939 256.8694 -32.0070 1668.8490
285.9285 256.0940 -32.0357 1669.8513
286.5532 255.3107 -32.0642 1670.8536
287.1676 254.5193 -32.0920 1671.8560
287.7708 253.7195 -32.1191 1672.8582
288.3627 252.9110 -32.1451 1673.8605
288.9427 252.0939 -32.1702 1674.8628
289.5100 251.2680 -32.1942 1675.8651
290.0643 250.4332 -32.2171 1676.8674
290.6049 249.5894 -32.2390 1677.8698
291.1313 248.7367 -32.2600 1678.8721
291.6429 247.8751 -32.2801 1679.8744
292.1391 247.0045 -32.2995 1680.8767
292.6194 246.1250 -32.3184 1681.8790
293.0832 245.2366 -32.3367 1682.8813
293.5296 244.3394 -32.3546 1683.8837
293.9581 243.4334 -32.3722 1684.8860
294.3679 242.5189 -32.3896 1685.8883
294.7582 241.5959 -32.4069 1686.8906
295.1281 240.6647 -32.4242 1687.8928
295.4772 239.7252 -32.4415 1688.8951
295.8045 238.7780 -32.4589 1689.8975
296.1091 237.8233 -32.4766 1690.8998
296.3904 236.8614 -32.4944 1691.9021
296.6476 235.8928 -32.5125 1692.9044
296.8799 234.9180 -32.5309 1693.9067
297.0865 233.9375 -32.5495 1694.9091
297.2668 232.9517 -32.5684 1695.9114
297.4201 231.9615 -32.5874 1696.9137
297.5457 230.9672 -32.6065 1697.9160
297.6429 229.9698 -32.6255 1698.9183
297.7114 228.9701 -32.6445 1699.9207
297.7505 227.9687 -32.6631 1700.9230
297.7600 226.9667 -32.6815 1701.9253
297.7398 225.9647 -32.6994 1702.9276
297.6895 224.9639 -32.7168 1703.9299
297.6093 223.9651 -32.7337 1704.9321
297.4991 222.9690 -32.7500 1705.9344
297.3591 221.9767 -32.7657 1706.9368
297.1898 220.9890 -32.7808 1707.9391
296.9912 220.0066 -32.7953 1708.9414
296.7641 219.0305 -32.8094 1709.9437
296.5087 218.0614 -32.8229 1710.9460
296.2255 217.1000 -32.8360 1711.9484
295.9149 216.1472 -32.8487 1712.9507
295.5779 215.2034 -32.8611 1713.9530
295.2149 214.2692 -32.8732 1714.9553
294.8268 213.3452 -32.8850 1715.9576
294.4142 212.4318 -32.8965 1716.9600
293.9779 211.5295 -32.9078 1717.9623
293.5186 210.6387 -32.9188 1718.9646
293.0372 209.7598 -32.9295 1719.9668
292.5345 208.8928 -32.9399 1720.9691
292.0110 208.0381 -32.9501 1721.9714
291.4679 207.1958 -32.9599 1722.9738
290.9056 206.3660 -32.9695 1723.9761
290.3253 205.5488 -32.9787 1724.9784
289.7277 204.7443 -32.9876 1725.9807
289.1133 203.9523 -32.9962 1726.9830
288.4832 203.1730 -33.0045 1727.9854
287.8379 202.4061 -33.0125 1728.9877
287.1782 201.6516 -33.0201 1729.9900
286.5047 200.9093 -33.0275 1730.9923
285.8182 200.1790 -33.0345 1731.9946
285.1191 199.4607 -33.0413 1732.9969
284.4082 198.7542 -33.0477 1733.9993
283.6859 198.0594 -33.0538 1735.0016
282.9528 197.3759 -33.0596 1736.0039
282.2094 196.7039 -33.0651 1737.0061
281.4558 196.0430 -33.0702 1738.0084
280.6927 195.3931 -33.0750 1739.0107
279.9206 194.7541 -33.0794 1740.0131
279.1397 194.1258 -33.0835 1741.0154
278.3503 193.5079 -33.0873 1742.0177
277.5533 192.9003 -33.0908 1743.0200
276.7486 192.3027 -33.0940 1744.0223
275.9366 191.7150 -33.0969 1745.0247
275.1180 191.1367 -33.0995 1746.0270
274.2929 190.5677 -33.1018 1747.0293
273.4616 190.0077 -33.1039 1748.0316
272.6245 189.4564 -33.1056 1749.0339
271.7819 188.9136 -33.1071 1750.0363
270.9342 188.3789 -33.1083 1751.0386
270.0815 187.8520 -33.1092 1752.0408
269.2242 187.3328 -33.1098 1753.0431
268.3627 186.8207 -33.1102 1754.0454
267.4969 186.3155 -33.1103 1755.0477
266.6273 185.8169 -33.1102 1756.0500
265.7543 185.3246 -33.1098 1757.0524
264.8779 184.8382 -33.1093 1758.0547
263.9986 184.3574 -33.1085 1759.0570
263.1162 183.8817 -33.1075 1760.0593
262.2313 183.4110 -33.1063 1761.0616
261.3440 182.9449 -33.1049 1762.0640
260.4545 182.4829 -33.1033 1763.0663
259.5630 182.0248 -33.1016 1764.0686
258.6697 181.5703 -33.0996 1765.0709
257.7747 181.1190 -33.0975 1766.0732
256.8782 180.6706 -33.0951 1767.0756
255.9804 180.2248 -33.0925 1768.0779
255.0816 179.7816 -33.0897 1769.0801
254.1817 179.3404 -33.0867 1770.0824
253.2806 178.9011 -33.0835 1771.0847
252.3788 178.4638 -33.0801 1772.0870
251.4762 178.0281 -33.0765 1773.0894
250.5727 177.5940 -33.0728 1774.0917
249.6686 177.1614 -33.0689 1775.0940
248.7637 176.7302 -33.0649 1776.0963
247.8582 176.3005 -33.0608 1777.0986
246.9521 175.8722 -33.0567 1778.1010
246.0453 175.4450 -33.0525 1779.1033
245.1380 175.0192 -33.0484 1780.1056
244.2300 174.5947 -33.0443 1781.1079
243.3215 174.1713 -33.0402 1782.1102
242.4125 173.7491 -33.0362 1783.1125
241.5030 173.3282 -33.0323 1784.1147
240.5928 172.9082 -33.0285 1785.1171
239.6822 172.4894 -33.0247 1786.1194
238.7711 172.0718 -33.0210 1787.1217
237.8595 171.6552 -33.0174 1788.1240
236.9474 171.2396 -33.0139 1789.1263
236.0348 170.8250 -33.0105 1790.1287
235.1218 170.4114 -33.0071 1791.1310
234.2084 169.9988 -33.0037 1792.1333
233.2944 169.5871 -33.0005 1793.1356
232.3802 169.1764 -32.9973 1794.1379
231.4655 168.7666 -32.9942 1795.1403
230.5503 168.3577 -32.9912 1796.1426
229.6349 167.9496 -32.9882 1797.1449
228.7190 167.5424 -32.9854 1798.1472
227.8027 167.1360 -32.9827 1799.1495
226.8862 166.7305 -32.9802 1800.1519
225.9693 166.3258 -32.9778 1801.1541
225.0520 165.9217 -32.9756 1802.1564
224.1344 165.5184 -32.9736 1803.1587
223.2165 165.1159 -32.9718 1804.1610
222.2983 164.7141 -32.9703 1805.1633
221.3797 164.3129 -32.9691 1806.1656
220.4609 163.9125 -32.9682 1807.1680
219.5417 163.5126 -32.9676 1808.1703
218.6223 163.1135 -32.9674 1809.1726
217.7027 162.7149 -32.9676 1810.1749
216.7827 162.3169 -32.9683 1811.1772
215.8625 161.9195 -32.9694 1812.1796
214.9422 161.5226 -32.9711 1813.1819
214.0216 161.1264 -32.9732 1814.1842
213.1007 160.7305 -32.9759 1815.1865
212.1797 160.3353 -32.9791 1816.1887
211.2585 159.9405 -32.9829 1817.1910
210.3370 159.5461 -32.9872 1818.1934
209.4153 159.1522 -32.9922 1819.1957
208.4935 158.7587 -32.9977 1820.1980
207.5715 158.3656 -33.0038 1821.2003
206.6494 157.9729 -33.0104 1822.2026
205.7271 157.5805 -33.0177 1823.2050
204.8046 157.1885 -33.0254 1824.2073
203.8820 156.7968 -33.0338 1825.2096
202.9594 156.4054 -33.0426 1826.2119
202.0365 156.0143 -33.0520 1827.2142
201.1136 155.6234 -33.0619 1828.2166
200.1906 155.2329 -33.0723 1829.2189
199.2674 154.8425 -33.0832 1830.2212
198.3443 154.4523 -33.0946 1831.2235
197.4210 154.0623 -33.1065 1832.2258
196.4978 153.6725 -33.1188 1833.2280
195.5744 153.2828 -33.1316 1834.2303
194.6510 152.8933 -33.1449 1835.2327
193.7276 152.5039 -33.1586 1836.2350
192.8041 152.1145 -33.1729 1837.2373
191.8805 151.7251 -33.1876 1838.2396
190.9570 151.3358 -33.2028 1839.2419
190.0335 150.9466 -33.2185 1840.2443
189.1100 150.5573 -33.2348 1841.2466
188.1865 150.1680 -33.2515 1842.2489
187.2630 149.7787 -33.2688 1843.2512
186.3397 149.3893 -33.2866 1844.2535
185.4163 148.9998 -33.3050 1845.2559
184.4929 148.6103 -33.3240 1846.2582
183.5697 148.2206 -33.3435 1847.2605
182.6466 147.8308 -33.3637 1848.2627
181.7236 147.4408 -33.3844 1849.2650
180.8005 147.0507 -33.4057 1850.2673
179.8776 146.6603 -33.4276 1851.2697
178.9547 146.2697 -33.4502 1852.2720
178.0321 145.8788 -33.4733 1853.2743
177.1096 145.4878 -33.4971 1854.2766
176.1871 145.0964 -33.5215 1855.2789
175.2648 144.7047 -33.5465 1856.2812
174.3427 144.3127 -33.5721 1857.2836
173.4207 143.9203 -33.5982 1858.2859
172.4989 143.5277 -33.6249 1859.2882
171.5773 143.1346 -33.6522 1860.2905
170.6559 142.7411 -33.6799 1861.2928
169.7346 142.3472 -33.7081 1862.2952
168.8136 141.9529 -33.7367 1863.2975
167.8927 141.5581 -33.7656 1864.2998
166.9722 141.1629 -33.7948 1865.3020
166.0518 140.7671 -33.8243 1866.3043
165.1316 140.3708 -33.8540 1867.3066
164.2117 139.9740 -33.8839 1868.3090
163.2921 139.5766 -33.9139 1869.3113
162.3726 139.1786 -33.9439 1870.3136
161.4534 138.7800 -33.9739 1871.3159
160.5345 138.3808 -34.0039 1872.3182
159.6159 137.9809 -34.0338 1873.3206
158.6976 137.5805 -34.0637 1874.3229
157.7795 137.1792 -34.0936 1875.3252
156.8618 136.7774 -34.1235 1876.3275
155.9444 136.3747 -34.1533 1877.3298
155.0273 135.9714 -34.1833 1878.3322
154.1105 135.5673 -34.2133 1879.3345
153.1942 135.1624 -34.2434 1880.3367
152.2782 134.7567 -34.2737 1881.3390
151.3625 134.3502 -34.3042 1882.3413
150.4473 133.9429 -34.3349 1883.3436
149.5323 133.5347 -34.3659 1884.3459
148.6178 133.1256 -34.3971 1885.3483
147.7037 132.7156 -34.4285 1886.3506
146.7900 132.3047 -34.4603 1887.3529
145.8768 131.8929 -34.4923 1888.3552
144.9640 131.4801 -34.5245 1889.3575
144.0516 131.0664 -34.5570 1890.3599
143.1397 130.6516 -34.5897 1891.3622
142.2283 130.2359 -34.6225 1892.3645
141.3173 129.8191 -34.6554 1893.3668
140.4069 129.4012 -34.6884 1894.3691
139.4969 128.9823 -34.7213 1895.3715
138.5874 128.5622 -34.7541 1896.3738
137.6785 128.1410 -34.7867 1897.3760
136.7701 127.7187 -34.8190 1898.3783
135.8623 127.2951 -34.8508 1899.3806
134.9550 126.8704 -34.8821 1900.3829
134.0482 126.4444 -34.9127 1901.3853
133.1420 126.0172 -34.9426 1902.3876
132.2363 125.5886 -34.9716 1903.3899
131.3314 125.1588 -34.9997 1904.3922
130.4270 124.7275 -35.0268 1905.3945
129.5232 124.2949 -35.0529 1906.3969
128.6200 123.8608 -35.0778 1907.3992
127.7177 123.4254 -35.1017 1908.4015
126.8158 122.9884 -35.1245 1909.4038
125.9148 122.5498 -35.1463 1910.4061
125.0146 122.1097 -35.1670 1911.4084
124.1151 121.6680 -35.1866 1912.4106
123.2165 121.2245 -35.2054 1913.4130
122.3186 120.7793 -35.2231 1914.4153
121.4218 120.3322 -35.2400 1915.4176
120.5258 119.8832 -35.2560 1916.4199
119.6307 119.4322 -35.2712 1917.4222
118.7368 118.9791 -35.2856 1918.4246
117.8440 118.5238 -35.2991 1919.4269
116.9523 118.0663 -35.3119 1920.4292
116.0619 117.6063 -35.3239 1921.4315
115.1727 117.1438 -35.3352 1922.4338
114.2849 116.6786 -35.3458 1923.4362
113.3985 116.2106 -35.3558 1924.4385
112.5137 115.7399 -35.3652 1925.4408
111.6304 115.2661 -35.3741 1926.4431
110.7489 114.7892 -35.3825 1927.4454
109.8691 114.3090 -35.3905 1928.4478
108.9912 113.8256 -35.3982 1929.4500
108.1153 113.3386 -35.4056 1930.4523
107.2413 112.8479 -35.4129 1931.4546
106.3694 112.3535 -35.4201 1932.4569
105.4998 111.8553 -35.4272 1933.4592
104.6324 111.3531 -35.4344 1934.4615
103.7674 110.8466 -35.4418 1935.4639
102.9050 110.3360 -35.4493 1936.4662
102.0451 109.8209 -35.4570 1937.4685
101.1880 109.3013 -35.4650 1938.4708
100.3337 108.7772 -35.4732 1939.4731
99.4823 108.2483 -35.4818 1940.4755
98.6340 107.7146 -35.4907 1941.4778
97.7888 107.1759 -35.4998 1942.4801
96.9469 106.6321 -35.5092 1943.4824
96.1084 106.0832 -35.5188 1944.4846
95.2733 105.5289 -35.5287 1945.4869
94.4419 104.9691 -35.5387 1946.4893
93.6143 104.4039 -35.5488 1947.4916
92.7906 103.8330 -35.5591 1948.4939
91.9708 103.2563 -35.5695 1949.4962
91.1551 102.6738 -35.5799 1950.4985
90.3438 102.0853 -35.5904 1951.5009
89.5370 101.4909 -35.6009 1952.5032
88.7346 100.8902 -35.6113 1953.5055
87.9370 100.2832 -35.6217 1954.5078
87.1443 99.6701 -35.6321 1955.5101
86.3564 99.0504 -35.6423 1956.5125
85.5737 98.4243 -35.6524 1957.5148
84.7964 97.7918 -35.6624 1958.5171
84.0243 97.1525 -35.6721 1959.5194
83.2579 96.5067 -35.6817 1960.5217
82.4974 95.8542 -35.6910 1961.5239
81.7425 95.1948 -35.7001 1962.5262
80.9938 94.5285 -35.7089 1963.5286
80.2513 93.8553 -35.7176 1964.5309
79.5152 93.1750 -35.7260 1965.5332
78.7858 92.4876 -35.7343 1966.5355
78.0632 91.7930 -35.7424 1967.5378
77.3476 91.0911 -35.7504 1968.5402
76.6394 90.3821 -35.7583 1969.5425
75.9385 89.6656 -35.7662 1970.5448
75.2453 88.9416 -35.7739 1971.5471
74.5600 88.2103 -35.7818 1972.5494
73.8827 87.4714 -35.7896 1973.5518
73.2139 86.7250 -35.7975 1974.5541
72.5535 85.9709 -35.8055 1975.5564
71.9021 85.2094 -35.8136 1976.5586
71.2597 84.4400 -35.8220 1977.5609
70.6265 83.6631 -35.8306 1978.5632
70.0030 82.8784 -35.8394 1979.5656
69.3891 82.0861 -35.8486 1980.5679
68.7854 81.2861 -35.8581 1981.5702
68.1918 80.4785 -35.8680 1982.5725
67.6088 79.6633 -35.8783 1983.5748
67.0366 78.8404 -35.8890 1984.5771
66.4754 78.0100 -35.9001 1985.5795
65.9254 77.1721 -35.9116 1986.5818
65.3870 76.3269 -35.9235 1987.5841
64.8602 75.4741 -35.9359 1988.5864
64.3456 74.6142 -35.9487 1989.5887
63.8432 73.7470 -35.9619 1990.5911
63.3532 72.8727 -35.9756 1991.5934
62.8760 71.9914 -35.9897 1992.5957
62.4118 71.1033 -36.0043 1993.5979
61.9608 70.2084 -36.0194 1994.6002
61.5231 69.3067 -36.0349 1995.6025
61.0992 68.3987 -36.0508 1996.6049
60.6890 67.4843 -36.0673 1997.6072
60.2929 66.5637 -36.0841 1998.6095
59.9110 65.6372 -36.1015 1999.6118
59.5435 64.7048 -36.1192 2000.6141
59.1906 63.7668 -36.1374 2001.6165
58.8524 62.8235 -36.1559 2002.6188
58.5291 61.8750 -36.1749 2003.6211
58.2208 60.9214 -36.1942 2004.6234
57.9276 59.9632 -36.2139 2005.6257
57.6496 59.0005 -36.2339 2006.6281
57.3868 58.0334 -36.2542 2007.6304
57.1394 57.0624 -36.2749 2008.6326
56.9075 56.0875 -36.2959 2009.6349
56.6911 55.1091 -36.3173 2010.6372
56.4903 54.1274 -36.3390 2011.6395
56.3051 53.1426 -36.3609 2012.6418
56.1355 52.1550 -36.3832 2013.6442
55.9816 51.1648 -36.4058 2014.6465
55.8435 50.1723 -36.4287 2015.6488
55.7213 49.1777 -36.4518 2016.6511
55.6149 48.1814 -36.4751 2017.6534
55.5246 47.1834 -36.4987 2018.6558
55.4503 46.1841 -36.5224 2019.6581
55.3922 45.1838 -36.5462 2020.6604
55.3503 44.1827 -36.5700 2021.6627
55.3249 43.1810 -36.5938 2022.6650
55.3159 42.1790 -36.6175 2023.6674
55.3236 41.1769 -36.6409 2024.6697
55.3480 40.1754 -36.6640 2025.6719
55.3893 39.1741 -36.6866 2026.6742
55.4473 38.1738 -36.7087 2027.6765
55.5223 37.1745 -36.7302 2028.6788
55.6142 36.1766 -36.7510 2029.6812
55.7230 35.1805 -36.7710 2030.6835
55.8488 34.1863 -36.7903 2031.6858
55.9916 33.1943 -36.8086 2032.6881
56.1514 32.2050 -36.8261 2033.6904
56.3280 31.2185 -36.8426 2034.6927
56.5215 30.2352 -36.8581 2035.6951
56.7317 29.2553 -36.8727 2036.6974
56.9586 28.2790 -36.8864 2037.6997
57.2020 27.3068 -36.8991 2038.7020
57.4618 26.3389 -36.9108 2039.7043
57.7380 25.3755 -36.9216 2040.7065
58.0303 24.4169 -36.9316 2041.7089
58.3388 23.4633 -36.9406 2042.7112
58.6633 22.5149 -36.9487 2043.7135
59.0036 21.5722 -36.9560 2044.7158
59.3596 20.6353 -36.9625 2045.7181
59.7311 19.7045 -36.9682 2046.7205
60.1182 18.7799 -36.9730 2047.7228
60.5206 17.8619 -36.9771 2048.7251
60.9381 16.9510 -36.9804 2049.7273
61.3709 16.0466 -36.9829 2050.7297
61.8185 15.1499 -36.9847 2051.7319
62.2810 14.2606 -36.9858 2052.7344
62.7581 13.3793 -36.9860 2053.7366
63.2500 12.5058 -36.9854 2054.7390
63.7563 11.6409 -36.9841 2055.7412
64.2770 10.7844 -36.9818 2056.7437
64.8120 9.9369 -36.9787 2057.7458
65.3614 9.0984 -36.9745 2058.7483
65.9247 8.2695 -36.9694 2059.7505
66.5021 7.4501 -36.9631 2060.7529
67.0931 6.6408 -36.9556 2061.7551
67.6978 5.8415 -36.9467 2062.7576
68.3160 5.0527 -36.9365 2063.7598
68.9476 4.2743 -36.9248 2064.7622
69.5921 3.5069 -36.9114 2065.7644
70.2496 2.7506 -36.8964 2066.7666
70.9199 2.0056 -36.8796 2067.7690
71.6026 1.2722 -36.8610 2068.7712
72.2978 0.5504 -36.8406 2069.7737
73.0050 -0.1593 -36.8182 2070.7759
73.7244 -0.8571 -36.7940 2071.7783
74.4552 -1.5423 -36.7680 2072.7805
75.1978 -2.2151 -36.7402 2073.7830
75.9516 -2.8751 -36.7108 2074.7852
76.7164 -3.5222 -36.6797 2075.7876
77.4921 -4.1562 -36.6472 2076.7898
78.2784 -4.7768 -36.6133 2077.7922
79.0750 -5.3839 -36.5782 2078.7944
79.8820 -5.9777 -36.5420 2079.7969
80.6985 -6.5574 -36.5049 2080.7991
81.5249 -7.1231 -36.4669 2081.8013
82.3608 -7.6749 -36.4283 2082.8037
83.2057 -8.2126 -36.3891 2083.8059
84.0597 -8.7363 -36.3496 2084.8083
84.9219 -9.2455 -36.3097 2085.8105
85.7926 -9.7406 -36.2696 2086.8130
86.6711 -10.2212 -36.2295 2087.8152
87.5576 -10.6875 -36.1894 2088.8176
88.4513 -11.1391 -36.1493 2089.8198
89.3525 -11.5764 -36.1095 2090.8223
90.2604 -11.9989 -36.0698 2091.8245
91.1754 -12.4068 -36.0304 2092.8269
92.0964 -12.7997 -35.9913 2093.8291
93.0240 -13.1778 -35.9525 2094.8315
93.9573 -13.5406 -35.9139 2095.8337
94.8964 -13.8883 -35.8757 2096.8359
95.8415 -14.2208 -35.8377 2097.8384
96.7914 -14.5378 -35.7999 2098.8406
97.7466 -14.8392 -35.7625 2099.8430
98.7066 -15.1250 -35.7252 2100.8452
99.6713 -15.3951 -35.6882 2101.8477
100.6399 -15.6493 -35.6515 2102.8499
101.6128 -15.8878 -35.6151 2103.8523
102.5892 -16.1105 -35.5789 2104.8545
103.5695 -16.3174 -35.5432 2105.8569
104.5528 -16.5086 -35.5079 2106.8591
105.5390 -16.6841 -35.4731 2107.8616
106.5278 -16.8440 -35.4389 2108.8638
107.5191 -16.9883 -35.4053 2109.8662
108.5124 -17.1172 -35.3725 2110.8684
109.5079 -17.2306 -35.3403 2111.8708
110.5048 -17.3285 -35.3090 2112.8730
111.5032 -17.4112 -35.2785 2113.8752
112.5029 -17.4784 -35.2489 2114.8777
113.5033 -17.5304 -35.2202 2115.8799
114.5046 -17.5670 -35.1924 2116.8823
115.5063 -17.5882 -35.1654 2117.8845
116.5084 -17.5940 -35.1393 2118.8870
117.5102 -17.5843 -35.1140 2119.8892
118.5120 -17.5590 -35.0894 2120.8916
119.5131 -17.5181 -35.0654 2121.8938
120.5136 -17.4615 -35.0421 2122.8962
121.5131 -17.3892 -35.0192 2123.8984
122.5113 -17.3011 -34.9968 2124.9009
123.5079 -17.1975 -34.9747 2125.9031
124.5029 -17.0784 -34.9529 2126.9055
125.4958 -16.9440 -34.9314 2127.9077
126.4868 -16.7943 -34.9101 2128.9102
127.4751 -16.6299 -34.8890 2129.9124
128.4610 -16.4508 -34.8681 2130.9146
129.4443 -16.2574 -34.8473 2131.9170
130.4247 -16.0500 -34.8267 2132.9192
131.4021 -15.8290 -34.8063 2133.9216
132.3763 -15.5947 -34.7859 2134.9238
133.3478 -15.3473 -34.7657 2135.9263
134.3153 -15.0877 -34.7456 2136.9285
135.2801 -14.8158 -34.7255 2137.9309
136.2412 -14.5324 -34.7055 2138.9331
137.1992 -14.2377 -34.6855 2139.9355
138.1535 -13.9323 -34.6655 2140.9377
139.1047 -13.6166 -34.6454 2141.9402
140.0522 -13.2911 -34.6253 2142.9424
140.9969 -12.9560 -34.6051 2143.9448
141.9379 -12.6120 -34.5849 2144.9470
142.8758 -12.2595 -34.5646 2145.9492
143.8109 -11.8986 -34.5443 2146.9517
144.7427 -11.5302 -34.5240 2147.9539
145.6717 -11.1543 -34.5038 2148.9563
146.5977 -10.7715 -34.4836 2149.9585
147.5212 -10.3822 -34.4636 2150.9609
148.4420 -9.9867 -34.4436 2151.9631
149.3603 -9.5854 -34.4239 2152.9656
150.2760 -9.1788 -34.4044 2153.9678
151.1898 -8.7670 -34.3851 2154.9702
152.1013 -8.3507 -34.3662 2155.9724
153.0111 -7.9300 -34.3475 2156.9749
153.9187 -7.5055 -34.3292 2157.9771
154.8249 -7.0774 -34.3113 2158.9795
155.7294 -6.6462 -34.2936 2159.9817
156.6325 -6.2121 -34.2763 2160.9839
157.5347 -5.7753 -34.2592 2161.9863
158.4356 -5.3365 -34.2424 2162.9885
159.3358 -4.8958 -34.2258 2163.9910
160.2352 -4.4537 -34.2092 2164.9932
161.1341 -4.0103 -34.1927 2165.9956
162.0323 -3.5663 -34.1761 2166.9978
162.9305 -3.1217 -34.1594 2168.0002
163.8285 -2.6770 -34.1425 2169.0024
164.7269 -2.2323 -34.1253 2170.0049
165.6252 -1.7884 -34.1078 2171.0071
166.5240 -1.3453 -34.0900 2172.0095
167.4234 -0.9034 -34.0718 2173.0117
168.3237 -0.4629 -34.0533 2174.0142
169.2248 -0.0245 -34.0345 2175.0164
170.1271 0.4118 -34.0157 2176.0188
171.0305 0.8454 -33.9967 2177.0210
171.9352 1.2761 -33.9780 2178.0232
172.8417 1.7035 -33.9595 2179.0256
173.7498 2.1273 -33.9416 2180.0278
174.6599 2.5471 -33.9244 2181.0303
175.5719 2.9625 -33.9082 2182.0325
176.4861 3.3732 -33.8933 2183.0349
177.4026 3.7788 -33.8798 2184.0371
178.3215 4.1789 -33.8679 2185.0396
179.2429 4.5733 -33.8578 2186.0417
180.1669 4.9615 -33.8494 2187.0442
181.0935 5.3432 -33.8428 2188.0464
182.0232 5.7182 -33.8376 2189.0488
182.9555 6.0859 -33.8337 2190.0510
183.8911 6.4462 -33.8304 2191.0535
184.8291 6.7984 -33.8273 2192.0557
185.7708 7.1425 -33.8236 2193.0581
186.7152 7.4776 -33.8185 2194.0603
187.6629 7.8038 -33.8111 2195.0625
188.6138 8.1204 -33.8005 2196.0649
189.5680 8.4271 -33.7859 2197.0671
190.5253 8.7235 -33.7665 2198.0696
191.4855 9.0092 -33.7413 2199.0718
192.4491 9.2837 -33.7099 2200.0742
193.4155 9.5464 -33.6715 2201.0764
194.3851 9.7970 -33.6258 2202.0789
195.3572 10.0348 -33.5725 2203.0811
196.3322 10.2593 -33.5113 2204.0835
197.3096 10.4698 -33.4422 2205.0857
198.2897 10.6658 -33.3651 2206.0881
199.2718 10.8464 -33.2804 2207.0903
200.2563 11.0109 -33.1883 2208.0928
201.2426 11.1587 -33.0897 2209.0950
202.2310 11.2890 -32.9855 2210.0972
203.2211 11.4012 -32.8775 2211.0996
204.2130 11.4946 -32.7679 2212.1018
205.2067 11.5689 -32.6599 2213.1042
206.2021 11.6238 -32.5570 2214.1064
207.1995 11.6597 -32.4630 2215.1089
208.1981 11.6772 -32.3811 2216.1111
209.1982 11.6775 -32.3134 2217.1135
210.1990 11.6613 -32.2606 2218.1157
211.2002 11.6305 -32.2224 2219.1182
212.2010 11.5874 -32.1975 2220.1204
213.2021 11.5351 -32.1840 2221.1228
214.2026 11.4765 -32.1800 2222.1250
215.2032 11.4145 -32.1833 2223.1274
216.2033 11.3521 -32.1922 2224.1296
217.2037 11.2919 -32.2051 2225.1318
218.2044 11.2366 -32.2205 2226.1343
219.2054 11.1888 -32.2373 2227.1365
220.2069 11.1514 -32.2545 2228.1389
221.2085 11.1268 -32.2713 2229.1411
222.2109 11.1180 -32.2871 2230.1436
223.2130 11.1278 -32.3014 2231.1458
224.2147 11.1596 -32.3138 2232.1482
225.2153 11.2168 -32.3239 2233.1504
226.2140 11.3034 -32.3316 2234.1528
227.2087 11.4237 -32.3367 2235.1550
228.1985 11.5827 -32.3389 2236.1575
229.1797 11.7854 -32.3381 2237.1597
230.1499 12.0376 -32.3343 2238.1621
231.1038 12.3445 -32.3275 2239.1643
232.0366 12.7108 -32.3178 2240.1667
232.9424 13.1391 -32.3055 2241.1689
233.8165 13.6286 -32.2910 2242.1711
234.6561 14.1760 -32.2747 2243.1736
235.4597 14.7743 -32.2572 2244.1758
236.2289 15.4165 -32.2391 2245.1782
236.9657 16.0956 -32.2206 2246.1804
237.6729 16.8057 -32.2023 2247.1829
238.3530 17.5415 -32.1846 2248.1851
239.0092 18.2991 -32.1678 2249.1875
239.6440 19.0745 -32.1526 2250.1897
240.2600 19.8651 -32.1394 2251.1921
240.8597 20.6681 -32.1290 2252.1943
241.4455 21.4814 -32.1219 2253.1968
242.0197 22.3028 -32.1189 2254.1990
242.5845 23.1310 -32.1206 2255.2014
243.1422 23.9637 -32.1280 2256.2036
243.6952 24.7997 -32.1420 2257.2061
244.2456 25.6369 -32.1634 2258.2083
244.7961 26.4739 -32.1933 2259.2104
245.3492 27.3089 -32.2327 2260.2129
245.9075 28.1398 -32.2827 2261.2151
246.4736 28.9647 -32.3441 2262.2175
247.0498 29.7815 -32.4177 2263.2197
247.6382 30.5883 -32.5036 2264.2222
248.2399 31.3839 -32.6014 2265.2244
248.8554 32.1674 -32.7101 2266.2268
249.4855 32.9381 -32.8273 2267.2290
250.1309 33.6954 -32.9494 2268.2314
250.7914 34.4392 -33.0714 2269.2336
251.4672 35.1703 -33.1882 2270.2361
252.1574 35.8888 -33.2958 2271.2383
252.8619 36.5955 -33.3913 2272.2407
253.5793 37.2903 -33.4734 2273.2429
254.3092 37.9736 -33.5421 2274.2451
255.0508 38.6459 -33.5980 2275.2476
255.8028 39.3067 -33.6422 2276.2498
256.5651 39.9571 -33.6759 2277.2522
257.3364 40.5965 -33.7005 2278.2544
258.1166 41.2255 -33.7174 2279.2568
258.9049 41.8444 -33.7280 2280.2590
259.7011 42.4533 -33.7333 2281.2615
260.5045 43.0523 -33.7346 2282.2637
261.3152 43.6420 -33.7330 2283.2661
262.1323 44.2223 -33.7294 2284.2683
262.9561 44.7935 -33.7247 2285.2708
263.7856 45.3557 -33.7197 2286.2729
264.6213 45.9094 -33.7153 2287.2754
265.4623 46.4545 -33.7119 2288.2776
266.3086 46.9913 -33.7101 2289.2798
267.1601 47.5204 -33.7103 2290.2822
268.0160 48.0416 -33.7126 2291.2844
268.8766 48.5554 -33.7172 2292.2869
269.7414 49.0621 -33.7241 2293.2891
270.6104 49.5621 -33.7331 2294.2915
271.4827 50.0553 -33.7442 2295.2937
272.3587 50.5424 -33.7570 2296.2961
273.2378 51.0234 -33.7713 2297.2983
274.1202 51.4988 -33.7868 2298.3008
275.0050 51.9688 -33.8032 2299.3030
275.8929 52.4340 -33.8202 2300.3054
276.7829 52.8945 -33.8375 2301.3076
277.6754 53.3507 -33.8550 2302.3101
278.5695 53.8028 -33.8724 2303.3123
279.4659 54.2513 -33.8895 2304.3147
280.3639 54.6963 -33.9062 2305.3169
281.2632 55.1382 -33.9224 2306.3191
282.1642 55.5772 -33.9380 2307.3215
283.0664 56.0134 -33.9528 2308.3237
283.9699 56.4473 -33.9669 2309.3262
284.8745 56.8786 -33.9802 2310.3284
285.7805 57.3076 -33.9927 2311.3308
286.6873 57.7342 -34.0043 2312.3330
287.5955 58.1584 -34.0151 2313.3354
288.5045 58.5800 -34.0250 2314.3376
289.4152 58.9994 -34.0341 2315.3401
290.3266 59.4160 -34.0423 2316.3423
291.2394 59.8300 -34.0496 2317.3447
292.1534 60.2413 -34.0562 2318.3469
293.0688 60.6498 -34.0618 2319.3494
293.9853 61.0553 -34.0666 2320.3516
294.9033 61.4579 -34.0706 2321.3540
295.8224 61.8573 -34.0738 2322.3562
296.7430 62.2536 -34.0761 2323.3584
297.6651 62.6466 -34.0776 2324.3608
298.5883 63.0361 -34.0784 2325.3630
299.5136 63.4224 -34.0783 2326.3655
300.4399 63.8049 -34.0774 2327.3677
301.3679 64.1838 -34.0758 2328.3701
302.2974 64.5589 -34.0734 2329.3723
303.2284 64.9301 -34.0702 2330.3748
304.1609 65.2973 -34.0662 2331.3770
305.0952 65.6605 -34.0615 2332.3794
306.0309 66.0194 -34.0562 2333.3816
306.9686 66.3741 -34.0501 2334.3840
307.9076 66.7243 -34.0433 2335.3862
308.8483 67.0701 -34.0359 2336.3887
309.7908 67.4112 -34.0279 2337.3909
310.7347 67.7477 -34.0194 2338.3931
311.6807 68.0794 -34.0103 2339.3955
312.6280 68.4061 -34.0006 2340.3977
313.5773 68.7278 -33.9905 2341.4001
314.5282 69.0444 -33.9799 2342.4023
315.4809 69.3558 -33.9687 2343.4048
316.4353 69.6619 -33.9571 2344.4070
317.3915 69.9625 -33.9450 2345.4094
318.3493 70.2575 -33.9324 2346.4116
319.3089 70.5469 -33.9193 2347.4141
320.2701 70.8305 -33.9058 2348.4163
321.2332 71.1082 -33.8917 2349.4187
322.1978 71.3798 -33.8770 2350.4209
323.1643 71.6454 -33.8619 2351.4233
324.1322 71.9047 -33.8463 2352.4255
325.1019 72.1576 -33.8301 2353.4277
326.0734 72.4041 -33.8134 2354.4302
327.0462 72.6438 -33.7962 2355.4324
328.0210 72.8769 -33.7785 2356.4348
328.9971 73.1031 -33.7603 2357.4370
329.9752 73.3223 -33.7416 2358.4395
330.9545 73.5343 -33.7224 2359.4417
331.9355 73.7391 -33.7026 2360.4441
332.9181 73.9365 -33.6824 2361.4463
333.9021 74.1263 -33.6617 2362.4487
334.8874 74.3084 -33.6405 2363.4509
335.8743 74.4828 -33.6189 2364.4534
336.8622 74.6491 -33.5968 2365.4556
337.8518 74.8074 -33.5743 2366.4580
338.8425 74.9575 -33.5513 2367.4602
339.8345 75.0992 -33.5280 2368.4626
340.8276 75.2323 -33.5043 2369.4648
341.8219 75.3569 -33.4803 2370.4670
342.8174 75.4727 -33.4559 2371.4695
343.8133 75.5794 -33.4313 2372.4717
344.8108 75.6771 -33.4064 2373.4741
345.8087 75.7656 -33.3812 2374.4763
346.8077 75.8448 -33.3558 2375.4788
347.8071 75.9145 -33.3302 2376.4810
348.8074 75.9746 -33.3044 2377.4834
349.8080 76.0251 -33.2785 2378.4856
350.8094 76.0658 -33.2524 2379.4880
351.8106 76.0965 -33.2262 2380.4902
352.8124 76.1172 -33.2000 2381.4927
353.8144 76.1278 -33.1738 2382.4949
354.8165 76.1283 -33.1475 2383.4973
355.8183 76.1184 -33.1214 2384.4995
356.8203 76.0983 -33.0954 2385.5020
357.8215 76.0678 -33.0696 2386.5042
358.8226 76.0268 -33.0440 2387.5063
359.8233 75.9753 -33.0186 2388.5088
360.8232 75.9132 -32.9935 2389.5110
361.8228 75.8404 -32.9688 2390.5134
362.8213 75.7569 -32.9444 2391.5156
363.8189 75.6626 -32.9204 2392.5181
364.8153 75.5574 -32.8968 2393.5203
365.8107 75.4412 -32.8736 2394.5227
366.8045 75.3139 -32.8508 2395.5249
367.7972 75.1753 -32.8284 2396.5273
368.7878 75.0254 -32.8065 2397.5295
369.7769 74.8640 -32.7849 2398.5320
370.7637 74.6911 -32.7636 2399.5342
371.7489 74.5064 -32.7428 2400.5366
372.7315 74.3100 -32.7223 2401.5388
373.7115 74.1017 -32.7022 2402.5410
374.6892 73.8815 -32.6824 2403.5435
375.6639 73.6492 -32.6632 2404.5457
376.6360 73.4048 -32.6444 2405.5481
377.6047 73.1484 -32.6262 2406.5503
378.5702 72.8799 -32.6085 2407.5527
379.5322 72.5992 -32.5916 2408.5549
380.4909 72.3064 -32.5755 2409.5574
381.4453 72.0016 -32.5603 2410.5596
382.3962 71.6846 -32.5459 2411.5620
383.3429 71.3557 -32.5327 2412.5642
384.2855 71.0148 -32.5205 2413.5667
385.2234 70.6619 -32.5094 2414.5688
386.1572 70.2971 -32.4995 2415.5713
387.0857 69.9206 -32.4908 2416.5735
388.0096 69.5323 -32.4834 2417.5757
388.9287 69.1320 -32.4771 2418.5781
389.8425 68.7202 -32.4722 2419.5803
390.7509 68.2967 -32.4686 2420.5828
391.6538 67.8617 -32.4662 2421.5850
392.5514 67.4151 -32.4651 2422.5874
393.4427 66.9573 -32.4653 2423.5896
394.3287 66.4880 -32.4668 2424.5920
395.2083 66.0076 -32.4696 2425.5942
396.0817 65.5160 -32.4737 2426.5967
396.9488 65.0135 -32.4791 2427.5989
397.8096 64.4996 -32.4858 2428.6013
398.6634 63.9751 -32.4936 2429.6035
399.5105 63.4394 -32.5027 2430.6060
400.3508 62.8929 -32.5129 2431.6082
401.1838 62.3354 -32.5241 2432.6106
402.0092 61.7672 -32.5364 2433.6128
402.8270 61.1883 -32.5496 2434.6150
403.6377 60.5985 -32.5638 2435.6174
404.4401 59.9984 -32.5790 2436.6196
405.2348 59.3876 -32.5951 2437.6221
406.0213 58.7667 -32.6121 2438.6243
406.7999 58.1356 -32.6302 2439.6267
407.5701 57.4946 -32.6492 2440.6289
408.3322 56.8436 -32.6693 2441.6313
409.0856 56.1832 -32.6905 2442.6335
409.8308 55.5130 -32.7126 2443.6360
410.5671 54.8337 -32.7359 2444.6382
411.2949 54.1447 -32.7601 2445.6406
412.0137 53.4469 -32.7854 2446.6428
412.7239 52.7398 -32.8117 2447.6453
413.4248 52.0242 -32.8390 2448.6475
414.1171 51.2995 -32.8672 2449.6499
414.7998 50.5666 -32.8963 2450.6521
415.4735 49.8251 -32.9262 2451.6543
416.1378 49.0752 -32.9570 2452.6567
416.7928 48.3172 -32.9885 2453.6589
417.4385 47.5509 -33.0207 2454.6614
418.0742 46.7769 -33.0536 2455.6636
418.7006 45.9950 -33.0871 2456.6660
419.3170 45.2056 -33.1211 2457.6682
419.9239 44.4084 -33.1556 2458.6707
420.5206 43.6042 -33.1905 2459.6729
421.1078 42.7923 -33.2259 2460.6753
421.6847 41.9735 -33.2615 2461.6775
422.2518 41.1478 -33.2974 2462.6799
422.8085 40.3154 -33.3335 2463.6821
423.3555 39.4761 -33.3698 2464.6846
423.8920 38.6305 -33.4062 2465.6868
424.4185 37.7784 -33.4427 2466.6890
424.9348 36.9198 -33.4791 2467.6914
425.4406 36.0554 -33.5154 2468.6936
425.9363 35.1849 -33.5516 2469.6960
426.4216 34.3087 -33.5876 2470.6982
426.8966 33.4267 -33.6233 2471.7007
427.3611 32.5395 -33.6588 2472.7029
427.8156 31.6466 -33.6940 2473.7053
428.2595 30.7488 -33.7289 2474.7075
428.6932 29.8456 -33.7636 2475.7100
429.1165 28.9379 -33.7980 2476.7122
429.5296 28.0251 -33.8322 2477.7146
