VERSION 0.7
FIELDS x y z r ib_distance ob_distance
SIZE 4 4 4 4 4 4
TYPE F F F F F F
COUNT 1 1 1 1 1 1
WIDTH 947
HEIGHT 1
VIEWPOINT 0.525 -0.474 -0.478 -0.521 -622.177 -3.287 601.922
POINTS 947
DATA ascii
215.3754 6.1405 -972.7744 2166.0000 4.4448 4.4447
215.6886 6.1355 -973.7241 2167.0000 4.4447 4.4451
216.0017 6.1304 -974.6738 2168.0000 4.4449 4.4454
216.3139 6.1249 -975.6237 2169.0000 4.4460 4.4462
216.6243 6.1192 -976.5743 2170.0000 4.4486 4.4479
216.9321 6.1132 -977.5259 2171.0000 4.4531 4.4507
217.2367 6.1070 -978.4784 2172.0000 4.4594 4.4546
217.5379 6.1006 -979.4319 2173.0000 4.4675 4.4595
217.8355 6.0941 -980.3865 2174.0000 4.4771 4.4649
218.1296 6.0876 -981.3420 2175.0000 4.4896 4.4712
218.4236 6.0810 -982.2974 2176.0000 4.5041 4.4809
218.7219 6.0746 -983.2519 2177.0000 4.5194 4.4943
219.0289 6.0684 -984.2041 2178.0000 4.5382 4.5113
219.3497 6.0625 -985.1523 2179.0000 4.5689 4.5329
219.6943 6.0569 -986.0916 2180.0000 4.6121 4.5651
220.0736 6.0516 -987.0161 2181.0000 4.6634 4.6108
220.4987 6.0467 -987.9200 2182.0000 4.7137 4.6692
220.9787 6.0420 -988.7974 2183.0000 4.7566 4.7337
221.5151 6.0379 -989.6417 2184.0000 4.7917 4.7907
222.1079 6.0345 -990.4467 2185.0000 4.8181 4.8364
222.7571 6.0319 -991.2058 2186.0000 4.8323 4.8684
223.4606 6.0302 -991.9147 2187.0000 4.8315 4.8806
224.2123 6.0289 -992.5735 2188.0000 4.8174 4.8705
225.0055 6.0277 -993.1837 2189.0000 4.7919 4.8431
225.8335 6.0260 -993.7458 2190.0000 4.7571 4.8027
226.6907 6.0235 -994.2611 2191.0000 4.7165 4.7531
227.5738 6.0204 -994.7300 2192.0000 4.6725 4.6984
228.4795 6.0166 -995.1531 2193.0000 4.6272 4.6424
229.4046 6.0121 -995.5312 2194.0000 4.5829 4.5888
230.3457 6.0071 -995.8669 2195.0000 4.5402 4.5404
231.2996 6.0016 -996.1666 2196.0000 4.5002 4.4978
232.2631 5.9958 -996.4362 2197.0000 4.4635 4.4605
233.2329 5.9897 -996.6822 2198.0000 4.4302 4.4275
234.2068 5.9834 -996.9096 2199.0000 4.4001 4.3980
235.1839 5.9770 -997.1218 2200.0000 4.3735 4.3719
236.1636 5.9705 -997.3219 2201.0000 4.3503 4.3493
237.1450 5.9638 -997.5131 2202.0000 4.3305 4.3301
238.1278 5.9570 -997.6976 2203.0000 4.3141 4.3142
239.1117 5.9501 -997.8760 2204.0000 4.3014 4.3018
240.0968 5.9432 -998.0485 2205.0000 4.2926 4.2930
241.0827 5.9365 -998.2155 2206.0000 4.2879 4.2883
242.0695 5.9299 -998.3775 2207.0000 4.2876 4.2878
243.0569 5.9234 -998.5355 2208.0000 4.2914 4.2915
244.0447 5.9170 -998.6906 2209.0000 4.2993 4.2995
245.0329 5.9107 -998.8437 2210.0000 4.3111 4.3118
246.0213 5.9044 -998.9957 2211.0000 4.3265 4.3279
247.0098 5.8982 -999.1471 2212.0000 4.3447 4.3471
247.9982 5.8920 -999.2986 2213.0000 4.3650 4.3683
248.9865 5.8859 -999.4507 2214.0000 4.3864 4.3905
249.9747 5.8797 -999.6039 2215.0000 4.4083 4.4131
250.9627 5.8735 -999.7581 2216.0000 4.4307 4.4361
251.9506 5.8673 -999.9133 2217.0000 4.4536 4.4597
252.9383 5.8610 -1000.0696 2218.0000 4.4770 4.4837
253.9258 5.8547 -1000.2272 2219.0000 4.5011 4.5082
254.9129 5.8484 -1000.3867 2220.0000 4.5260 4.5333
255.8997 5.8421 -1000.5488 2221.0000 4.5517 4.5590
256.8859 5.8359 -1000.7143 2222.0000 4.5781 4.5852
257.8715 5.8297 -1000.8835 2223.0000 4.6051 4.6116
258.8563 5.8235 -1001.0569 2224.0000 4.6318 4.6376
259.8403 5.8174 -1001.2347 2225.0000 4.6574 4.6622
260.8235 5.8112 -1001.4172 2226.0000 4.6812 4.6848
261.8058 5.8050 -1001.6047 2227.0000 4.7024 4.7051
262.7870 5.7988 -1001.7972 2228.0000 4.7213 4.7231
263.7672 5.7926 -1001.9952 2229.0000 4.7380 4.7391
264.7463 5.7863 -1002.1986 2230.0000 4.7524 4.7530
265.7242 5.7800 -1002.4075 2231.0000 4.7650 4.7653
266.7011 5.7736 -1002.6210 2232.0000 4.7761 4.7763
267.6771 5.7673 -1002.8387 2233.0000 4.7862 4.7865
268.6523 5.7610 -1003.0599 2234.0000 4.7958 4.7961
269.6269 5.7548 -1003.2840 2235.0000 4.8052 4.8056
270.6007 5.7486 -1003.5111 2236.0000 4.8143 4.8147
271.5739 5.7425 -1003.7413 2237.0000 4.8231 4.8235
272.5463 5.7364 -1003.9745 2238.0000 4.8314 4.8318
273.5179 5.7305 -1004.2107 2239.0000 4.8392 4.8396
274.4890 5.7246 -1004.4497 2240.0000 4.8463 4.8468
275.4593 5.7187 -1004.6914 2241.0000 4.8526 4.8530
276.4290 5.7130 -1004.9356 2242.0000 4.8579 4.8582
277.3981 5.7073 -1005.1821 2243.0000 4.8621 4.8623
278.3667 5.7017 -1005.4306 2244.0000 4.8652 4.8653
279.3349 5.6960 -1005.6809 2245.0000 4.8673 4.8672
280.3026 5.6904 -1005.9327 2246.0000 4.8683 4.8682
281.2701 5.6847 -1006.1858 2247.0000 4.8683 4.8682
282.2372 5.6790 -1006.4400 2248.0000 4.8674 4.8673
283.2041 5.6733 -1006.6952 2249.0000 4.8657 4.8655
284.1707 5.6675 -1006.9512 2250.0000 4.8632 4.8630
285.1372 5.6616 -1007.2079 2251.0000 4.8601 4.8598
286.1035 5.6556 -1007.4654 2252.0000 4.8562 4.8558
287.0695 5.6496 -1007.7236 2253.0000 4.8517 4.8511
288.0354 5.6436 -1007.9827 2254.0000 4.8465 4.8458
289.0010 5.6375 -1008.2426 2255.0000 4.8405 4.8397
289.9663 5.6315 -1008.5037 2256.0000 4.8337 4.8328
290.9312 5.6254 -1008.7662 2257.0000 4.8259 4.8249
291.8956 5.6194 -1009.0306 2258.0000 4.8170 4.8159
292.8594 5.6134 -1009.2970 2259.0000 4.8068 4.8057
293.8225 5.6076 -1009.5661 2260.0000 4.7953 4.7943
294.7848 5.6018 -1009.8382 2261.0000 4.7823 4.7816
295.7460 5.5962 -1010.1140 2262.0000 4.7679 4.7675
296.7061 5.5908 -1010.3934 2263.0000 4.7520 4.7519
297.6653 5.5855 -1010.6762 2264.0000 4.7348 4.7350
298.6236 5.5803 -1010.9620 2265.0000 4.7163 4.7168
299.5811 5.5752 -1011.2504 2266.0000 4.6965 4.6973
300.5379 5.5702 -1011.5410 2267.0000 4.6758 4.6767
301.4944 5.5650 -1011.8328 2268.0000 4.6542 4.6551
302.4506 5.5597 -1012.1254 2269.0000 4.6318 4.6325
303.4068 5.5539 -1012.4181 2270.0000 4.6089 4.6093
304.3631 5.5478 -1012.7103 2271.0000 4.5854 4.5854
305.3196 5.5412 -1013.0021 2272.0000 4.5615 4.5610
306.2761 5.5341 -1013.2936 2273.0000 4.5371 4.5361
307.2328 5.5265 -1013.5848 2274.0000 4.5123 4.5109
308.1894 5.5184 -1013.8758 2275.0000 4.4873 4.4856
309.1461 5.5101 -1014.1671 2276.0000 4.4623 4.4605
310.1025 5.5016 -1014.4588 2277.0000 4.4378 4.4360
311.0587 5.4931 -1014.7515 2278.0000 4.4141 4.4124
312.0146 5.4848 -1015.0451 2279.0000 4.3915 4.3899
312.9701 5.4766 -1015.3398 2280.0000 4.3699 4.3683
313.9254 5.4687 -1015.6354 2281.0000 4.3493 4.3477
314.8804 5.4610 -1015.9318 2282.0000 4.3295 4.3279
315.8352 5.4536 -1016.2291 2283.0000 4.3103 4.3088
316.7896 5.4463 -1016.5274 2284.0000 4.2912 4.2898
317.7437 5.4391 -1016.8267 2285.0000 4.2716 4.2703
318.6975 5.4319 -1017.1273 2286.0000 4.2512 4.2500
319.6508 5.4246 -1017.4293 2287.0000 4.2294 4.2284
320.6036 5.4174 -1017.7328 2288.0000 4.2063 4.2056
321.5558 5.4103 -1018.0381 2289.0000 4.1819 4.1815
322.5074 5.4034 -1018.3453 2290.0000 4.1561 4.1562
323.4584 5.3967 -1018.6545 2291.0000 4.1292 4.1298
324.4087 5.3903 -1018.9656 2292.0000 4.1018 4.1029
325.3586 5.3840 -1019.2783 2293.0000 4.0745 4.0760
326.3079 5.3778 -1019.5925 2294.0000 4.0479 4.0496
327.2568 5.3718 -1019.9080 2295.0000 4.0223 4.0243
328.2054 5.3658 -1020.2247 2296.0000 3.9979 4.0001
329.1534 5.3599 -1020.5426 2297.0000 3.9750 3.9771
330.1011 5.3539 -1020.8618 2298.0000 3.9535 3.9557
331.0484 5.3479 -1021.1820 2299.0000 3.9336 3.9357
331.9956 5.3418 -1021.5026 2300.0000 3.9152 3.9173
332.9428 5.3358 -1021.8232 2301.0000 3.8983 3.9001
333.8902 5.3298 -1022.1433 2302.0000 3.8827 3.8843
334.8378 5.3238 -1022.4625 2303.0000 3.8684 3.8698
335.7858 5.3178 -1022.7809 2304.0000 3.8555 3.8566
336.7339 5.3119 -1023.0986 2305.0000 3.8441 3.8450
337.6823 5.3060 -1023.4157 2306.0000 3.8343 3.8351
338.6309 5.3001 -1023.7323 2307.0000 3.8262 3.8268
339.5795 5.2943 -1024.0487 2308.0000 3.8195 3.8200
340.5280 5.2886 -1024.3654 2309.0000 3.8142 3.8146
341.4764 5.2829 -1024.6824 2310.0000 3.8100 3.8104
342.4246 5.2772 -1024.9999 2311.0000 3.8068 3.8071
343.3727 5.2716 -1025.3179 2312.0000 3.8043 3.8046
344.3208 5.2661 -1025.6360 2313.0000 3.8022 3.8025
345.2688 5.2605 -1025.9540 2314.0000 3.8002 3.8005
346.2170 5.2551 -1026.2719 2315.0000 3.7982 3.7984
347.1652 5.2496 -1026.5894 2316.0000 3.7963 3.7965
348.1135 5.2443 -1026.9066 2317.0000 3.7944 3.7946
349.0620 5.2390 -1027.2234 2318.0000 3.7928 3.7930
350.0107 5.2337 -1027.5396 2319.0000 3.7915 3.7916
350.9595 5.2285 -1027.8553 2320.0000 3.7906 3.7907
351.9085 5.2234 -1028.1707 2321.0000 3.7902 3.7902
352.8577 5.2183 -1028.4854 2322.0000 3.7903 3.7903
353.8070 5.2132 -1028.7994 2323.0000 3.7910 3.7909
354.7566 5.2082 -1029.1132 2324.0000 3.7921 3.7920
355.7062 5.2031 -1029.4265 2325.0000 3.7935 3.7935
356.6559 5.1981 -1029.7396 2326.0000 3.7950 3.7951
357.6056 5.1930 -1030.0526 2327.0000 3.7967 3.7967
358.5555 5.1879 -1030.3654 2328.0000 3.7984 3.7984
359.5053 5.1828 -1030.6780 2329.0000 3.8001 3.8000
360.4552 5.1777 -1030.9905 2330.0000 3.8017 3.8016
361.4052 5.1726 -1031.3029 2331.0000 3.8031 3.8030
362.3551 5.1674 -1031.6152 2332.0000 3.8045 3.8043
363.3051 5.1622 -1031.9275 2333.0000 3.8056 3.8054
364.2551 5.1569 -1032.2396 2334.0000 3.8066 3.8064
365.2051 5.1516 -1032.5518 2335.0000 3.8073 3.8072
366.1551 5.1460 -1032.8639 2336.0000 3.8080 3.8079
367.1051 5.1403 -1033.1761 2337.0000 3.8084 3.8084
368.0551 5.1343 -1033.4883 2338.0000 3.8088 3.8088
369.0051 5.1280 -1033.8005 2339.0000 3.8091 3.8090
369.9550 5.1214 -1034.1129 2340.0000 3.8092 3.8091
370.9050 5.1145 -1034.4253 2341.0000 3.8092 3.8091
371.8549 5.1072 -1034.7378 2342.0000 3.8090 3.8089
372.8047 5.0996 -1035.0504 2343.0000 3.8087 3.8087
373.7544 5.0917 -1035.3635 2344.0000 3.8084 3.8085
374.7039 5.0836 -1035.6771 2345.0000 3.8084 3.8086
375.6532 5.0753 -1035.9916 2346.0000 3.8088 3.8090
376.6021 5.0669 -1036.3070 2347.0000 3.8099 3.8100
377.5506 5.0585 -1036.6235 2348.0000 3.8117 3.8116
378.4987 5.0502 -1036.9414 2349.0000 3.8143 3.8141
379.4463 5.0420 -1037.2609 2350.0000 3.8179 3.8175
380.3934 5.0341 -1037.5818 2351.0000 3.8224 3.8219
381.3400 5.0263 -1037.9041 2352.0000 3.8278 3.8272
382.2862 5.0188 -1038.2275 2353.0000 3.8337 3.8330
383.2321 5.0116 -1038.5520 2354.0000 3.8400 3.8393
384.1776 5.0045 -1038.8774 2355.0000 3.8465 3.8459
385.1229 4.9977 -1039.2035 2356.0000 3.8532 3.8525
386.0680 4.9909 -1039.5302 2357.0000 3.8597 3.8591
387.0130 4.9843 -1039.8572 2358.0000 3.8659 3.8653
387.9579 4.9776 -1040.1844 2359.0000 3.8718 3.8712
388.9028 4.9711 -1040.5118 2360.0000 3.8773 3.8766
389.8476 4.9645 -1040.8395 2361.0000 3.8824 3.8817
390.7923 4.9580 -1041.1672 2362.0000 3.8872 3.8865
391.7370 4.9516 -1041.4951 2363.0000 3.8916 3.8909
392.6817 4.9452 -1041.8231 2364.0000 3.8956 3.8950
393.6263 4.9388 -1042.1512 2365.0000 3.8992 3.8988
394.5708 4.9324 -1042.4796 2366.0000 3.9026 3.9023
395.5153 4.9260 -1042.8080 2367.0000 3.9057 3.9055
396.4598 4.9196 -1043.1366 2368.0000 3.9085 3.9084
397.4042 4.9132 -1043.4652 2369.0000 3.9110 3.9110
398.3486 4.9068 -1043.7939 2370.0000 3.9133 3.9133
399.2930 4.9004 -1044.1228 2371.0000 3.9154 3.9154
400.2374 4.8939 -1044.4517 2372.0000 3.9172 3.9171
401.1817 4.8875 -1044.7804 2373.0000 3.9188 3.9187
402.1261 4.8810 -1045.1091 2374.0000 3.9202 3.9200
403.0706 4.8745 -1045.4379 2375.0000 3.9213 3.9211
404.0150 4.8680 -1045.7665 2376.0000 3.9222 3.9220
404.9595 4.8615 -1046.0950 2377.0000 3.9228 3.9227
405.9040 4.8550 -1046.4233 2378.0000 3.9232 3.9232
406.8486 4.8485 -1046.7515 2379.0000 3.9235 3.9235
407.7932 4.8420 -1047.0796 2380.0000 3.9236 3.9237
408.7379 4.8355 -1047.4073 2381.0000 3.9238 3.9238
409.6827 4.8291 -1047.7350 2382.0000 3.9240 3.9240
410.6276 4.8226 -1048.0624 2383.0000 3.9243 3.9242
411.5726 4.8163 -1048.3894 2384.0000 3.9248 3.9247
412.5177 4.8099 -1048.7161 2385.0000 3.9256 3.9254
413.4630 4.8036 -1049.0422 2386.0000 3.9267 3.9265
414.4085 4.7974 -1049.3678 2387.0000 3.9282 3.9279
415.3542 4.7911 -1049.6927 2388.0000 3.9300 3.9298
416.3002 4.7849 -1050.0168 2389.0000 3.9323 3.9321
417.2465 4.7788 -1050.3401 2390.0000 3.9350 3.9347
418.1931 4.7727 -1050.6625 2391.0000 3.9381 3.9378
419.1400 4.7666 -1050.9839 2392.0000 3.9414 3.9410
420.0872 4.7605 -1051.3046 2393.0000 3.9448 3.9444
421.0346 4.7544 -1051.6244 2394.0000 3.9482 3.9478
421.9823 4.7484 -1051.9436 2395.0000 3.9515 3.9511
422.9302 4.7423 -1052.2622 2396.0000 3.9546 3.9542
423.8782 4.7363 -1052.5803 2397.0000 3.9574 3.9571
424.8264 4.7303 -1052.8979 2398.0000 3.9598 3.9595
425.7747 4.7243 -1053.2152 2399.0000 3.9617 3.9615
426.7231 4.7183 -1053.5322 2400.0000 3.9633 3.9631
427.6716 4.7123 -1053.8490 2401.0000 3.9645 3.9643
428.6201 4.7064 -1054.1656 2402.0000 3.9655 3.9653
429.5687 4.7006 -1054.4823 2403.0000 3.9663 3.9661
430.5172 4.6947 -1054.7991 2404.0000 3.9672 3.9670
431.4655 4.6890 -1055.1162 2405.0000 3.9683 3.9680
432.4137 4.6833 -1055.4340 2406.0000 3.9698 3.9695
433.3617 4.6776 -1055.7522 2407.0000 3.9718 3.9715
434.3094 4.6721 -1056.0712 2408.0000 3.9743 3.9739
435.2570 4.6665 -1056.3905 2409.0000 3.9770 3.9766
436.2046 4.6610 -1056.7102 2410.0000 3.9800 3.9795
437.1520 4.6555 -1057.0302 2411.0000 3.9830 3.9825
438.0993 4.6500 -1057.3503 2412.0000 3.9860 3.9856
439.0467 4.6444 -1057.6705 2413.0000 3.9888 3.9884
439.9940 4.6388 -1057.9906 2414.0000 3.9913 3.9910
440.9414 4.6331 -1058.3107 2415.0000 3.9934 3.9932
441.8888 4.6273 -1058.6306 2416.0000 3.9952 3.9950
442.8362 4.6215 -1058.9506 2417.0000 3.9967 3.9965
443.7837 4.6156 -1059.2704 2418.0000 3.9980 3.9978
444.7311 4.6096 -1059.5905 2419.0000 3.9991 3.9990
445.6784 4.6036 -1059.9105 2420.0000 4.0001 4.0000
446.6256 4.5976 -1060.2311 2421.0000 4.0013 4.0012
447.5727 4.5916 -1060.5521 2422.0000 4.0027 4.0025
448.5195 4.5856 -1060.8738 2423.0000 4.0044 4.0042
449.4662 4.5797 -1061.1960 2424.0000 4.0065 4.0062
450.4125 4.5738 -1061.5192 2425.0000 4.0092 4.0087
451.3585 4.5680 -1061.8433 2426.0000 4.0124 4.0119
452.3043 4.5623 -1062.1681 2427.0000 4.0161 4.0156
453.2498 4.5566 -1062.4938 2428.0000 4.0203 4.0198
454.1950 4.5510 -1062.8198 2429.0000 4.0248 4.0243
455.1402 4.5454 -1063.1464 2430.0000 4.0294 4.0289
456.0853 4.5398 -1063.4731 2431.0000 4.0340 4.0334
457.0304 4.5343 -1063.8000 2432.0000 4.0386 4.0378
457.9753 4.5287 -1064.1271 2433.0000 4.0431 4.0422
458.9203 4.5231 -1064.4542 2434.0000 4.0474 4.0465
459.8652 4.5175 -1064.7815 2435.0000 4.0516 4.0507
460.8101 4.5119 -1065.1088 2436.0000 4.0556 4.0549
461.7550 4.5064 -1065.4363 2437.0000 4.0596 4.0589
462.6997 4.5009 -1065.7640 2438.0000 4.0636 4.0630
463.6444 4.4956 -1066.0920 2439.0000 4.0676 4.0670
464.5890 4.4903 -1066.4203 2440.0000 4.0715 4.0710
465.5335 4.4851 -1066.7487 2441.0000 4.0753 4.0748
466.4780 4.4800 -1067.0771 2442.0000 4.0789 4.0785
467.4224 4.4748 -1067.4059 2443.0000 4.0823 4.0819
468.3668 4.4698 -1067.7346 2444.0000 4.0855 4.0851
469.3112 4.4647 -1068.0634 2445.0000 4.0883 4.0880
470.2556 4.4596 -1068.3922 2446.0000 4.0909 4.0906
471.2000 4.4546 -1068.7209 2447.0000 4.0931 4.0929
472.1444 4.4495 -1069.0497 2448.0000 4.0949 4.0948
473.0888 4.4445 -1069.3783 2449.0000 4.0963 4.0963
474.0333 4.4394 -1069.7069 2450.0000 4.0973 4.0973
474.9778 4.4343 -1070.0354 2451.0000 4.0978 4.0978
475.9224 4.4292 -1070.3636 2452.0000 4.0977 4.0978
476.8671 4.4240 -1070.6915 2453.0000 4.0970 4.0972
477.8120 4.4188 -1071.0189 2454.0000 4.0958 4.0960
478.7570 4.4136 -1071.3457 2455.0000 4.0939 4.0943
479.7024 4.4081 -1071.6716 2456.0000 4.0916 4.0921
480.6481 4.4025 -1071.9967 2457.0000 4.0889 4.0894
481.5941 4.3966 -1072.3208 2458.0000 4.0860 4.0866
482.5405 4.3904 -1072.6437 2459.0000 4.0829 4.0835
483.4872 4.3839 -1072.9656 2460.0000 4.0797 4.0803
484.4344 4.3771 -1073.2864 2461.0000 4.0764 4.0770
485.3819 4.3698 -1073.6060 2462.0000 4.0731 4.0737
486.3298 4.3621 -1073.9246 2463.0000 4.0698 4.0703
487.2780 4.3540 -1074.2422 2464.0000 4.0666 4.0671
488.2264 4.3456 -1074.5588 2465.0000 4.0637 4.0641
489.1752 4.3369 -1074.8748 2466.0000 4.0612 4.0615
490.1242 4.3279 -1075.1899 2467.0000 4.0591 4.0594
491.0734 4.3187 -1075.5044 2468.0000 4.0575 4.0578
492.0229 4.3093 -1075.8180 2469.0000 4.0564 4.0566
492.9727 4.2996 -1076.1307 2470.0000 4.0558 4.0558
493.9229 4.2899 -1076.4424 2471.0000 4.0555 4.0555
494.8735 4.2799 -1076.7526 2472.0000 4.0554 4.0553
495.8248 4.2697 -1077.0607 2473.0000 4.0550 4.0549
496.7769 4.2592 -1077.3662 2474.0000 4.0541 4.0542
497.7300 4.2485 -1077.6688 2475.0000 4.0524 4.0528
498.6841 4.2376 -1077.9681 2476.0000 4.0501 4.0506
499.6392 4.2266 -1078.2640 2477.0000 4.0469 4.0477
500.5956 4.2155 -1078.5562 2478.0000 4.0431 4.0440
501.5530 4.2045 -1078.8444 2479.0000 4.0385 4.0394
502.5117 4.1938 -1079.1288 2480.0000 4.0334 4.0343
503.4714 4.1836 -1079.4094 2481.0000 4.0279 4.0288
504.4322 4.1741 -1079.6866 2482.0000 4.0224 4.0233
505.3940 4.1655 -1079.9603 2483.0000 4.0169 4.0177
506.3567 4.1581 -1080.2307 2484.0000 4.0114 4.0123
507.3203 4.1520 -1080.4978 2485.0000 4.0058 4.0069
508.2849 4.1474 -1080.7616 2486.0000 4.0003 4.0015
509.2503 4.1444 -1081.0223 2487.0000 3.9948 3.9963
510.2166 4.1427 -1081.2798 2488.0000 3.9896 3.9912
511.1837 4.1422 -1081.5341 2489.0000 3.9847 3.9865
512.1517 4.1427 -1081.7852 2490.0000 3.9805 3.9823
513.1205 4.1438 -1082.0327 2491.0000 3.9772 3.9788
514.0904 4.1452 -1082.2766 2492.0000 3.9752 3.9763
515.0612 4.1467 -1082.5162 2493.0000 3.9748 3.9751
516.0332 4.1477 -1082.7513 2494.0000 3.9764 3.9756
517.0064 4.1480 -1082.9813 2495.0000 3.9798 3.9781
517.9810 4.1474 -1083.2052 2496.0000 3.9847 3.9823
518.9572 4.1457 -1083.4221 2497.0000 3.9905 3.9876
519.9351 4.1426 -1083.6311 2498.0000 3.9968 3.9937
520.9149 4.1380 -1083.8312 2499.0000 4.0032 4.0000
521.8965 4.1320 -1084.0220 2500.0000 4.0097 4.0064
522.8799 4.1249 -1084.2029 2501.0000 4.0163 4.0129
523.8652 4.1167 -1084.3734 2502.0000 4.0228 4.0194
524.8524 4.1075 -1084.5330 2503.0000 4.0293 4.0260
525.8413 4.0978 -1084.6812 2504.0000 4.0357 4.0325
526.8318 4.0879 -1084.8177 2505.0000 4.0421 4.0389
527.8240 4.0780 -1084.9423 2506.0000 4.0485 4.0453
528.8177 4.0683 -1085.0542 2507.0000 4.0552 4.0519
529.8129 4.0590 -1085.1521 2508.0000 4.0624 4.0590
530.8094 4.0501 -1085.2349 2509.0000 4.0702 4.0665
531.8071 4.0416 -1085.3014 2510.0000 4.0785 4.0746
532.8058 4.0336 -1085.3507 2511.0000 4.0874 4.0830
533.8052 4.0259 -1085.3832 2512.0000 4.0975 4.0922
534.8051 4.0186 -1085.3988 2513.0000 4.1093 4.1027
535.8051 4.0115 -1085.3981 2514.0000 4.1233 4.1153
536.8049 4.0046 -1085.3812 2515.0000 4.1393 4.1302
537.8043 3.9979 -1085.3494 2516.0000 4.1567 4.1469
538.8032 3.9917 -1085.3035 2517.0000 4.1750 4.1646
539.8015 3.9860 -1085.2445 2518.0000 4.1935 4.1829
540.7990 3.9809 -1085.1730 2519.0000 4.2122 4.2014
541.7953 3.9763 -1085.0886 2520.0000 4.2307 4.2200
542.7906 3.9721 -1084.9912 2521.0000 4.2486 4.2383
543.7844 3.9681 -1084.8804 2522.0000 4.2657 4.2559
544.7766 3.9644 -1084.7554 2523.0000 4.2824 4.2730
545.7667 3.9608 -1084.6152 2524.0000 4.2990 4.2899
546.7543 3.9572 -1084.4589 2525.0000 4.3161 4.3071
547.7391 3.9534 -1084.2853 2526.0000 4.3339 4.3250
548.7206 3.9493 -1084.0935 2527.0000 4.3527 4.3439
549.6983 3.9448 -1083.8837 2528.0000 4.3726 4.3639
550.6718 3.9399 -1083.6553 2529.0000 4.3938 4.3853
551.6408 3.9343 -1083.4084 2530.0000 4.4166 4.4085
552.6050 3.9280 -1083.1434 2531.0000 4.4404 4.4329
553.5644 3.9209 -1082.8616 2532.0000 4.4640 4.4575
554.5192 3.9131 -1082.5643 2533.0000 4.4865 4.4810
555.4694 3.9043 -1082.2528 2534.0000 4.5067 4.5021
556.4153 3.8948 -1081.9286 2535.0000 4.5243 4.5204
557.3572 3.8847 -1081.5930 2536.0000 4.5395 4.5360
558.2956 3.8744 -1081.2476 2537.0000 4.5529 4.5496
559.2308 3.8641 -1080.8936 2538.0000 4.5649 4.5615
560.1630 3.8540 -1080.5315 2539.0000 4.5762 4.5725
561.0917 3.8444 -1080.1610 2540.0000 4.5877 4.5836
562.0167 3.8351 -1079.7810 2541.0000 4.6003 4.5955
562.9374 3.8263 -1079.3911 2542.0000 4.6147 4.6090
563.8537 3.8180 -1078.9906 2543.0000 4.6305 4.6244
564.7651 3.8100 -1078.5791 2544.0000 4.6469 4.6407
565.6713 3.8022 -1078.1562 2545.0000 4.6628 4.6570
566.5719 3.7943 -1077.7218 2546.0000 4.6771 4.6721
567.4668 3.7862 -1077.2756 2547.0000 4.6894 4.6853
568.3560 3.7781 -1076.8184 2548.0000 4.6997 4.6963
569.2397 3.7699 -1076.3505 2549.0000 4.7080 4.7053
570.1180 3.7618 -1075.8722 2550.0000 4.7143 4.7123
570.9908 3.7538 -1075.3842 2551.0000 4.7190 4.7176
571.8578 3.7458 -1074.8860 2552.0000 4.7229 4.7218
572.7189 3.7379 -1074.3776 2553.0000 4.7266 4.7256
573.5737 3.7302 -1073.8588 2554.0000 4.7305 4.7294
574.4224 3.7225 -1073.3298 2555.0000 4.7346 4.7335
575.2648 3.7151 -1072.7911 2556.0000 4.7384 4.7374
576.1013 3.7078 -1072.2432 2557.0000 4.7414 4.7408
576.9319 3.7009 -1071.6864 2558.0000 4.7432 4.7431
577.7567 3.6942 -1071.1210 2559.0000 4.7437 4.7440
578.5756 3.6879 -1070.5471 2560.0000 4.7426 4.7436
579.3886 3.6818 -1069.9648 2561.0000 4.7398 4.7417
580.1956 3.6760 -1069.3744 2562.0000 4.7353 4.7381
580.9962 3.6704 -1068.7751 2563.0000 4.7298 4.7333
581.7896 3.6651 -1068.1664 2564.0000 4.7242 4.7278
582.5748 3.6598 -1067.5474 2565.0000 4.7191 4.7225
583.3511 3.6547 -1066.9170 2566.0000 4.7151 4.7179
584.1176 3.6495 -1066.2748 2567.0000 4.7119 4.7142
584.8738 3.6442 -1065.6205 2568.0000 4.7090 4.7111
585.6191 3.6389 -1064.9537 2569.0000 4.7057 4.7078
586.3528 3.6332 -1064.2744 2570.0000 4.7016 4.7039
587.0751 3.6274 -1063.5830 2571.0000 4.6964 4.6988
587.7867 3.6212 -1062.8804 2572.0000 4.6903 4.6928
588.4883 3.6149 -1062.1678 2573.0000 4.6836 4.6863
589.1807 3.6083 -1061.4463 2574.0000 4.6767 4.6795
589.8647 3.6015 -1060.7168 2575.0000 4.6700 4.6728
590.5406 3.5946 -1059.9800 2576.0000 4.6639 4.6666
591.2091 3.5877 -1059.2362 2577.0000 4.6587 4.6611
591.8707 3.5808 -1058.4863 2578.0000 4.6549 4.6568
592.5251 3.5741 -1057.7302 2579.0000 4.6521 4.6539
593.1715 3.5675 -1056.9673 2580.0000 4.6495 4.6514
593.8089 3.5610 -1056.1968 2581.0000 4.6459 4.6483
594.4363 3.5547 -1055.4182 2582.0000 4.6405 4.6438
595.0532 3.5486 -1054.6312 2583.0000 4.6328 4.6369
595.6592 3.5427 -1053.8358 2584.0000 4.6228 4.6276
596.2542 3.5369 -1053.0320 2585.0000 4.6104 4.6158
596.8377 3.5312 -1052.2200 2586.0000 4.5958 4.6015
597.4094 3.5257 -1051.3995 2587.0000 4.5797 4.5852
597.9689 3.5201 -1050.5707 2588.0000 4.5629 4.5677
598.5157 3.5145 -1049.7335 2589.0000 4.5463 4.5503
599.0494 3.5088 -1048.8879 2590.0000 4.5309 4.5338
599.5700 3.5029 -1048.0341 2591.0000 4.5170 4.5189
600.0777 3.4971 -1047.1726 2592.0000 4.5048 4.5060
600.5728 3.4913 -1046.3037 2593.0000 4.4948 4.4954
601.0556 3.4857 -1045.4280 2594.0000 4.4872 4.4875
601.5261 3.4803 -1044.5457 2595.0000 4.4820 4.4821
601.9841 3.4751 -1043.6567 2596.0000 4.4790 4.4791
602.4295 3.4701 -1042.7615 2597.0000 4.4781 4.4782
602.8619 3.4653 -1041.8597 2598.0000 4.4789 4.4791
603.2812 3.4605 -1040.9519 2599.0000 4.4811 4.4814
603.6871 3.4557 -1040.0381 2600.0000 4.4841 4.4845
604.0793 3.4506 -1039.1182 2601.0000 4.4873 4.4878
604.4576 3.4452 -1038.1925 2602.0000 4.4902 4.4907
604.8219 3.4393 -1037.2614 2603.0000 4.4924 4.4929
605.1725 3.4329 -1036.3248 2604.0000 4.4941 4.4945
605.5095 3.4263 -1035.3833 2605.0000 4.4951 4.4954
605.8333 3.4192 -1034.4373 2606.0000 4.4955 4.4957
606.1445 3.4120 -1033.4871 2607.0000 4.4955 4.4957
606.4443 3.4048 -1032.5331 2608.0000 4.4957 4.4958
606.7339 3.3978 -1031.5759 2609.0000 4.4963 4.4964
607.0144 3.3912 -1030.6160 2610.0000 4.4979 4.4980
607.2863 3.3852 -1029.6537 2611.0000 4.5005 4.5005
607.5499 3.3796 -1028.6891 2612.0000 4.5039 4.5038
607.8052 3.3745 -1027.7223 2613.0000 4.5082 4.5078
608.0524 3.3698 -1026.7533 2614.0000 4.5131 4.5124
608.2913 3.3654 -1025.7822 2615.0000 4.5187 4.5176
608.5217 3.3614 -1024.8092 2616.0000 4.5250 4.5235
608.7429 3.3575 -1023.8340 2617.0000 4.5320 4.5302
608.9549 3.3538 -1022.8568 2618.0000 4.5399 4.5378
609.1575 3.3502 -1021.8775 2619.0000 4.5495 4.5468
609.3509 3.3466 -1020.8964 2620.0000 4.5622 4.5586
609.5353 3.3432 -1019.9135 2621.0000 4.5794 4.5747
609.7111 3.3398 -1018.9291 2622.0000 4.6024 4.5964
609.8785 3.3365 -1017.9432 2623.0000 4.6313 4.6242
610.0380 3.3333 -1016.9560 2624.0000 4.6655 4.6574
610.1899 3.3300 -1015.9677 2625.0000 4.7043 4.6955
610.3346 3.3268 -1014.9781 2626.0000 4.7471 4.7377
610.4728 3.3235 -1013.9878 2627.0000 4.7925 4.7828
610.6055 3.3203 -1012.9966 2628.0000 4.8388 4.8290
610.7333 3.3169 -1012.0048 2629.0000 4.8841 4.8745
610.8573 3.3135 -1011.0126 2630.0000 4.9267 4.9175
610.9778 3.3101 -1010.0198 2631.0000 4.9655 4.9574
611.0950 3.3065 -1009.0267 2632.0000 5.0007 4.9938
611.2091 3.3028 -1008.0333 2633.0000 5.0322 5.0266
611.3201 3.2989 -1007.0395 2634.0000 5.0601 5.0557
611.4283 3.2948 -1006.0453 2635.0000 5.0847 5.0812
611.5346 3.2906 -1005.0510 2636.0000 5.1068 5.1040
611.6393 3.2863 -1004.0565 2637.0000 5.1273 5.1248
611.7432 3.2819 -1003.0620 2638.0000 5.1467 5.1445
611.8465 3.2774 -1002.0673 2639.0000 5.1657 5.1635
611.9497 3.2729 -1001.0726 2640.0000 5.1845 5.1822
612.0529 3.2685 -1000.0780 2641.0000 5.2034 5.2008
612.1565 3.2642 -999.0834 2642.0000 5.2225 5.2196
612.2603 3.2599 -998.0888 2643.0000 5.2419 5.2387
612.3639 3.2559 -997.0942 2644.0000 5.2611 5.2577
612.4671 3.2519 -996.0995 2645.0000 5.2798 5.2764
612.5696 3.2482 -995.1048 2646.0000 5.2977 5.2944
612.6710 3.2446 -994.1100 2647.0000 5.3145 5.3115
612.7712 3.2411 -993.1151 2648.0000 5.3300 5.3275
612.8701 3.2377 -992.1199 2649.0000 5.3442 5.3420
612.9676 3.2344 -991.1247 2650.0000 5.3568 5.3550
613.0636 3.2312 -990.1293 2651.0000 5.3679 5.3665
613.1586 3.2281 -989.1339 2652.0000 5.3780 5.3767
613.2527 3.2251 -988.1383 2653.0000 5.3872 5.3861
613.3465 3.2221 -987.1427 2654.0000 5.3960 5.3949
613.4399 3.2192 -986.1471 2655.0000 5.4044 5.4034
613.5334 3.2164 -985.1515 2656.0000 5.4126 5.4117
613.6268 3.2135 -984.1558 2657.0000 5.4207 5.4197
613.7205 3.2108 -983.1603 2658.0000 5.4287 5.4276
613.8145 3.2080 -982.1647 2659.0000 5.4366 5.4354
613.9086 3.2053 -981.1691 2660.0000 5.4445 5.4432
614.0029 3.2025 -980.1736 2661.0000 5.4523 5.4508
614.0974 3.1998 -979.1780 2662.0000 5.4599 5.4584
614.1918 3.1971 -978.1826 2663.0000 5.4674 5.4660
614.2864 3.1945 -977.1870 2664.0000 5.4747 5.4734
614.3810 3.1918 -976.1915 2665.0000 5.4819 5.4807
614.4756 3.1892 -975.1960 2666.0000 5.4890 5.4879
614.5701 3.1866 -974.2004 2667.0000 5.4958 5.4947
614.6643 3.1840 -973.2049 2668.0000 5.5022 5.5011
614.7581 3.1814 -972.2094 2669.0000 5.5081 5.5070
614.8514 3.1789 -971.2137 2670.0000 5.5131 5.5122
614.9439 3.1764 -970.2180 2671.0000 5.5172 5.5165
615.0355 3.1739 -969.2222 2672.0000 5.5203 5.5198
615.1260 3.1715 -968.2263 2673.0000 5.5221 5.5219
615.2153 3.1691 -967.2303 2674.0000 5.5226 5.5226
615.3034 3.1668 -966.2342 2675.0000 5.5218 5.5219
615.3903 3.1645 -965.2380 2676.0000 5.5196 5.5199
615.4760 3.1622 -964.2416 2677.0000 5.5163 5.5167
615.5607 3.1599 -963.2452 2678.0000 5.5119 5.5123
615.6444 3.1575 -962.2488 2679.0000 5.5062 5.5067
615.7269 3.1552 -961.2522 2680.0000 5.4991 5.4997
615.8083 3.1528 -960.2555 2681.0000 5.4904 5.4910
615.8884 3.1503 -959.2587 2682.0000 5.4798 5.4805
615.9672 3.1478 -958.2618 2683.0000 5.4672 5.4678
616.0449 3.1453 -957.2648 2684.0000 5.4525 5.4531
616.1216 3.1428 -956.2678 2685.0000 5.4358 5.4363
616.1974 3.1403 -955.2707 2686.0000 5.4169 5.4173
616.2725 3.1379 -954.2735 2687.0000 5.3960 5.3963
616.3469 3.1355 -953.2763 2688.0000 5.3733 5.3736
616.4208 3.1331 -952.2791 2689.0000 5.3492 5.3494
616.4942 3.1308 -951.2817 2690.0000 5.3240 5.3240
616.5672 3.1286 -950.2844 2691.0000 5.2977 5.2976
616.6396 3.1264 -949.2870 2692.0000 5.2707 5.2704
616.7115 3.1243 -948.2896 2693.0000 5.2428 5.2424
616.7827 3.1222 -947.2922 2694.0000 5.2142 5.2137
616.8533 3.1202 -946.2947 2695.0000 5.1851 5.1846
616.9234 3.1182 -945.2971 2696.0000 5.1554 5.1550
616.9931 3.1162 -944.2996 2697.0000 5.1254 5.1251
617.0625 3.1141 -943.3019 2698.0000 5.0952 5.0949
617.1318 3.1119 -942.3044 2699.0000 5.0648 5.0645
617.2009 3.1098 -941.3068 2700.0000 5.0344 5.0341
617.2700 3.1076 -940.3091 2701.0000 5.0038 5.0036
617.3392 3.1055 -939.3115 2702.0000 4.9733 4.9732
617.4083 3.1034 -938.3140 2703.0000 4.9429 4.9428
617.4775 3.1015 -937.3163 2704.0000 4.9124 4.9125
617.5466 3.0997 -936.3187 2705.0000 4.8821 4.8822
617.6157 3.0981 -935.3211 2706.0000 4.8517 4.8519
617.6846 3.0966 -934.3235 2707.0000 4.8214 4.8216
617.7535 3.0953 -933.3259 2708.0000 4.7910 4.7912
617.8223 3.0941 -932.3282 2709.0000 4.7606 4.7607
617.8909 3.0930 -931.3306 2710.0000 4.7301 4.7301
617.9595 3.0921 -930.3329 2711.0000 4.6995 4.6995
618.0279 3.0912 -929.3353 2712.0000 4.6688 4.6689
618.0963 3.0903 -928.3376 2713.0000 4.6382 4.6382
618.1647 3.0894 -927.3400 2714.0000 4.6075 4.6076
618.2333 3.0883 -926.3423 2715.0000 4.5770 4.5772
618.3022 3.0872 -925.3447 2716.0000 4.5469 4.5472
618.3719 3.0860 -924.3472 2717.0000 4.5175 4.5180
618.4425 3.0845 -923.3497 2718.0000 4.4890 4.4898
618.5143 3.0830 -922.3522 2719.0000 4.4617 4.4628
618.5874 3.0813 -921.3549 2720.0000 4.4357 4.4372
618.6622 3.0797 -920.3577 2721.0000 4.4114 4.4131
618.7386 3.0781 -919.3607 2722.0000 4.3889 4.3908
618.8170 3.0767 -918.3637 2723.0000 4.3682 4.3702
618.8968 3.0754 -917.3669 2724.0000 4.3490 4.3511
618.9778 3.0742 -916.3702 2725.0000 4.3311 4.3332
619.0598 3.0731 -915.3735 2726.0000 4.3143 4.3163
619.1425 3.0720 -914.3770 2727.0000 4.2982 4.3002
619.2258 3.0710 -913.3804 2728.0000 4.2828 4.2848
619.3095 3.0701 -912.3840 2729.0000 4.2678 4.2698
619.3936 3.0692 -911.3875 2730.0000 4.2533 4.2553
619.4779 3.0682 -910.3911 2731.0000 4.2392 4.2412
619.5629 3.0673 -909.3947 2732.0000 4.2257 4.2277
619.6487 3.0664 -908.3984 2733.0000 4.2130 4.2149
619.7355 3.0656 -907.4022 2734.0000 4.2013 4.2031
619.8235 3.0647 -906.4061 2735.0000 4.1908 4.1924
619.9128 3.0639 -905.4100 2736.0000 4.1816 4.1829
620.0034 3.0631 -904.4141 2737.0000 4.1736 4.1747
620.0953 3.0623 -903.4184 2738.0000 4.1670 4.1680
620.1885 3.0616 -902.4227 2739.0000 4.1616 4.1625
620.2828 3.0608 -901.4272 2740.0000 4.1574 4.1583
620.3779 3.0601 -900.4317 2741.0000 4.1542 4.1550
620.4738 3.0594 -899.4363 2742.0000 4.1517 4.1525
620.5703 3.0586 -898.4410 2743.0000 4.1499 4.1505
620.6670 3.0579 -897.4457 2744.0000 4.1485 4.1489
620.7639 3.0572 -896.4504 2745.0000 4.1472 4.1475
620.8608 3.0564 -895.4551 2746.0000 4.1460 4.1463
620.9575 3.0556 -894.4598 2747.0000 4.1446 4.1450
621.0540 3.0548 -893.4645 2748.0000 4.1432 4.1436
621.1505 3.0540 -892.4691 2749.0000 4.1417 4.1422
621.2468 3.0531 -891.4738 2750.0000 4.1402 4.1407
621.3429 3.0521 -890.4784 2751.0000 4.1386 4.1391
621.4390 3.0511 -889.4830 2752.0000 4.1369 4.1374
621.5349 3.0501 -888.4876 2753.0000 4.1352 4.1357
621.6308 3.0490 -887.4922 2754.0000 4.1335 4.1340
621.7266 3.0479 -886.4968 2755.0000 4.1317 4.1322
621.8223 3.0467 -885.5014 2756.0000 4.1300 4.1304
621.9178 3.0456 -884.5060 2757.0000 4.1283 4.1286
622.0133 3.0445 -883.5106 2758.0000 4.1265 4.1269
622.1086 3.0434 -882.5151 2759.0000 4.1248 4.1252
622.2037 3.0424 -881.5197 2760.0000 4.1233 4.1236
622.2986 3.0414 -880.5242 2761.0000 4.1219 4.1222
622.3931 3.0404 -879.5286 2762.0000 4.1207 4.1210
622.4872 3.0395 -878.5331 2763.0000 4.1199 4.1200
622.5809 3.0387 -877.5375 2764.0000 4.1194 4.1194
622.6741 3.0379 -876.5419 2765.0000 4.1192 4.1191
622.7669 3.0371 -875.5461 2766.0000 4.1194 4.1192
622.8591 3.0364 -874.5504 2767.0000 4.1200 4.1197
622.9510 3.0357 -873.5546 2768.0000 4.1207 4.1205
623.0426 3.0350 -872.5588 2769.0000 4.1216 4.1214
623.1340 3.0344 -871.5630 2770.0000 4.1225 4.1223
623.2253 3.0338 -870.5672 2771.0000 4.1233 4.1232
623.3165 3.0333 -869.5714 2772.0000 4.1241 4.1241
623.4076 3.0328 -868.5756 2773.0000 4.1249 4.1248
623.4987 3.0324 -867.5797 2774.0000 4.1256 4.1255
623.5895 3.0320 -866.5839 2775.0000 4.1263 4.1261
623.6804 3.0317 -865.5880 2776.0000 4.1270 4.1267
623.7711 3.0315 -864.5921 2777.0000 4.1275 4.1272
623.8617 3.0312 -863.5962 2778.0000 4.1280 4.1277
623.9522 3.0310 -862.6003 2779.0000 4.1285 4.1283
624.0426 3.0308 -861.6044 2780.0000 4.1289 4.1288
624.1329 3.0306 -860.6085 2781.0000 4.1294 4.1293
624.2231 3.0303 -859.6125 2782.0000 4.1298 4.1298
624.3134 3.0300 -858.6166 2783.0000 4.1304 4.1302
624.4035 3.0297 -857.6207 2784.0000 4.1310 4.1307
624.4937 3.0292 -856.6248 2785.0000 4.1316 4.1313
624.5838 3.0287 -855.6288 2786.0000 4.1324 4.1321
624.6740 3.0280 -854.6329 2787.0000 4.1333 4.1330
624.7643 3.0273 -853.6370 2788.0000 4.1344 4.1342
624.8549 3.0265 -852.6411 2789.0000 4.1359 4.1356
624.9456 3.0257 -851.6453 2790.0000 4.1377 4.1374
625.0367 3.0248 -850.6494 2791.0000 4.1399 4.1395
625.1279 3.0238 -849.6536 2792.0000 4.1424 4.1420
625.2195 3.0229 -848.6578 2793.0000 4.1452 4.1448
625.3112 3.0220 -847.6620 2794.0000 4.1484 4.1479
625.4031 3.0211 -846.6663 2795.0000 4.1517 4.1512
625.4952 3.0202 -845.6705 2796.0000 4.1552 4.1548
625.5873 3.0194 -844.6747 2797.0000 4.1589 4.1585
625.6794 3.0186 -843.6790 2798.0000 4.1627 4.1623
625.7714 3.0178 -842.6832 2799.0000 4.1665 4.1661
625.8634 3.0171 -841.6875 2800.0000 4.1704 4.1699
625.9553 3.0164 -840.6917 2801.0000 4.1742 4.1737
626.0471 3.0157 -839.6959 2802.0000 4.1781 4.1775
626.1389 3.0151 -838.7001 2803.0000 4.1820 4.1814
626.2304 3.0145 -837.7043 2804.0000 4.1858 4.1852
626.3218 3.0138 -836.7086 2805.0000 4.1897 4.1891
626.4130 3.0132 -835.7127 2806.0000 4.1935 4.1930
626.5041 3.0127 -834.7169 2807.0000 4.1973 4.1969
626.5949 3.0120 -833.7210 2808.0000 4.2010 4.2007
626.6855 3.0114 -832.7251 2809.0000 4.2046 4.2044
626.7758 3.0108 -831.7292 2810.0000 4.2081 4.2078
626.8657 3.0101 -830.7332 2811.0000 4.2113 4.2111
626.9554 3.0094 -829.7372 2812.0000 4.2144 4.2141
627.0447 3.0087 -828.7413 2813.0000 4.2173 4.2170
627.1337 3.0080 -827.7452 2814.0000 4.2200 4.2197
627.2224 3.0072 -826.7491 2815.0000 4.2225 4.2222
627.3109 3.0066 -825.7531 2816.0000 4.2248 4.2247
627.3991 3.0059 -824.7570 2817.0000 4.2271 4.2270
627.4872 3.0053 -823.7609 2818.0000 4.2294 4.2292
627.5753 3.0047 -822.7648 2819.0000 4.2316 4.2315
627.6631 3.0041 -821.7686 2820.0000 4.2339 4.2336
627.7509 3.0036 -820.7725 2821.0000 4.2361 4.2358
627.8385 3.0031 -819.7763 2822.0000 4.2383 4.2379
627.9260 3.0026 -818.7802 2823.0000 4.2405 4.2401
628.0134 3.0022 -817.7840 2824.0000 4.2427 4.2423
628.1006 3.0018 -816.7878 2825.0000 4.2448 4.2445
628.1877 3.0013 -815.7916 2826.0000 4.2469 4.2466
628.2745 3.0008 -814.7954 2827.0000 4.2490 4.2487
628.3612 3.0003 -813.7991 2828.0000 4.2511 4.2508
628.4477 2.9998 -812.8029 2829.0000 4.2531 4.2529
628.5339 2.9991 -811.8066 2830.0000 4.2550 4.2548
628.6198 2.9985 -810.8103 2831.0000 4.2568 4.2566
628.7054 2.9977 -809.8140 2832.0000 4.2585 4.2584
628.7909 2.9969 -808.8176 2833.0000 4.2601 4.2600
628.8761 2.9960 -807.8213 2834.0000 4.2616 4.2615
628.9611 2.9951 -806.8249 2835.0000 4.2630 4.2629
629.0457 2.9941 -805.8285 2836.0000 4.2643 4.2641
629.1301 2.9931 -804.8321 2837.0000 4.2655 4.2653
629.2142 2.9920 -803.8356 2838.0000 4.2665 4.2663
629.2981 2.9908 -802.8391 2839.0000 4.2674 4.2672
629.3816 2.9896 -801.8427 2840.0000 4.2682 4.2680
629.4649 2.9884 -800.8461 2841.0000 4.2688 4.2687
629.5480 2.9872 -799.8495 2842.0000 4.2693 4.2692
629.6308 2.9859 -798.8530 2843.0000 4.2696 4.2696
629.7135 2.9845 -797.8564 2844.0000 4.2697 4.2699
629.7961 2.9832 -796.8599 2845.0000 4.2697 4.2699
629.8787 2.9818 -795.8633 2846.0000 4.2695 4.2698
629.9614 2.9804 -794.8667 2847.0000 4.2691 4.2694
630.0443 2.9790 -793.8701 2848.0000 4.2684 4.2687
630.1273 2.9776 -792.8736 2849.0000 4.2675 4.2678
630.2108 2.9763 -791.8771 2850.0000 4.2663 4.2667
630.2944 2.9750 -790.8806 2851.0000 4.2647 4.2652
630.3777 2.9737 -789.8841 2852.0000 4.2625 4.2633
630.4601 2.9723 -788.8875 2853.0000 4.2593 4.2607
630.5410 2.9709 -787.8907 2854.0000 4.2550 4.2572
630.6190 2.9693 -786.8937 2855.0000 4.2505 4.2531
630.6918 2.9674 -785.8964 2856.0000 4.2465 4.2491
630.7570 2.9651 -784.8986 2857.0000 4.2437 4.2459
630.8124 2.9622 -783.9001 2858.0000 4.2427 4.2441
630.8555 2.9588 -782.9010 2859.0000 4.2445 4.2443
630.8839 2.9550 -781.9014 2860.0000 4.2500 4.2475
630.8948 2.9506 -780.9016 2861.0000 4.2599 4.2549
630.8857 2.9459 -779.9016 2862.0000 4.2746 4.2672
630.8545 2.9410 -778.9019 2863.0000 4.2932 4.2845
630.7991 2.9359 -777.9034 2864.0000 4.3139 4.3056
630.7175 2.9309 -776.9070 2865.0000 4.3354 4.3285
630.6080 2.9262 -775.9133 2866.0000 4.3562 4.3516
630.4706 2.9217 -774.9230 2867.0000 4.3762 4.3733
630.3076 2.9177 -773.9363 2868.0000 4.3968 4.3949
630.1213 2.9139 -772.9537 2869.0000 4.4196 4.4178
629.9144 2.9105 -771.9753 2870.0000 4.4457 4.4432
629.6884 2.9074 -771.0012 2871.0000 4.4755 4.4716
629.4443 2.9044 -770.0315 2872.0000 4.5082 4.5024
629.1832 2.9015 -769.0662 2873.0000 4.5431 4.5348
628.9059 2.8984 -768.1053 2874.0000 4.5794 4.5684
628.6115 2.8953 -767.1495 2875.0000 4.6156 4.6029
628.2975 2.8920 -766.2001 2876.0000 4.6500 4.6371
627.9617 2.8886 -765.2584 2877.0000 4.6809 4.6693
627.6016 2.8849 -764.3256 2878.0000 4.7067 4.6977
627.2158 2.8812 -763.4030 2879.0000 4.7271 4.7207
626.8038 2.8774 -762.4919 2880.0000 4.7424 4.7384
626.3651 2.8736 -761.5933 2881.0000 4.7529 4.7508
625.8994 2.8699 -760.7085 2882.0000 4.7587 4.7582
625.4066 2.8664 -759.8384 2883.0000 4.7602 4.7606
624.8873 2.8631 -758.9838 2884.0000 4.7578 4.7586
624.3423 2.8601 -758.1454 2885.0000 4.7522 4.7529
623.7722 2.8575 -757.3239 2886.0000 4.7436 4.7439
623.1777 2.8551 -756.5199 2887.0000 4.7322 4.7319
622.5599 2.8531 -755.7335 2888.0000 4.7177 4.7165
621.9200 2.8512 -754.9651 2889.0000 4.7000 4.6976
621.2588 2.8495 -754.2150 2890.0000 4.6789 4.6751
620.5776 2.8479 -753.4829 2891.0000 4.6548 4.6497
619.8779 2.8461 -752.7686 2892.0000 4.6285 4.6226
619.1607 2.8442 -752.0717 2893.0000 4.6009 4.5945
618.4276 2.8420 -751.3917 2894.0000 4.5727 4.5664
617.6800 2.8397 -750.7277 2895.0000 4.5445 4.5389
616.9197 2.8375 -750.0781 2896.0000 4.5168 4.5123
616.1481 2.8356 -749.4418 2897.0000 4.4898 4.4868
615.3670 2.8342 -748.8174 2898.0000 4.4640 4.4627
614.5770 2.8333 -748.2043 2899.0000 4.4400 4.4402
613.7784 2.8330 -747.6025 2900.0000 4.4186 4.4199
612.9716 2.8333 -747.0118 2901.0000 4.4005 4.4024
612.1567 2.8342 -746.4319 2902.0000 4.3865 4.3883
611.3339 2.8354 -745.8635 2903.0000 4.3769 4.3781
610.5029 2.8366 -745.3073 2904.0000 4.3722 4.3726
609.6635 2.8375 -744.7640 2905.0000 4.3725 4.3724
608.8156 2.8378 -744.2341 2906.0000 4.3781 4.3780
607.9600 2.8375 -743.7165 2907.0000 4.3882 4.3885
607.0983 2.8364 -743.2090 2908.0000 4.4019 4.4024
606.2318 2.8347 -742.7097 2909.0000 4.4178 4.4182
605.3619 2.8322 -742.2165 2910.0000 4.4347 4.4345
604.4896 2.8292 -741.7275 2911.0000 4.4517 4.4506
603.6159 2.8257 -741.2410 2912.0000 4.4682 4.4661
602.7418 2.8218 -740.7552 2913.0000 4.4835 4.4804
601.8682 2.8177 -740.2687 2914.0000 4.4972 4.4933
600.9952 2.8134 -739.7810 2915.0000 4.5094 4.5050
600.1227 2.8090 -739.2925 2916.0000 4.5207 4.5160
599.2504 2.8045 -738.8034 2917.0000 4.5315 4.5265
598.3784 2.7998 -738.3141 2918.0000 4.5423 4.5370
597.5062 2.7951 -737.8248 2919.0000 4.5529 4.5475
596.6341 2.7903 -737.3356 2920.0000 4.5634 4.5580
595.7617 2.7853 -736.8467 2921.0000 4.5736 4.5682
594.8892 2.7801 -736.3583 2922.0000 4.5834 4.5782
594.0163 2.7747 -735.8704 2923.0000 4.5928 4.5876
593.1431 2.7690 -735.3829 2924.0000 4.6017 4.5967
592.2698 2.7630 -734.8959 2925.0000 4.6103 4.6054
591.3962 2.7567 -734.4093 2926.0000 4.6185 4.6137
590.5224 2.7500 -733.9230 2927.0000 4.6263 4.6216
589.6485 2.7432 -733.4370 2928.0000 4.6338 4.6292
588.7746 2.7362 -732.9509 2929.0000 4.6411 4.6366
587.9006 2.7291 -732.4649 2930.0000 4.6482 4.6438
587.0267 2.7220 -731.9789 2931.0000 4.6552 4.6508
586.1529 2.7150 -731.4927 2932.0000 4.6621 4.6576
585.2791 2.7083 -731.0065 2933.0000 4.6688 4.6644
584.4054 2.7019 -730.5200 2934.0000 4.6754 4.6710
583.5318 2.6958 -730.0335 2935.0000 4.6819 4.6776
582.6582 2.6902 -729.5469 2936.0000 4.6884 4.6841
581.7846 2.6849 -729.0602 2937.0000 4.6947 4.6906
580.9110 2.6800 -728.5735 2938.0000 4.7011 4.6970
580.0374 2.6754 -728.0869 2939.0000 4.7073 4.7034
579.1638 2.6710 -727.6003 2940.0000 4.7136 4.7098
578.2902 2.6669 -727.1138 2941.0000 4.7199 4.7161
577.4166 2.6627 -726.6272 2942.0000 4.7262 4.7224
576.5428 2.6586 -726.1407 2943.0000 4.7325 4.7286
575.6692 2.6545 -725.6543 2944.0000 4.7388 4.7349
574.7955 2.6502 -725.1678 2945.0000 4.7451 4.7411
573.9218 2.6459 -724.6813 2946.0000 4.7515 4.7474
573.0481 2.6413 -724.1949 2947.0000 4.7579 4.7538
572.1744 2.6367 -723.7084 2948.0000 4.7642 4.7602
571.3008 2.6319 -723.2219 2949.0000 4.7706 4.7666
570.4271 2.6271 -722.7354 2950.0000 4.7769 4.7730
569.5534 2.6222 -722.2489 2951.0000 4.7831 4.7793
568.6797 2.6172 -721.7624 2952.0000 4.7893 4.7856
567.8061 2.6122 -721.2759 2953.0000 4.7954 4.7917
566.9325 2.6072 -720.7893 2954.0000 4.8013 4.7978
566.0588 2.6021 -720.3027 2955.0000 4.8071 4.8036
565.1852 2.5970 -719.8162 2956.0000 4.8128 4.8094
564.3116 2.5919 -719.3296 2957.0000 4.8184 4.8150
563.4379 2.5868 -718.8431 2958.0000 4.8237 4.8205
562.5643 2.5816 -718.3566 2959.0000 4.8289 4.8258
561.6906 2.5765 -717.8701 2960.0000 4.8340 4.8310
560.8169 2.5713 -717.3837 2961.0000 4.8390 4.8361
559.9432 2.5661 -716.8973 2962.0000 4.8438 4.8410
559.0694 2.5610 -716.4109 2963.0000 4.8486 4.8458
558.1956 2.5559 -715.9247 2964.0000 4.8532 4.8504
557.3217 2.5507 -715.4385 2965.0000 4.8576 4.8549
556.4478 2.5456 -714.9526 2966.0000 4.8618 4.8592
555.5737 2.5405 -714.4669 2967.0000 4.8658 4.8634
554.6994 2.5354 -713.9814 2968.0000 4.8694 4.8672
553.8250 2.5303 -713.4964 2969.0000 4.8727 4.8708
552.9501 2.5251 -713.0119 2970.0000 4.8755 4.8739
552.0751 2.5200 -712.5280 2971.0000 4.8776 4.8765
551.1996 2.5148 -712.0447 2972.0000 4.8791 4.8784
550.3239 2.5097 -711.5620 2973.0000 4.8797 4.8795
549.4476 2.5046 -711.0801 2974.0000 4.8793 4.8797
548.5710 2.4996 -710.5990 2975.0000 4.8779 4.8789
547.6940 2.4947 -710.1185 2976.0000 4.8756 4.8770
546.8167 2.4900 -709.6385 2977.0000 4.8723 4.8743
545.9391 2.4854 -709.1592 2978.0000 4.8681 4.8706
545.0613 2.4809 -708.6802 2979.0000 4.8631 4.8661
544.1833 2.4767 -708.2014 2980.0000 4.8574 4.8608
543.3054 2.4726 -707.7228 2981.0000 4.8511 4.8549
542.4274 2.4686 -707.2441 2982.0000 4.8444 4.8485
541.5495 2.4648 -706.7652 2983.0000 4.8373 4.8417
540.6717 2.4610 -706.2863 2984.0000 4.8298 4.8345
539.7939 2.4572 -705.8071 2985.0000 4.8217 4.8267
538.9163 2.4535 -705.3278 2986.0000 4.8132 4.8185
538.0388 2.4496 -704.8483 2987.0000 4.8042 4.8098
537.1614 2.4458 -704.3686 2988.0000 4.7948 4.8007
536.2841 2.4418 -703.8886 2989.0000 4.7850 4.7912
535.4070 2.4378 -703.4084 2990.0000 4.7749 4.7814
534.5300 2.4337 -702.9278 2991.0000 4.7645 4.7712
533.6532 2.4297 -702.4470 2992.0000 4.7538 4.7608
532.7766 2.4256 -701.9658 2993.0000 4.7428 4.7501
531.9001 2.4216 -701.4844 2994.0000 4.7316 4.7392
531.0236 2.4176 -701.0030 2995.0000 4.7198 4.7279
530.1469 2.4138 -700.5220 2996.0000 4.7070 4.7158
529.2697 2.4100 -700.0419 2997.0000 4.6928 4.7025
528.3918 2.4064 -699.5629 2998.0000 4.6767 4.6875
527.5132 2.4028 -699.0855 2999.0000 4.6585 4.6703
526.6337 2.3994 -698.6096 3000.0000 4.6383 4.6510
525.7534 2.3960 -698.1353 3001.0000 4.6159 4.6294
524.8721 2.3928 -697.6627 3002.0000 4.5913 4.6055
523.9901 2.3896 -697.1915 3003.0000 4.5649 4.5794
523.1075 2.3865 -696.7213 3004.0000 4.5371 4.5518
522.2247 2.3835 -696.2516 3005.0000 4.5086 4.5232
521.3418 2.3806 -695.7820 3006.0000 4.4797 4.4943
520.4589 2.3779 -695.3124 3007.0000 4.4508 4.4652
519.5760 2.3752 -694.8428 3008.0000 4.4218 4.4362
518.6932 2.3726 -694.3732 3009.0000 4.3928 4.4070
517.8104 2.3701 -693.9034 3010.0000 4.3636 4.3777
516.9276 2.3678 -693.4337 3011.0000 4.3345 4.3483
516.0449 2.3655 -692.9638 3012.0000 4.3056 4.3191
515.1622 2.3634 -692.4938 3013.0000 4.2770 4.2901
514.2797 2.3614 -692.0236 3014.0000 4.2489 4.2615
513.3972 2.3596 -691.5532 3015.0000 4.2214 4.2335
512.5150 2.3579 -691.0825 3016.0000 4.1950 4.2064
511.6328 2.3563 -690.6115 3017.0000 4.1697 4.1804
510.7509 2.3549 -690.1400 3018.0000 4.1457 4.1556
509.8691 2.3535 -689.6684 3019.0000 4.1231 4.1322
508.9873 2.3522 -689.1968 3020.0000 4.1016 4.1099
508.1054 2.3509 -688.7254 3021.0000 4.0809 4.0886
507.2232 2.3496 -688.2546 3022.0000 4.0608 4.0679
506.3408 2.3484 -687.7841 3023.0000 4.0413 4.0480
505.4583 2.3471 -687.3138 3024.0000 4.0228 4.0290
504.5758 2.3458 -686.8434 3025.0000 4.0054 4.0111
503.6935 2.3446 -686.3727 3026.0000 3.9894 3.9945
502.8114 2.3433 -685.9016 3027.0000 3.9747 3.9793
501.9298 2.3420 -685.4297 3028.0000 3.9613 3.9655
501.0485 2.3408 -684.9570 3029.0000 3.9492 3.9531
500.1678 2.3396 -684.4834 3030.0000 3.9384 3.9419
499.2875 2.3383 -684.0089 3031.0000 3.9287 3.9318
498.4077 2.3371 -683.5337 3032.0000 3.9198 3.9227
497.5281 2.3359 -683.0579 3033.0000 3.9114 3.9141
496.6487 2.3347 -682.5818 3034.0000 3.9033 3.9059
495.7695 2.3336 -682.1053 3035.0000 3.8953 3.8978
494.8904 2.3324 -681.6287 3036.0000 3.8874 3.8899
494.0114 2.3312 -681.1520 3037.0000 3.8796 3.8820
493.1323 2.3300 -680.6753 3038.0000 3.8717 3.8741
492.2533 2.3287 -680.1985 3039.0000 3.8638 3.8661
491.3742 2.3275 -679.7218 3040.0000 3.8558 3.8581
490.4952 2.3262 -679.2451 3041.0000 3.8478 3.8500
489.6162 2.3249 -678.7682 3042.0000 3.8396 3.8419
488.7372 2.3236 -678.2914 3043.0000 3.8315 3.8337
487.8582 2.3223 -677.8145 3044.0000 3.8234 3.8256
486.9794 2.3211 -677.3373 3045.0000 3.8154 3.8176
486.1007 2.3199 -676.8599 3046.0000 3.8076 3.8098
485.2222 2.3189 -676.3823 3047.0000 3.8001 3.8022
484.3438 2.3181 -675.9044 3048.0000 3.7928 3.7948
483.4656 2.3174 -675.4261 3049.0000 3.7858 3.7877
482.5876 2.3171 -674.9474 3050.0000 3.7790 3.7808
481.7097 2.3170 -674.4685 3051.0000 3.7724 3.7741
480.8321 2.3171 -673.9893 3052.0000 3.7661 3.7677
479.9546 2.3176 -673.5096 3053.0000 3.7599 3.7615
479.0773 2.3183 -673.0296 3054.0000 3.7539 3.7555
478.2003 2.3192 -672.5492 3055.0000 3.7481 3.7497
477.3234 2.3204 -672.0685 3056.0000 3.7424 3.7440
476.4467 2.3217 -671.5874 3057.0000 3.7368 3.7384
475.5702 2.3231 -671.1060 3058.0000 3.7313 3.7329
474.6939 2.3247 -670.6243 3059.0000 3.7260 3.7274
473.8178 2.3262 -670.1422 3060.0000 3.7207 3.7221
472.9419 2.3278 -669.6597 3061.0000 3.7156 3.7170
472.0661 2.3294 -669.1770 3062.0000 3.7105 3.7119
471.1905 2.3309 -668.6940 3063.0000 3.7055 3.7070
470.3151 2.3325 -668.2106 3064.0000 3.7006 3.7022
469.4399 2.3340 -667.7268 3065.0000 3.6958 3.6974
468.5649 2.3355 -667.2427 3066.0000 3.6910 3.6926
467.6901 2.3370 -666.7582 3067.0000 3.6862 3.6877
466.8155 2.3385 -666.2733 3068.0000 3.6814 3.6829
465.9411 2.3399 -665.7881 3069.0000 3.6766 3.6781
465.0670 2.3413 -665.3026 3070.0000 3.6718 3.6733
464.1930 2.3426 -664.8166 3071.0000 3.6669 3.6684
463.3192 2.3438 -664.3303 3072.0000 3.6620 3.6636
462.4456 2.3449 -663.8436 3073.0000 3.6571 3.6587
461.5722 2.3460 -663.3566 3074.0000 3.6522 3.6538
460.6990 2.3469 -662.8691 3075.0000 3.6473 3.6489
459.8260 2.3477 -662.3815 3076.0000 3.6424 3.6439
458.9532 2.3485 -661.8934 3077.0000 3.6374 3.6389
458.0805 2.3491 -661.4051 3078.0000 3.6323 3.6339
457.2080 2.3496 -660.9166 3079.0000 3.6272 3.6288
456.3356 2.3501 -660.4278 3080.0000 3.6221 3.6238
455.4633 2.3505 -659.9388 3081.0000 3.6169 3.6186
454.5911 2.3508 -659.4496 3082.0000 3.6117 3.6134
453.7189 2.3510 -658.9604 3083.0000 3.6064 3.6081
452.8469 2.3512 -658.4711 3084.0000 3.6011 3.6027
451.9748 2.3513 -657.9817 3085.0000 3.5957 3.5973
451.1027 2.3514 -657.4922 3086.0000 3.5903 3.5918
450.2307 2.3514 -657.0029 3087.0000 3.5847 3.5863
449.3586 2.3514 -656.5135 3088.0000 3.5791 3.5807
448.4865 2.3513 -656.0241 3089.0000 3.5734 3.5751
447.6145 2.3511 -655.5347 3090.0000 3.5677 3.5695
446.7424 2.3510 -655.0453 3091.0000 3.5620 3.5637
445.8704 2.3507 -654.5558 3092.0000 3.5562 3.5580
444.9984 2.3505 -654.0664 3093.0000 3.5504 3.5521
444.1263 2.3502 -653.5770 3094.0000 3.5445 3.5462
443.2542 2.3499 -653.0876 3095.0000 3.5386 3.5403
442.3820 2.3497 -652.5984 3096.0000 3.5330 3.5346
441.5097 2.3494 -652.1096 3097.0000 3.5276 3.5291
440.6371 2.3492 -651.6210 3098.0000 3.5227 3.5240
439.7643 2.3490 -651.1329 3099.0000 3.5182 3.5194
438.8913 2.3488 -650.6453 3100.0000 3.5142 3.5152
438.0179 2.3486 -650.1583 3101.0000 3.5108 3.5116
437.1443 2.3484 -649.6717 3102.0000 3.5079 3.5086
436.2704 2.3483 -649.1856 3103.0000 3.5055 3.5060
435.3963 2.3482 -648.6998 3104.0000 3.5034 3.5038
434.5221 2.3481 -648.2142 3105.0000 3.5015 3.5018
433.6479 2.3480 -647.7288 3106.0000 3.4998 3.5000
432.7736 2.3479 -647.2432 3107.0000 3.4982 3.4983
431.8994 2.3479 -646.7577 3108.0000 3.4966 3.4967
431.0252 2.3479 -646.2721 3109.0000 3.4950 3.4952
430.1511 2.3479 -645.7863 3110.0000 3.4936 3.4938
429.2771 2.3480 -645.3005 3111.0000 3.4922 3.4925
428.4031 2.3481 -644.8145 3112.0000 3.4909 3.4913
