VERSION 0.7
FIELDS x y z lapdistance
SIZE 4 4 4 4
TYPE F F F F
COUNT 1 1 1 1
WIDTH 1181
HEIGHT 1
VIEWPOINT 0.525 -0.474 -0.478 -0.521 -622.17693 -3.28656 601.92171
POINTS 1181
DATA ascii
216.04052 6.12972 -974.79266 2168.12495
216.66023 6.11854 -976.68484 2170.11606
217.26801 6.10640 -978.57451 2172.10111
217.85955 6.09360 -980.46434 2174.08140
218.44287 6.08061 -982.35590 2176.06091
219.04153 6.06814 -984.24274 2178.04051
219.70115 6.05678 -986.10319 2180.01468
220.48653 6.04679 -987.89604 2181.97276
221.45540 6.03837 -989.56433 2183.90335
222.62730 6.03229 -991.06316 2185.80750
223.99160 6.02895 -992.38731 2187.71010
225.53712 6.02665 -993.55240 2189.64671
227.24187 6.02193 -994.55878 2191.62729
229.06487 6.01382 -995.39827 2193.63512
230.96573 6.00344 -996.06936 2195.65158
232.91074 5.99171 -996.60283 2197.66874
234.87646 5.97916 -997.05379 2199.68564
236.85108 5.96582 -997.45658 2201.70099
238.82884 5.95200 -997.82551 2203.71294
240.80595 5.93836 -998.16914 2205.71975
242.78131 5.92515 -998.49243 2207.72143
244.75622 5.91244 -998.80098 2209.72035
246.73143 5.89998 -999.10342 2211.71861
248.70655 5.88761 -999.40740 2213.71703
250.68111 5.87527 -999.71469 2215.71540
252.65441 5.86281 -1000.02457 2217.71292
254.62516 5.85025 -1000.33943 2219.70870
256.59245 5.83773 -1000.66468 2221.70274
258.55614 5.82542 -1001.00427 2223.69562
260.51645 5.81312 -1001.35976 2225.68795
262.47342 5.80081 -1001.73424 2227.68047
264.42715 5.78835 -1002.13168 2229.67426
266.37868 5.77572 -1002.55083 2231.67035
268.32874 5.76310 -1002.98619 2233.66846
270.27687 5.75064 -1003.43494 2235.66765
272.22235 5.73842 -1003.89644 2237.66715
274.16482 5.72651 -1004.36969 2239.66648
276.10420 5.71492 -1004.85349 2241.66533
278.04054 5.70357 -1005.34653 2243.66349
279.97431 5.69231 -1005.84704 2245.66102
281.90632 5.68100 -1006.35297 2247.65821
283.83715 5.66950 -1006.86274 2249.65523
285.76705 5.65773 -1007.37561 2251.65215
287.69618 5.64571 -1007.89157 2253.64913
289.62477 5.63358 -1008.41128 2255.64654
291.55291 5.62153 -1008.93641 2257.64496
293.47996 5.60969 -1009.46996 2259.64454
295.40436 5.59821 -1010.01550 2261.64481
297.32489 5.58731 -1010.57516 2263.64526
299.24152 5.57704 -1011.14791 2265.64566
301.15538 5.56686 -1011.72949 2267.64597
303.06810 5.55601 -1012.31450 2269.64618
304.98092 5.54360 -1012.89897 2271.64635
306.89424 5.52924 -1013.48168 2273.64648
308.80767 5.51311 -1014.06382 2275.64657
310.72043 5.49612 -1014.64776 2277.64655
312.63195 5.47947 -1015.23529 2279.64639
314.54217 5.46371 -1015.82675 2281.64616
316.45140 5.44890 -1016.42186 2283.64603
318.35974 5.43444 -1017.02078 2285.64620
320.26660 5.41995 -1017.62495 2287.64654
322.17106 5.40578 -1018.23648 2289.64683
324.07290 5.39245 -1018.85575 2291.64699
325.97257 5.38000 -1019.48136 2293.64707
327.87037 5.36798 -1020.11249 2295.64709
329.76636 5.35600 -1020.74892 2297.64709
331.66103 5.34395 -1021.38931 2299.64709
333.55548 5.33189 -1022.03036 2301.64710
335.45079 5.31991 -1022.66882 2303.64709
337.34730 5.30806 -1023.30371 2305.64709
339.24448 5.29638 -1023.93666 2307.64710
341.14142 5.28490 -1024.57034 2309.64711
343.03779 5.27360 -1025.20570 2311.64712
344.93391 5.26248 -1025.84173 2313.64711
346.83022 5.25154 -1026.47722 2315.64710
348.72695 5.24082 -1027.11150 2317.64710
350.62430 5.23034 -1027.74400 2319.64713
352.52240 5.22007 -1028.37429 2321.64717
354.42121 5.20994 -1029.00247 2323.64722
356.32052 5.19986 -1029.62917 2325.64727
358.22013 5.18974 -1030.25498 2327.64733
360.11992 5.17954 -1030.88020 2329.64739
362.01986 5.16926 -1031.50498 2331.64745
363.91991 5.15882 -1032.12947 2333.64752
365.82000 5.14801 -1032.75383 2335.64759
367.72011 5.13646 -1033.37818 2337.64768
369.62021 5.12378 -1034.00276 2339.64784
371.52028 5.10978 -1034.62771 2341.64810
373.42021 5.09450 -1035.25345 2343.64847
375.31959 5.07825 -1035.88103 2345.64891
377.21776 5.06149 -1036.51224 2347.64936
379.11412 5.04487 -1037.14874 2349.64975
381.00846 5.02898 -1037.79099 2351.65007
382.90101 5.01407 -1038.43836 2353.65034
384.79222 5.00005 -1039.08951 2355.65055
386.68263 4.98658 -1039.74285 2357.65072
388.57260 4.97334 -1040.39734 2359.65085
390.46225 4.96029 -1041.05256 2361.65092
392.35162 4.94741 -1041.70839 2363.65092
394.24072 4.93463 -1042.36482 2365.65086
396.12961 4.92186 -1043.02177 2367.65077
398.01836 4.90905 -1043.67911 2369.65068
399.90699 4.89619 -1044.33664 2371.65054
401.79562 4.88328 -1044.99414 2373.65039
403.68434 4.87030 -1045.65143 2375.65026
405.57326 4.85727 -1046.30834 2377.65018
407.46245 4.84425 -1046.96468 2379.65018
409.35194 4.83131 -1047.62033 2381.65023
411.24180 4.81850 -1048.27501 2383.65032
413.13219 4.80582 -1048.92823 2385.65043
415.02334 4.79329 -1049.57923 2387.65053
416.91552 4.78093 -1050.22722 2389.65062
418.80885 4.76870 -1050.87170 2391.65068
420.70328 4.75654 -1051.51273 2393.65066
422.59858 4.74443 -1052.15088 2395.65055
424.49455 4.73236 -1052.78691 2397.65039
426.39105 4.72037 -1053.42135 2399.65024
428.28791 4.70849 -1054.05479 2401.65010
430.18484 4.69677 -1054.68807 2403.64998
432.08143 4.68526 -1055.32247 2405.64990
433.97729 4.67400 -1055.95914 2407.64983
435.87240 4.66294 -1056.59808 2409.64979
437.76715 4.65193 -1057.23816 2411.64976
439.66184 4.64077 -1057.87838 2413.64973
441.55661 4.62935 -1058.51838 2415.64970
443.45141 4.61765 -1059.15826 2417.64966
445.34613 4.60572 -1059.79837 2419.64962
447.24051 4.59371 -1060.43949 2421.64958
449.13416 4.58177 -1061.08280 2423.64956
451.02671 4.57005 -1061.72946 2425.64958
452.91814 4.55861 -1062.37947 2427.64962
454.80876 4.54739 -1063.03188 2429.64967
456.69898 4.53624 -1063.68546 2431.64972
458.58904 4.52503 -1064.33947 2433.64977
460.47894 4.51383 -1064.99393 2435.64981
462.36859 4.50284 -1065.64915 2437.64986
464.25793 4.49218 -1066.30523 2439.64990
466.14700 4.48177 -1066.96208 2441.64994
468.03590 4.47153 -1067.61943 2443.64997
469.92473 4.46139 -1068.27696 2445.65001
471.81359 4.45128 -1068.93451 2447.65008
473.70259 4.44116 -1069.59196 2449.65024
475.59189 4.43098 -1070.24892 2451.65053
477.48179 4.42067 -1070.90458 2453.65096
479.37257 4.41003 -1071.55791 2455.65146
481.26452 4.39870 -1072.20799 2457.65201
483.15791 4.38624 -1072.85388 2459.65257
485.05284 4.37235 -1073.49513 2461.65312
486.94924 4.35689 -1074.13206 2463.65367
488.84689 4.33997 -1074.76548 2465.65432
490.74575 4.32190 -1075.39591 2467.65519
492.64594 4.30297 -1076.02321 2469.65633
494.54774 4.28332 -1076.64621 2471.65767
496.45188 4.26283 -1077.26217 2473.65906
498.35941 4.24138 -1077.86709 2475.66033
500.27119 4.21930 -1078.45758 2477.66136
502.18739 4.19746 -1079.03276 2479.66215
504.10787 4.17719 -1079.59356 2481.66293
506.03267 4.16042 -1080.14031 2483.66396
507.96133 4.14873 -1080.67349 2485.66499
509.89290 4.14304 -1081.19379 2487.66543
511.82650 4.14243 -1081.70116 2489.66450
513.76158 4.14474 -1082.19439 2491.66145
515.69858 4.14740 -1082.67103 2493.65624
517.63974 4.14779 -1083.12740 2495.65034
519.58912 4.14384 -1083.55826 2497.64679
521.54989 4.13444 -1083.95635 2499.64761
523.52118 4.11965 -1084.31511 2501.65137
525.49963 4.10120 -1084.63087 2503.65499
527.48200 4.08136 -1084.90077 2505.65580
529.46725 4.06206 -1085.11976 2507.65324
531.45748 4.04450 -1085.28004 2509.65008
533.45560 4.02857 -1085.37427 2511.65058
535.46001 4.01392 -1085.40011 2513.65530
537.46544 4.00018 -1085.36165 2515.66123
539.46649 3.98788 -1085.26570 2517.66468
541.45954 3.97767 -1085.11811 2519.66326
543.44362 3.96945 -1084.91989 2521.65729
545.42008 3.96218 -1084.66625 2523.65005
547.38955 3.95475 -1084.34897 2525.64503
549.34928 3.94646 -1083.96091 2527.64294
551.29423 3.93636 -1083.49902 2529.64213
553.21971 3.92352 -1082.96552 2531.64030
555.12409 3.90761 -1082.36784 2533.63641
557.01027 3.88868 -1081.71763 2535.63166
558.88308 3.86788 -1081.02624 2537.62815
560.74432 3.84768 -1080.30036 2539.62606
562.59088 3.82956 -1079.53930 2541.62343
564.41727 3.81328 -1078.73818 2543.61790
566.21951 3.79737 -1077.89339 2545.60843
567.99755 3.78125 -1077.00422 2547.59652
569.75481 3.76516 -1076.07150 2549.58609
571.49366 3.74918 -1075.09641 2551.57979
573.21217 3.73346 -1074.07997 2553.57650
574.90615 3.71820 -1073.02301 2555.57328
576.57280 3.70383 -1071.92857 2557.56725
578.21240 3.69062 -1070.80215 2559.55658
579.82597 3.67863 -1069.64631 2561.54148
581.41356 3.66767 -1068.45705 2563.52519
582.97345 3.65717 -1067.22600 2565.51242
584.50070 3.64679 -1065.94609 2567.50518
585.98862 3.63607 -1064.61464 2569.50196
587.43230 3.62434 -1063.23410 2571.49961
588.83186 3.61163 -1061.81209 2573.49492
590.19283 3.59818 -1060.35936 2575.48566
591.52173 3.58445 -1058.88352 2577.47170
592.82072 3.57109 -1057.38372 2579.45591
594.08745 3.55822 -1055.85351 2581.44249
595.31693 3.54596 -1054.28811 2583.43310
596.50429 3.53445 -1052.68687 2585.42663
597.64589 3.52335 -1051.05166 2587.42101
598.73853 3.51215 -1049.38418 2589.41470
599.77914 3.50069 -1047.68433 2591.40789
600.76826 3.48900 -1045.95250 2593.40238
601.70951 3.47804 -1044.19161 2595.39914
602.60275 3.46820 -1042.40430 2597.39732
603.44382 3.45859 -1040.59154 2599.39579
604.23030 3.44852 -1038.75337 2601.39524
604.96326 3.43676 -1036.88839 2603.39920
605.64428 3.42342 -1034.99496 2605.41149
606.27521 3.40898 -1033.07750 2607.43019
606.86077 3.39481 -1031.14583 2609.44875
607.40806 3.38245 -1029.20937 2611.46113
607.92098 3.37224 -1027.27291 2613.46441
608.39883 3.36358 -1025.33532 2615.46010
608.84022 3.35583 -1023.39123 2617.45371
609.24552 3.34855 -1021.43566 2619.45089
609.61603 3.34164 -1019.46784 2621.45332
609.95316 3.33501 -1017.48992 2623.45981
610.25851 3.32853 -1015.50511 2625.46800
610.53635 3.32195 -1013.51697 2627.47547
610.79341 3.31530 -1011.52863 2629.48038
611.03481 3.30838 -1009.54122 2631.48241
611.26298 3.30091 -1007.55403 2633.48268
611.47997 3.29282 -1005.56619 2635.48234
611.68941 3.28417 -1003.57754 2637.48201
611.89600 3.27524 -1001.58844 2639.48183
612.10276 3.26639 -999.59924 2641.48177
612.31002 3.25795 -997.61004 2643.48176
612.51639 3.25011 -995.62073 2645.48175
612.71949 3.24286 -993.63112 2647.48172
612.91723 3.23610 -991.64100 2649.48165
613.10949 3.22972 -989.65039 2651.48153
613.29793 3.22365 -987.65946 2653.48137
613.48487 3.21782 -985.66841 2655.48118
613.67188 3.21220 -983.67736 2657.48101
613.85959 3.20669 -981.68636 2659.48084
614.04809 3.20123 -979.69544 2661.48067
614.23715 3.19583 -977.70457 2663.48051
614.42637 3.19053 -975.71371 2665.48035
614.61519 3.18532 -973.72284 2667.48016
614.80283 3.18021 -971.73188 2669.47995
614.98795 3.17522 -969.74072 2671.47970
615.16894 3.17036 -967.74919 2673.47944
615.34507 3.16567 -965.75718 2675.47923
615.51666 3.16106 -963.76461 2677.47918
615.68402 3.15639 -961.77146 2679.47935
615.84691 3.15159 -959.77774 2681.47972
616.00485 3.14665 -957.78347 2683.48024
616.15814 3.14164 -955.78873 2685.48087
616.30814 3.13670 -953.79366 2687.48158
616.45615 3.13197 -951.79837 2689.48235
616.60225 3.12749 -949.80290 2691.48317
616.74602 3.12329 -947.80718 2693.48407
616.88737 3.11926 -945.81121 2695.48504
617.02688 3.11519 -943.81504 2697.48609
617.16545 3.11087 -941.81874 2699.48719
617.30376 3.10654 -939.82238 2701.48835
617.44211 3.10245 -937.82606 2703.48945
617.58045 3.09887 -935.82997 2705.49033
617.71849 3.09593 -933.83422 2707.49086
617.85602 3.09356 -931.83872 2709.49109
617.99308 3.09161 -929.84331 2711.49120
618.12987 3.08984 -927.84789 2713.49130
618.26714 3.08787 -925.85249 2715.49142
618.40642 3.08528 -923.85723 2717.49154
618.54989 3.08214 -921.86229 2719.49164
618.69953 3.07890 -919.86784 2721.49170
618.85599 3.07604 -917.87394 2723.49173
619.01795 3.07364 -915.88047 2725.49177
619.18336 3.07156 -913.88729 2727.49180
619.35072 3.06963 -911.89428 2729.49182
619.51965 3.06778 -909.90139 2731.49187
619.69123 3.06600 -907.90869 2733.49194
619.86714 3.06431 -905.91635 2735.49203
620.04834 3.06271 -903.92444 2737.49217
620.23468 3.06119 -901.93295 2739.49236
620.42510 3.05973 -899.94180 2741.49259
620.61795 3.05830 -897.95085 2743.49286
620.81162 3.05682 -895.95997 2745.49315
621.00509 3.05526 -893.96907 2747.49342
621.19802 3.05353 -891.97812 2749.49369
621.39040 3.05162 -889.98714 2751.49395
621.58233 3.04953 -887.99612 2753.49421
621.77389 3.04730 -886.00505 2755.49446
621.96503 3.04505 -884.01397 2757.49470
622.15564 3.04289 -882.02289 2759.49488
622.34538 3.04090 -880.03178 2761.49501
622.53368 3.03910 -878.04056 2763.49512
622.72004 3.03749 -876.04918 2765.49521
622.90455 3.03603 -874.05764 2767.49527
623.08783 3.03472 -872.06601 2769.49532
623.27045 3.03357 -870.07431 2771.49538
623.45265 3.03262 -868.08258 2773.49542
623.63448 3.03188 -866.09084 2775.49544
623.81591 3.03134 -864.09909 2777.49544
623.99694 3.03091 -862.10730 2779.49544
624.17761 3.03047 -860.11547 2781.49545
624.35798 3.02985 -858.12361 2783.49546
624.53824 3.02894 -856.13174 2785.49547
624.71871 3.02767 -854.13988 2787.49548
624.89978 3.02609 -852.14810 2789.49548
625.08182 3.02430 -850.15640 2791.49548
625.26492 3.02244 -848.16479 2793.49549
625.44878 3.02065 -846.17325 2795.49550
625.63292 3.01899 -844.18175 2797.49550
625.81697 3.01747 -842.19024 2799.49550
626.00074 3.01608 -840.19872 2801.49548
626.18410 3.01478 -838.20716 2803.49545
626.36694 3.01355 -836.21556 2805.49544
626.54908 3.01236 -834.22389 2807.49542
626.73025 3.01111 -832.23212 2809.49540
626.91018 3.00974 -830.24024 2811.49539
627.08878 3.00832 -828.24825 2813.49538
627.26620 3.00691 -826.25615 2815.49537
627.44277 3.00557 -824.26399 2817.49534
627.61873 3.00439 -822.27179 2819.49530
627.79419 3.00334 -820.27954 2821.49525
627.96918 3.00242 -818.28725 2823.49521
628.14367 3.00155 -816.29491 2825.49518
628.31747 3.00060 -814.30251 2827.49515
628.49036 2.99946 -812.31002 2829.49512
628.66220 2.99810 -810.31746 2831.49508
628.83301 2.99648 -808.32484 2833.49501
629.00286 2.99461 -806.33215 2835.49493
629.17168 2.99253 -804.33931 2837.49490
629.33938 2.99025 -802.34623 2839.49503
629.50605 2.98780 -800.35276 2841.49546
629.67190 2.98520 -798.35881 2843.49630
629.83727 2.98248 -796.36454 2845.49741
630.00275 2.97968 -794.37015 2847.49865
630.16897 2.97691 -792.37576 2849.49996
630.33586 2.97428 -790.38136 2851.50133
630.50090 2.97163 -788.38636 2853.50315
630.65621 2.96837 -786.38914 2855.50641
630.78680 2.96367 -784.38729 2857.51254
630.87262 2.95691 -782.37926 2859.52249
630.89251 2.94818 -780.36723 2861.53475
630.82726 2.93820 -778.35851 2863.54474
630.66136 2.92827 -776.36429 2865.54611
630.38855 2.91951 -774.39568 2867.53380
630.01897 2.91217 -772.45753 2869.50705
629.57294 2.90593 -770.54321 2871.47277
629.06223 2.90013 -768.63957 2873.44381
628.48068 2.89397 -766.74338 2875.42732
627.81361 2.88706 -764.86564 2877.42024
627.04941 2.87958 -763.02562 2879.41291
626.18491 2.87209 -761.24320 2881.39423
625.22441 2.86516 -759.53210 2883.35678
624.17272 2.85927 -757.89547 2885.30248
623.02875 2.85459 -756.32567 2887.24517
621.78882 2.85089 -754.81298 2889.20135
620.45476 2.84757 -753.35467 2891.17804
619.03589 2.84385 -751.95367 2893.17222
617.54771 2.83944 -750.61222 2895.17592
616.00766 2.83528 -749.32817 2897.18115
614.43025 2.83297 -748.09429 2899.18389
612.82097 2.83343 -746.90331 2901.18600
611.17569 2.83568 -745.75527 2903.19230
609.49233 2.83762 -744.65552 2905.20314
607.77610 2.83740 -743.60611 2907.21485
606.03793 2.83418 -742.59920 2909.22364
604.29127 2.82837 -741.61820 2911.22694
602.54624 2.82091 -740.64650 2913.22429
600.80557 2.81246 -739.67472 2915.21787
599.06669 2.80349 -738.70034 2917.21116
597.32708 2.79413 -737.72424 2919.20592
595.58604 2.78427 -736.74835 2921.20184
593.84367 2.77359 -735.77402 2923.19816
592.10034 2.76179 -734.80166 2925.19436
590.35639 2.74879 -733.83083 2927.19037
588.61186 2.73488 -732.86059 2929.18660
586.86650 2.72069 -731.88987 2931.18379
585.11990 2.70708 -730.91789 2933.18268
583.37219 2.69472 -729.94464 2935.18314
581.62391 2.68394 -728.97070 2937.18443
579.87542 2.67456 -727.99663 2939.18596
578.12685 2.66608 -727.02272 2941.18747
576.37827 2.65788 -726.04904 2943.18890
574.62969 2.64942 -725.07547 2945.19025
572.88114 2.64045 -724.10190 2947.19158
571.13262 2.63099 -723.12830 2949.19291
569.38414 2.62119 -722.15465 2951.19423
567.63572 2.61121 -721.18095 2953.19553
565.88734 2.60111 -720.20721 2955.19679
564.13898 2.59089 -719.23348 2957.19806
562.39051 2.58059 -718.25978 2959.19939
560.64173 2.57026 -717.28611 2961.20098
558.89236 2.55994 -716.31238 2963.20312
557.14220 2.54968 -715.33869 2965.20592
555.39121 2.53944 -714.36549 2967.20922
553.63925 2.52919 -713.39355 2969.21275
551.88612 2.51887 -712.42359 2971.21634
550.13158 2.50860 -711.45621 2973.21992
548.37549 2.49853 -710.49174 2975.22347
546.61794 2.48891 -709.52998 2977.22698
544.85937 2.47994 -708.57014 2979.23045
543.10050 2.47162 -707.61111 2981.23382
541.34197 2.46386 -706.65203 2983.23689
539.58409 2.45634 -705.69251 2985.23961
537.82647 2.44873 -704.73220 2987.24248
536.06851 2.44084 -703.77060 2989.24626
534.31042 2.43272 -702.80745 2991.25091
532.55265 2.42456 -701.84291 2993.25594
530.79546 2.41662 -700.87810 2995.26060
529.03838 2.40907 -699.91554 2997.26407
527.27992 2.40193 -698.95853 2999.26610
525.51860 2.39517 -698.00917 3001.26699
523.75457 2.38877 -697.06626 3003.26722
521.98922 2.38275 -696.12643 3005.26716
520.22362 2.37712 -695.18727 3007.26702
518.45812 2.37192 -694.24797 3009.26684
516.69285 2.36716 -693.30855 3011.26652
514.92830 2.36288 -692.36913 3013.26556
513.16558 2.35914 -691.42973 3015.26298
511.40602 2.35594 -690.49025 3017.25764
509.64913 2.35315 -689.55066 3019.25000
507.89095 2.35059 -688.61090 3021.24358
506.12963 2.34807 -687.67138 3023.23982
504.36633 2.34553 -686.73178 3025.23783
502.60307 2.34300 -685.79047 3027.23662
500.84135 2.34051 -684.84576 3029.23566
499.08145 2.33807 -683.89753 3031.23475
497.32288 2.33566 -682.94678 3033.23388
495.56507 2.33328 -681.99453 3035.23305
493.80759 2.33090 -681.04156 3037.23227
492.05017 2.32846 -680.08842 3039.23153
490.29272 2.32592 -679.13526 3041.23081
488.53536 2.32332 -678.18193 3043.23010
486.77828 2.32080 -677.22807 3045.22940
485.02173 2.31869 -676.27327 3047.22868
483.26586 2.31732 -675.31727 3049.22793
481.51071 2.31695 -674.35992 3051.22720
479.75631 2.31770 -673.40115 3053.22649
478.00265 2.31947 -672.44094 3055.22582
476.24973 2.32203 -671.47929 3057.22519
474.49752 2.32502 -670.51625 3059.22462
472.74600 2.32816 -669.55185 3061.22409
470.99517 2.33130 -668.58610 3063.22362
469.24505 2.33436 -667.61897 3065.22318
467.49567 2.33735 -666.65040 3067.22280
465.74704 2.34021 -665.68034 3069.22248
463.99919 2.34285 -664.70877 3071.22222
462.25209 2.34518 -663.73573 3073.22201
460.50574 2.34710 -662.76127 3075.22184
458.76007 2.34861 -661.78548 3077.22172
457.01501 2.34974 -660.80852 3079.22165
455.27041 2.35055 -659.83066 3081.22161
453.52610 2.35107 -658.85224 3083.22158
451.78195 2.35136 -657.87356 3085.22156
450.03784 2.35142 -656.89478 3087.22154
448.29374 2.35126 -655.91597 3089.22153
446.54963 2.35090 -654.93713 3091.22154
444.80552 2.35042 -653.95827 3093.22156
443.06128 2.34989 -652.97956 3095.22162
441.31666 2.34937 -652.00151 3097.22169
439.57122 2.34892 -651.02494 3099.22175
437.82461 2.34855 -650.05054 3101.22178
436.07693 2.34826 -649.07814 3103.22177
434.32866 2.34804 -648.10686 3105.22172
432.58022 2.34791 -647.13590 3107.22168
430.83189 2.34790 -646.16469 3109.22165
429.08382 2.34804 -645.19300 3111.22164
427.33603 2.34831 -644.22075 3113.22165
425.58849 2.34868 -643.24799 3115.22169
423.84120 2.34907 -642.27473 3117.22175
422.09427 2.34942 -641.30082 3119.22182
420.34794 2.34968 -640.32580 3121.22190
418.60259 2.34982 -639.34896 3123.22201
416.85838 2.34985 -638.37000 3125.22217
415.11497 2.34981 -637.38960 3127.22234
413.37180 2.34971 -636.40879 3129.22249
411.62847 2.34959 -635.42829 3131.22264
409.88482 2.34945 -634.44838 3133.22278
408.14084 2.34930 -633.46907 3135.22290
406.39659 2.34917 -632.49027 3137.22302
404.65214 2.34913 -631.51188 3139.22310
402.90757 2.34928 -630.53377 3141.22316
401.16291 2.34970 -629.55584 3143.22321
399.41811 2.35044 -628.57816 3145.22325
397.67296 2.35149 -627.60117 3147.22328
395.92711 2.35282 -626.62544 3149.22328
394.18043 2.35437 -625.65128 3151.22325
392.43311 2.35607 -624.67831 3153.22320
390.68549 2.35789 -623.70592 3155.22313
388.93781 2.35980 -622.73365 3157.22306
387.19018 2.36180 -621.76127 3159.22299
385.44264 2.36388 -620.78874 3161.22292
383.69521 2.36605 -619.81602 3163.22285
381.94792 2.36829 -618.84305 3165.22277
380.20084 2.37059 -617.86969 3167.22270
378.45407 2.37293 -616.89579 3169.22263
376.70768 2.37523 -615.92118 3171.22256
374.96176 2.37744 -614.94572 3173.22250
373.21633 2.37955 -613.96931 3175.22248
371.47142 2.38152 -612.99191 3177.22249
369.72702 2.38335 -612.01352 3179.22252
367.98312 2.38505 -611.03421 3181.22259
366.23961 2.38671 -610.05413 3183.22268
364.49637 2.38841 -609.07357 3185.22279
362.75322 2.39018 -608.09284 3187.22289
361.01007 2.39196 -607.11220 3189.22294
359.26687 2.39373 -606.13178 3191.22293
357.52357 2.39546 -605.15162 3193.22288
355.78014 2.39722 -604.17175 3195.22281
354.03659 2.39908 -603.19215 3197.22271
352.29290 2.40119 -602.21282 3199.22259
350.54911 2.40367 -601.23366 3201.22248
348.80530 2.40658 -600.25451 3203.22239
347.06154 2.40993 -599.27522 3205.22232
345.31786 2.41371 -598.29578 3207.22226
343.57424 2.41791 -597.31617 3209.22221
341.83070 2.42256 -596.33640 3211.22219
340.08727 2.42768 -595.35639 3213.22219
338.34399 2.43331 -594.37609 3215.22221
336.60089 2.43942 -593.39543 3217.22224
334.85802 2.44590 -592.41434 3219.22228
333.11539 2.45259 -591.43276 3221.22236
331.37301 2.45930 -590.45062 3223.22249
329.63092 2.46587 -589.46781 3225.22270
327.88938 2.47223 -588.48395 3227.22295
326.14907 2.47840 -587.49826 3229.22303
324.41122 2.48443 -586.50948 3231.22248
322.67732 2.49037 -585.51619 3233.22076
320.94829 2.49614 -584.51689 3235.21779
319.22411 2.50184 -583.51043 3237.21424
317.50433 2.50772 -582.49636 3239.21074
315.78868 2.51398 -581.47461 3241.20761
314.07708 2.52059 -580.44515 3243.20496
312.36964 2.52744 -579.40788 3245.20280
310.66646 2.53448 -578.36273 3247.20109
308.96765 2.54169 -577.30969 3249.19983
307.27322 2.54904 -576.24878 3251.19899
305.58325 2.55644 -575.17999 3253.19859
303.89781 2.56372 -574.10325 3255.19862
302.21695 2.57070 -573.01856 3257.19909
300.54047 2.57725 -571.92634 3259.19999
298.86764 2.58333 -570.82786 3261.20126
297.19713 2.58887 -569.72538 3263.20277
295.52756 2.59372 -568.62133 3265.20438
293.85819 2.59777 -567.51706 3267.20593
292.18925 2.60135 -566.41278 3269.20714
290.52155 2.60478 -565.30829 3271.20742
288.85589 2.60782 -564.20379 3273.20601
287.19227 2.61072 -563.09954 3275.20276
285.52959 2.61362 -561.99533 3277.19870
283.86675 2.61613 -560.89076 3279.19498
282.20326 2.61800 -559.78532 3281.19228
280.53945 2.61922 -558.67804 3283.19086
278.87636 2.61992 -557.56716 3285.19084
277.21553 2.62037 -556.45017 3287.19235
275.55856 2.62091 -555.32461 3289.19545
273.90730 2.62168 -554.18878 3291.19965
272.26344 2.62295 -553.04181 3293.20410
270.62779 2.62479 -551.88298 3295.20866
269.00087 2.62655 -550.71164 3297.21338
267.38338 2.62777 -549.52705 3299.21827
265.77600 2.62825 -548.32875 3301.22317
264.17900 2.62757 -547.11708 3303.22781
262.59213 2.62528 -545.89311 3305.23187
261.01436 2.62158 -544.65877 3307.23512
259.44340 2.61700 -543.41705 3309.23757
257.87625 2.61194 -542.17160 3311.23934
256.31086 2.60634 -540.92492 3313.24052
254.74643 2.59989 -539.67777 3315.24124
253.18291 2.59233 -538.42995 3317.24166
251.62056 2.58360 -537.18077 3319.24203
250.05977 2.57375 -535.92953 3321.24247
248.50105 2.56290 -534.67554 3323.24303
246.94505 2.55109 -533.41800 3325.24369
245.39265 2.53832 -532.15593 3327.24443
243.84462 2.52438 -530.88841 3329.24524
242.30149 2.50891 -529.61482 3331.24611
240.76363 2.49155 -528.33483 3333.24704
239.23107 2.47249 -527.04842 3335.24802
237.70337 2.45243 -525.75625 3337.24902
236.17947 2.43184 -524.45964 3339.24999
234.65809 2.41035 -523.16021 3341.25089
233.13831 2.38761 -521.85911 3343.25166
231.61954 2.36349 -520.55710 3345.25228
230.10131 2.33819 -519.25471 3347.25276
228.58323 2.31188 -517.95232 3349.25313
227.06507 2.28476 -516.65004 3351.25350
225.54670 2.25688 -515.34780 3353.25401
224.02811 2.22810 -514.04553 3355.25472
222.50941 2.19821 -512.74325 3357.25554
220.99074 2.16699 -511.44096 3359.25636
219.47224 2.13442 -510.13864 3361.25710
217.95389 2.10056 -508.83630 3363.25775
216.43554 2.06560 -507.53415 3365.25830
214.91701 2.02969 -506.23234 3367.25879
213.39836 1.99292 -504.93082 3369.25919
211.87973 1.95530 -503.62944 3371.25950
210.36120 1.91680 -502.32810 3373.25972
208.84284 1.87740 -501.02673 3375.25986
207.32469 1.83712 -499.72526 3377.25991
205.80681 1.79604 -498.42365 3379.25987
204.28924 1.75423 -497.12188 3381.25971
202.77199 1.71177 -495.81996 3383.25942
201.25505 1.66868 -494.51783 3385.25905
199.73835 1.62496 -493.21543 3387.25868
198.22183 1.58056 -491.91266 3389.25844
196.70551 1.53543 -490.60945 3391.25834
195.18967 1.48949 -489.30578 3393.25820
193.67453 1.44267 -488.00156 3395.25791
192.16000 1.39490 -486.69680 3397.25753
190.64581 1.34622 -485.39178 3399.25709
189.13180 1.29681 -484.08666 3401.25659
187.61813 1.24694 -482.78126 3403.25603
186.10543 1.19694 -481.47482 3405.25541
184.59467 1.14707 -480.16615 3407.25479
183.08650 1.09740 -478.85443 3409.25420
181.58059 1.04789 -477.54003 3411.25367
180.07589 0.99841 -476.22409 3413.25324
178.57154 0.94873 -474.90760 3415.25290
177.06711 0.89866 -473.59107 3417.25267
175.56248 0.84802 -472.27465 3419.25253
174.05766 0.79677 -470.95829 3421.25251
172.55275 0.74498 -469.64193 3423.25257
171.04781 0.69284 -468.32549 3425.25271
169.54284 0.64058 -467.00895 3427.25295
168.03785 0.58842 -465.69229 3429.25328
166.53286 0.53653 -464.37550 3431.25368
165.02782 0.48500 -463.05856 3433.25422
163.52264 0.43372 -461.74144 3435.25497
162.01735 0.38258 -460.42423 3437.25585
160.51199 0.33147 -459.10704 3439.25678
159.00659 0.28037 -457.78991 3441.25769
157.50112 0.22928 -456.47293 3443.25857
155.99545 0.17821 -455.15624 3445.25940
154.48941 0.12715 -453.84011 3447.26014
152.98283 0.07612 -452.52475 3449.26078
151.47574 0.02517 -451.21013 3451.26132
149.96813 -0.02568 -449.89619 3453.26179
148.45990 -0.07638 -448.58310 3455.26218
146.95083 -0.12691 -447.27111 3457.26247
145.44086 -0.17720 -445.96032 3459.26264
143.92983 -0.22720 -444.65091 3461.26271
142.41747 -0.27685 -443.34322 3463.26265
140.90372 -0.32617 -442.03733 3465.26246
139.38891 -0.37518 -440.73289 3467.26211
137.87357 -0.42391 -439.42933 3469.26158
136.35819 -0.47238 -438.12624 3471.26077
134.84298 -0.52058 -436.82341 3473.25966
133.32790 -0.56848 -435.52068 3475.25838
131.81282 -0.61606 -434.21786 3477.25715
130.29768 -0.66331 -432.91488 3479.25606
128.78248 -0.71031 -431.61168 3481.25515
127.26720 -0.75724 -430.30829 3483.25443
125.75185 -0.80438 -429.00471 3485.25388
124.23642 -0.85203 -427.70095 3487.25353
122.72091 -0.90039 -426.39704 3489.25335
121.20532 -0.94944 -425.09295 3491.25337
119.68966 -0.99892 -423.78867 3493.25357
118.17401 -1.04836 -422.48415 3495.25393
116.65841 -1.09729 -421.17933 3497.25442
115.14290 -1.14536 -419.87414 3499.25508
113.62746 -1.19250 -418.56858 3501.25589
112.11203 -1.23886 -417.26276 3503.25686
110.59653 -1.28475 -415.95675 3505.25797
109.08099 -1.33053 -414.65063 3507.25920
107.56549 -1.37642 -413.34442 3509.26046
106.05018 -1.42252 -412.03818 3511.26160
104.53529 -1.46874 -410.73199 3513.26239
103.02103 -1.51491 -409.42567 3515.26279
101.50759 -1.56086 -408.11888 3517.26287
99.99498 -1.60650 -406.81142 3519.26274
98.48302 -1.65178 -405.50337 3521.26251
96.97151 -1.69671 -404.19484 3523.26224
95.46054 -1.74124 -402.88574 3525.26194
93.95034 -1.78535 -401.57579 3527.26159
92.44126 -1.82912 -400.26461 3529.26120
90.93363 -1.87268 -398.95183 3531.26076
89.42788 -1.91614 -397.63695 3533.26028
87.92446 -1.95947 -396.31945 3535.25977
86.42377 -2.00239 -394.99883 3537.25925
84.92606 -2.04446 -393.67478 3539.25876
83.43132 -2.08521 -392.34729 3541.25829
81.93920 -2.12409 -391.01672 3543.25788
80.44891 -2.16079 -389.68395 3545.25753
78.95954 -2.19510 -388.35002 3547.25722
77.47044 -2.22722 -387.01568 3549.25695
75.98129 -2.25754 -385.68130 3551.25671
74.49197 -2.28657 -384.34704 3553.25650
73.00245 -2.31472 -383.01293 3555.25633
71.51275 -2.34220 -381.67894 3557.25621
70.02291 -2.36899 -380.34501 3559.25613
68.53295 -2.39487 -379.01109 3561.25612
67.04294 -2.41952 -377.67714 3563.25617
65.55289 -2.44271 -376.34314 3565.25626
64.06284 -2.46424 -375.00909 3567.25636
62.57279 -2.48416 -373.67499 3569.25648
61.08273 -2.50256 -372.34087 3571.25659
59.59261 -2.51973 -371.00674 3573.25676
58.10226 -2.53592 -369.67254 3575.25714
56.61157 -2.55137 -368.33825 3577.25782
55.12068 -2.56619 -367.00397 3579.25864
53.62976 -2.58038 -365.66982 3581.25939
52.13891 -2.59377 -364.33575 3583.26003
50.64817 -2.60617 -363.00171 3585.26055
49.15748 -2.61737 -361.66774 3587.26100
47.66662 -2.62730 -360.33408 3589.26135
46.17514 -2.63593 -359.00128 3591.26159
44.68238 -2.64337 -357.67009 3593.26170
43.18767 -2.64968 -356.34126 3595.26169
41.69063 -2.65495 -355.01523 3597.26157
40.19112 -2.65913 -353.69210 3599.26138
38.68917 -2.66220 -352.37178 3601.26115
37.18504 -2.66404 -351.05399 3603.26090
35.67927 -2.66462 -349.73806 3605.26065
34.17269 -2.66390 -348.42304 3607.26042
32.66590 -2.66197 -347.10821 3609.26022
31.15912 -2.65889 -345.79332 3611.26006
29.65234 -2.65475 -344.47839 3613.25991
28.14550 -2.64955 -343.16354 3615.25977
26.63849 -2.64327 -341.84885 3617.25965
25.13127 -2.63582 -340.53436 3619.25956
23.62383 -2.62720 -339.22006 3621.25952
22.11620 -2.61734 -337.90593 3623.25952
20.60842 -2.60629 -336.59191 3625.25956
19.10055 -2.59405 -335.27797 3627.25963
17.59266 -2.58066 -333.96402 3629.25972
16.08483 -2.56611 -332.64995 3631.25986
14.57722 -2.55047 -331.33561 3633.26001
13.07001 -2.53379 -330.02079 3635.26019
11.56344 -2.51610 -328.70523 3637.26038
10.05783 -2.49733 -327.38861 3639.26056
8.55346 -2.47751 -326.07059 3641.26073
7.05056 -2.45666 -324.75098 3643.26086
5.54950 -2.43487 -323.42944 3645.26089
4.05106 -2.41216 -322.10521 3647.26075
2.55633 -2.38860 -320.77706 3649.26044
1.06597 -2.36428 -319.44424 3651.25998
-0.42094 -2.33923 -318.10771 3653.25944
-1.90610 -2.31305 -316.76932 3655.25886
-3.39073 -2.28537 -315.43034 3657.25830
-4.87536 -2.25601 -314.09133 3659.25778
-6.36028 -2.22504 -312.75260 3661.25732
-7.84607 -2.19272 -311.41476 3663.25693
-9.33372 -2.15954 -310.07887 3665.25663
-10.82426 -2.12611 -308.74603 3667.25645
-12.31783 -2.09297 -307.41644 3669.25637
-13.81325 -2.06041 -306.08880 3671.25636
-15.30920 -2.02844 -304.76171 3673.25637
-16.80504 -1.99684 -303.43448 3675.25639
-18.30061 -1.96532 -302.10696 3677.25640
-19.79593 -1.93354 -300.77917 3679.25641
-21.29107 -1.90124 -299.45118 3681.25642
-22.78609 -1.86828 -298.12303 3683.25646
-24.28102 -1.83464 -296.79478 3685.25650
-25.77587 -1.80049 -295.46649 3687.25653
-27.27068 -1.76612 -294.13818 3689.25654
-28.76549 -1.73183 -292.80989 3691.25654
-30.26039 -1.69780 -291.48169 3693.25654
-31.75557 -1.66410 -290.15374 3695.25657
-33.25127 -1.63066 -288.82635 3697.25663
-34.74773 -1.59735 -287.49978 3699.25670
-36.24501 -1.56409 -286.17408 3701.25680
-37.74307 -1.53079 -284.84924 3703.25693
-39.24183 -1.49743 -283.52516 3705.25707
-40.74114 -1.46402 -282.20170 3707.25722
-42.24078 -1.43051 -280.87859 3709.25739
-43.74055 -1.39686 -279.55562 3711.25756
-45.24033 -1.36295 -278.23266 3713.25774
-46.74007 -1.32866 -276.90968 3715.25791
-48.23979 -1.29392 -275.58668 3717.25809
-49.73956 -1.25874 -274.26373 3719.25827
-51.23953 -1.22324 -272.94100 3721.25846
-52.73992 -1.18764 -271.61870 3723.25870
-54.24092 -1.15216 -270.29697 3725.25900
-55.74260 -1.11701 -268.97587 3727.25940
-57.24487 -1.08225 -267.65529 3729.25988
-58.74750 -1.04784 -266.33504 3731.26042
-60.25028 -1.01365 -265.01492 3733.26098
-61.75305 -0.97953 -263.69481 3735.26152
-63.25573 -0.94532 -262.37464 3737.26204
-64.75830 -0.91094 -261.05439 3739.26253
-66.26076 -0.87634 -259.73405 3741.26300
-67.76310 -0.84158 -258.41364 3743.26343
-69.26531 -0.80680 -257.09313 3745.26382
-70.76738 -0.77218 -255.77251 3747.26419
-72.26930 -0.73785 -254.45175 3749.26452
-73.77106 -0.70389 -253.13087 3751.26481
-75.27269 -0.67034 -251.80988 3753.26507
-76.77419 -0.63722 -250.48878 3755.26530
-78.27560 -0.60458 -249.16763 3757.26548
-79.77705 -0.57248 -247.84656 3759.26563
-81.27889 -0.54100 -246.52597 3761.26576
-82.78169 -0.51017 -245.20648 3763.26585
-84.28596 -0.47999 -243.88872 3765.26591
-85.79191 -0.45042 -242.57299 3767.26589
-87.29956 -0.42142 -241.25936 3769.26576
-88.80884 -0.39294 -239.94780 3771.26549
-90.31958 -0.36494 -238.63812 3773.26509
-91.83144 -0.33742 -237.32991 3775.26456
-93.34392 -0.31036 -236.02261 3777.26390
-94.85661 -0.28375 -234.71573 3779.26312
-96.36928 -0.25751 -233.40894 3781.26225
-97.88176 -0.23154 -232.10207 3783.26130
-99.39403 -0.20576 -230.79506 3785.26027
-100.90605 -0.18015 -229.48789 3787.25916
-102.41782 -0.15475 -228.18055 3789.25797
-103.92930 -0.12970 -226.87299 3791.25670
-105.44047 -0.10518 -225.56521 3793.25533
-106.95137 -0.08139 -224.25725 3795.25386
-108.46209 -0.05845 -222.94917 3797.25233
-109.97287 -0.03631 -221.64105 3799.25086
-111.48394 -0.01475 -220.33284 3801.24966
-112.99521 0.00650 -219.02439 3803.24878
-114.50619 0.02732 -217.71532 3805.24806
-116.01634 0.04722 -216.40517 3807.24743
-117.52560 0.06614 -215.09390 3809.24684
-119.03442 0.08463 -213.78208 3811.24628
-120.54326 0.10317 -212.47025 3813.24573
-122.05227 0.12197 -211.15861 3815.24520
-123.56136 0.14101 -209.84706 3817.24467
-125.07039 0.16046 -208.53544 3819.24414
-126.57905 0.18046 -207.22335 3821.24365
-128.08645 0.20069 -205.90965 3823.24327
-129.59100 0.22061 -204.59231 3825.24314
-131.09083 0.23947 -203.26898 3827.24340
-132.58514 0.25678 -201.93867 3829.24415
-134.07516 0.27267 -200.60292 3831.24531
-135.56322 0.28797 -199.26469 3833.24666
-137.05098 0.30365 -197.92610 3835.24804
-138.53889 0.31972 -196.58772 3837.24938
-140.02696 0.33570 -195.24958 3839.25069
-141.51549 0.35126 -193.91204 3841.25193
-143.00498 0.36624 -192.57574 3843.25306
-144.49610 0.38069 -191.24150 3845.25402
-145.98973 0.39475 -189.91045 3847.25473
-147.48664 0.40860 -188.58355 3849.25512
-148.98699 0.42237 -187.26104 3851.25519
-150.49029 0.43611 -185.94229 3853.25499
-151.99560 0.44977 -184.62606 3855.25465
-153.50247 0.46333 -183.31145 3857.25441
-155.01143 0.47686 -181.99854 3859.25463
-156.52324 0.49049 -180.68799 3861.25545
-158.03762 0.50436 -179.37990 3863.25661
-159.55370 0.51848 -178.07375 3865.25779
-161.07095 0.53282 -176.76908 3867.25889
-162.58902 0.54718 -175.46556 3869.25987
-164.10757 0.56127 -174.16276 3871.26074
-165.62632 0.57479 -172.86030 3873.26154
-167.14518 0.58752 -171.55805 3875.26228
-168.66429 0.59942 -170.25611 3877.26300
-170.18392 0.61048 -168.95479 3879.26371
-171.70423 0.62082 -167.65427 3881.26440
-173.22525 0.63049 -166.35461 3883.26508
-174.74692 0.63951 -165.05587 3885.26565
-176.26868 0.64783 -163.75767 3887.26594
-177.78960 0.65543 -162.45916 3889.26579
-179.30911 0.66229 -161.15969 3891.26518
-180.82710 0.66846 -159.85898 3893.26422
-182.34371 0.67390 -158.55705 3895.26302
-183.85912 0.67859 -157.25400 3897.26163
-185.37343 0.68251 -155.94993 3899.26006
-186.88674 0.68573 -154.64493 3901.25835
-188.39919 0.68837 -153.33896 3903.25661
-189.91094 0.69066 -152.03179 3905.25513
-191.42206 0.69276 -150.72278 3907.25438
-192.93197 0.69477 -149.41083 3909.25464
-194.43918 0.69672 -148.09445 3911.25577
-195.94194 0.69856 -146.77213 3913.25749
-197.43932 0.70026 -145.44315 3915.25957
-198.93140 0.70179 -144.10799 3917.26180
-200.41868 0.70313 -142.76775 3919.26387
-201.90128 0.70425 -141.42306 3921.26544
-203.37906 0.70514 -140.07397 3923.26641
-204.85255 0.70576 -138.72003 3925.26750
-206.32259 0.70611 -137.36071 3927.26968
-207.78952 0.70618 -135.99580 3929.27341
-209.25272 0.70588 -134.62493 3931.27846
-210.70857 0.70486 -133.24566 3933.28392
-212.15014 0.70286 -131.85238 3935.28877
-213.56949 0.69936 -130.43851 3937.29219
-214.95565 0.69340 -128.99728 3939.29191
-216.29397 0.68391 -127.52269 3941.28337
-217.56755 0.67030 -126.01049 3943.26062
-218.76154 0.65257 -124.45742 3945.21987
-219.87091 0.63188 -122.85840 3947.16635
-220.89801 0.61033 -121.20701 3949.11142
-221.83838 0.59018 -119.50152 3951.05933
-222.67781 0.57314 -117.74392 3953.00749
-223.40123 0.55985 -115.93664 3954.95458
-224.00089 0.54992 -114.08279 3956.90341
-224.47286 0.54263 -112.18956 3958.85498
-224.81437 0.53735 -110.26613 3960.80888
-225.02954 0.53397 -108.31687 3962.77030
-225.13399 0.53248 -106.34148 3964.74866
-225.15377 0.53299 -104.34654 3966.74379
-225.11984 0.53528 -102.34263 3968.74803
-225.05591 0.53869 -100.33741 3970.75429
-224.97090 0.54230 -98.33446 3972.75905
-224.86168 0.54542 -96.33488 3974.76163
-224.72189 0.54767 -94.33860 3976.76282
-224.54907 0.54891 -92.34482 3978.76410
-224.34597 0.54893 -90.35289 3980.76638
-224.11946 0.54747 -88.36238 3982.76974
-223.87874 0.54429 -86.37304 3984.77359
-223.63181 0.53930 -84.38483 3986.77708
-223.38364 0.53247 -82.39829 3988.77908
-223.13770 0.52385 -80.41407 3990.77850
-222.89781 0.51338 -78.43170 3992.77536
-222.66747 0.50101 -76.44973 3994.77072
-222.44825 0.48662 -74.46716 3996.76542
-222.24133 0.47028 -72.48369 3998.75972
-222.05064 0.45223 -70.49922 4000.75342
-221.88229 0.43297 -68.51362 4002.74625
-221.74022 0.41294 -66.52668 4004.73838
-221.62434 0.39242 -64.53811 4006.73045
-221.53422 0.37155 -62.54761 4008.72311
-221.47132 0.35055 -60.55508 4010.71676
-221.43719 0.32990 -58.56094 4012.71132
-221.43295 0.31028 -56.56609 4014.70629
-221.46121 0.29251 -54.57171 4016.70097
-221.52637 0.27712 -52.57910 4018.69474
-221.63244 0.26432 -50.58934 4020.68740
-221.78147 0.25379 -48.60292 4022.67947
-221.97367 0.24489 -46.61960 4024.67214
-222.20861 0.23692 -44.63962 4026.66607
-222.48678 0.22935 -42.66476 4028.66048
-222.80843 0.22210 -40.69786 4030.65355
-223.16995 0.21540 -38.74139 4032.64319
-223.56648 0.20936 -36.79643 4034.62819
-223.99701 0.20337 -34.86243 4036.60958
-224.46453 0.19662 -32.93697 4038.59102
-224.97165 0.18817 -31.01787 4040.57604
-225.51755 0.17757 -29.10518 4042.56518
-226.09897 0.16510 -27.19962 4044.55752
-226.71433 0.15126 -25.30249 4046.55203
-227.36666 0.13675 -23.41628 4048.54795
-228.05882 0.12232 -21.54376 4050.54438
-228.78814 0.10864 -19.68668 4052.53962
-229.54692 0.09613 -17.84509 4054.53146
-230.32685 0.08484 -16.01612 4056.51982
-231.12401 0.07447 -14.19525 4058.50758
-231.93950 0.06464 -12.38047 4060.49719
-232.77755 0.05509 -10.57309 4062.48946
-233.64433 0.04590 -8.77700 4064.48381
-234.54583 0.03741 -6.99744 4066.47873
-235.48295 0.02955 -5.23831 4068.47196
-236.45005 0.02187 -3.50010 4070.46113
-237.44051 0.01347 -1.77946 4072.44651
-238.45378 0.00343 -0.07184 4074.43217
-239.49674 -0.00868 1.62240 4076.42176
-240.58089 -0.02298 3.29678 4078.41660
-241.71521 -0.03932 4.94339 4080.41624
-242.89935 -0.05704 6.55842 4082.41902
-244.12522 -0.07519 8.14271 4084.42232
-245.38381 -0.09329 9.69885 4086.42384
-246.66947 -0.11117 11.22992 4088.42322
-247.98088 -0.12885 12.73889 4090.42252
-249.31849 -0.14632 14.22682 4092.42340
-250.68203 -0.16344 15.69256 4094.42541
-252.06995 -0.17989 17.13408 4096.42657
-253.47952 -0.19536 18.55011 4098.42466
-254.90755 -0.20968 19.94167 4100.41865
-256.35212 -0.22278 21.31247 4102.41016
-257.81427 -0.23448 22.66696 4104.40332
-259.29651 -0.24441 24.00599 4106.40087
-260.80065 -0.25230 25.32558 4108.40184
-262.32846 -0.25827 26.61976 4110.40416
-263.87993 -0.26224 27.88496 4112.40613
-265.45182 -0.26420 29.12189 4114.40637
-267.03988 -0.26447 30.33250 4116.40326
-268.64022 -0.26341 31.51854 4118.39520
-270.24929 -0.26093 32.68349 4120.38171
-271.86534 -0.25739 33.83411 4122.36554
-273.48700 -0.25293 34.97876 4124.35049
-275.10925 -0.24768 36.12772 4126.33841
-276.72076 -0.24195 37.29524 4128.32844
-278.30197 -0.23643 38.50041 4130.31667
-279.82511 -0.23172 39.76591 4132.29716
-281.26170 -0.22802 41.11286 4134.26681
-282.59699 -0.22543 42.55551 4136.23301
-283.83577 -0.22441 44.09823 4138.21190
-284.98838 -0.22603 45.73118 4140.21093
-286.06064 -0.23129 47.43525 4142.22450
-287.05286 -0.24039 49.19149 4144.24183
-287.96821 -0.25258 50.98412 4146.25481
-288.81412 -0.26655 52.80521 4148.26294
-289.59514 -0.28091 54.65636 4150.27226
-290.31030 -0.29461 56.53996 4152.28722
-290.95575 -0.30687 58.45365 4154.30698
-291.53100 -0.31829 60.38995 4156.32705
-292.04457 -0.32987 62.33899 4158.34272
-292.51100 -0.34175 64.29356 4160.35224
-292.94287 -0.35363 66.25228 4162.35806
-293.34768 -0.36552 68.21573 4164.36286
-293.73077 -0.37767 70.18239 4166.36652
-294.09631 -0.39046 72.14979 4168.36764
-294.44613 -0.40434 74.11629 4170.36506
-294.78050 -0.41847 76.08166 4172.35873
-295.09947 -0.43252 78.04750 4174.35033
-295.40494 -0.44577 80.01748 4176.34390
-295.70089 -0.45798 81.99529 4178.34378
-295.99122 -0.46966 83.98029 4180.34993
-296.27830 -0.48123 85.96915 4182.35944
-296.56282 -0.49301 87.95942 4184.36997
-296.84428 -0.50491 89.95000 4186.38039
-297.12177 -0.51685 91.94050 4188.39018
-297.39493 -0.52870 93.93026 4190.39863
-297.66478 -0.54038 95.91799 4192.40463
-297.93293 -0.55149 97.90280 4194.40750
-298.20042 -0.56160 99.88539 4196.40808
-298.46732 -0.57044 101.86711 4198.40771
-298.73306 -0.57826 103.84885 4200.40720
-298.99682 -0.58588 105.83100 4202.40684
-299.25800 -0.59429 107.81366 4204.40665
-299.51688 -0.60433 109.79672 4206.40656
-299.77419 -0.61655 111.78008 4208.40658
-300.03058 -0.63081 113.76380 4210.40685
-300.28634 -0.64642 115.74793 4212.40745
-300.54150 -0.66237 117.73233 4214.40826
-300.79580 -0.67760 119.71689 4216.40910
-301.04895 -0.69131 121.70159 4218.40993
-301.30069 -0.70315 123.68646 4220.41074
-301.55089 -0.71326 125.67154 4222.41155
-301.79951 -0.72211 127.65679 4224.41232
-302.04662 -0.73031 129.64212 4226.41299
-302.29249 -0.73832 131.62741 4228.41346
-302.53739 -0.74651 133.61255 4230.41367
-302.78168 -0.75517 135.59749 4232.41361
-303.02605 -0.76465 137.58231 4234.41343
-303.27158 -0.77531 139.56692 4236.41321
-303.51941 -0.78710 141.55126 4238.41299
-303.76992 -0.79985 143.53537 4240.41289
-304.02260 -0.81289 145.51940 4242.41299
-304.27645 -0.82576 147.50349 4244.41329
-304.53045 -0.83815 149.48773 4246.41376
-304.78360 -0.85003 151.47221 4248.41436
-305.03482 -0.86147 153.45702 4250.41504
-305.28292 -0.87256 155.44229 4252.41579
-305.52670 -0.88333 157.42813 4254.41657
-305.76524 -0.89387 159.41467 4256.41740
-305.99835 -0.90436 161.40186 4258.41824
-306.22663 -0.91496 163.38954 4260.41902
-306.45104 -0.92584 165.37751 4262.41964
-306.67236 -0.93707 167.36556 4264.42001
-306.89096 -0.94866 169.35361 4266.42007
-307.10701 -0.96053 171.34172 4268.41993
-307.32060 -0.97259 173.33001 4270.41969
-307.53184 -0.98478 175.31855 4272.41945
-307.74077 -0.99704 177.30733 4274.41922
-307.94741 -1.00933 179.29636 4276.41899
-308.15175 -1.02168 181.28566 4278.41880
-308.35377 -1.03410 183.27525 4280.41865
-308.55347 -1.04662 185.26508 4282.41852
-308.75104 -1.05925 187.25515 4284.41842
-308.94702 -1.07201 189.24542 4286.41835
-309.14221 -1.08487 191.23582 4288.41834
-309.33721 -1.09777 193.22630 4290.41839
-309.53242 -1.11063 195.21678 4292.41847
-309.72831 -1.12331 197.20722 4294.41856
-309.92534 -1.13569 199.19754 4296.41865
-310.12362 -1.14769 201.18776 4298.41875
-310.32276 -1.15932 203.17792 4300.41889
-310.52225 -1.17064 205.16809 4302.41906
-310.72181 -1.18172 207.15828 4304.41926
-310.92143 -1.19264 209.14848 4306.41948
-311.12118 -1.20344 211.13870 4308.41973
-311.32123 -1.21416 213.12892 4310.42000
-311.52210 -1.22480 215.11908 4312.42030
-311.72459 -1.23536 217.10907 4314.42059
-311.92943 -1.24583 219.09878 4316.42085
-312.13698 -1.25616 221.08812 4318.42101
-312.34724 -1.26631 223.07704 4320.42104
-312.55988 -1.27626 225.06565 4322.42101
-312.77425 -1.28611 227.05404 4324.42095
-312.98951 -1.29607 229.04235 4326.42090
-313.20496 -1.30650 231.03069 4328.42091
-313.42017 -1.31778 233.01910 4330.42096
-313.63499 -1.33021 235.00755 4332.42103
-313.84945 -1.34384 236.99603 4334.42108
-314.06352 -1.35843 238.98455 4336.42114
-314.27716 -1.37351 240.97313 4338.42122
-314.49024 -1.38858 242.96176 4340.42130
-314.70269 -1.40318 244.95049 4342.42139
-314.91453 -1.41710 246.93931 4344.42151
-315.12590 -1.43033 248.92818 4346.42162
-315.33700 -1.44301 250.91708 4348.42174
-315.54798 -1.45529 252.90600 4350.42186
-315.75890 -1.46729 254.89492 4352.42197
-315.96980 -1.47906 256.88384 4354.42207
-316.18075 -1.49066 258.87275 4356.42217
-316.39181 -1.50211 260.86169 4358.42231
-316.60303 -1.51349 262.85064 4360.42248
-316.81420 -1.52491 264.83960 4362.42264
-317.02463 -1.53644 266.82862 4364.42280
-317.23304 -1.54816 268.81786 4366.42296
-317.43809 -1.56010 270.80746 4368.42313
-317.63935 -1.57225 272.79746 4370.42333
-317.83774 -1.58457 274.78779 4372.42355
-318.03479 -1.59702 276.77827 4374.42380
-318.23160 -1.60955 278.76879 4376.42407
-318.42861 -1.62215 280.75930 4378.42434
-318.62587 -1.63486 282.74977 4380.42461
-318.82327 -1.64775 284.74020 4382.42484
-319.02073 -1.66095 286.73060 4384.42505
-319.21821 -1.67460 288.72097 4386.42525
-319.41570 -1.68878 290.71135 4388.42545
-319.61320 -1.70347 292.70174 4390.42567
-319.81072 -1.71848 294.69209 4392.42585
-320.00825 -1.73349 296.68241 4394.42600
-320.20579 -1.74814 298.67269 4396.42612
-320.40335 -1.76213 300.66296 4398.42622
-320.60105 -1.77536 302.65323 4400.42632
-320.79913 -1.78792 304.64347 4402.42644
-320.99794 -1.80014 306.63365 4404.42656
-321.19763 -1.81243 308.62373 4406.42667
-321.39815 -1.82522 310.61371 4408.42677
-321.59983 -1.83878 312.60355 4410.42685
-321.80338 -1.85317 314.59321 4412.42695
-322.00887 -1.86827 316.58265 4414.42703
-322.21536 -1.88383 318.57198 4416.42711
-322.42205 -1.89959 320.56130 4418.42720
-322.62858 -1.91531 322.55064 4420.42729
-322.83491 -1.93087 324.54001 4422.42739
-323.04107 -1.94621 326.52939 4424.42748
-323.24714 -1.96135 328.51877 4426.42757
-323.45319 -1.97632 330.50819 4428.42769
-323.65923 -1.99112 332.49763 4430.42782
-323.86527 -2.00575 334.48704 4432.42792
-324.07131 -2.02020 336.47642 4434.42800
-324.27737 -2.03445 338.46578 4436.42806
-324.48345 -2.04849 340.45509 4438.42806
-324.68957 -2.06228 342.44436 4440.42803
-324.89571 -2.07578 344.43359 4442.42796
-325.10190 -2.08894 346.42281 4444.42788
-325.30811 -2.10175 348.41203 4446.42779
-325.51437 -2.11429 350.40125 4448.42772
-325.72068 -2.12671 352.39047 4450.42765
-325.92704 -2.13923 354.37968 4452.42757
-326.13347 -2.15206 356.36887 4454.42749
-326.33997 -2.16533 358.35808 4456.42743
-326.54653 -2.17901 360.34728 4458.42737
-326.75313 -2.19295 362.33646 4460.42730
-326.95974 -2.20689 364.32562 4462.42722
-327.16636 -2.22050 366.31479 4464.42713
-327.37298 -2.23354 368.30396 4466.42705
-327.57961 -2.24587 370.29314 4468.42697
-327.78624 -2.25748 372.28233 4470.42690
-327.99286 -2.26853 374.27153 4472.42683
-328.19939 -2.27924 376.26075 4474.42676
-328.40571 -2.28987 378.24997 4476.42669
-328.61173 -2.30064 380.23919 4478.42658
-328.81751 -2.31164 382.22842 4480.42645
-329.02340 -2.32288 384.21765 4482.42634
-329.23003 -2.33428 386.20685 4484.42628
-329.43809 -2.34574 388.19597 4486.42628
-329.64812 -2.35712 390.18492 4488.42632
-329.86034 -2.36831 392.17365 4490.42637
-330.07451 -2.37926 394.16218 4492.42644
-330.29002 -2.38996 396.15058 4494.42651
-330.50628 -2.40047 398.13889 4496.42657
-330.72289 -2.41093 400.12715 4498.42662
-330.93948 -2.42145 402.11542 4500.42668
-331.15541 -2.43216 404.10377 4502.42675
-331.36959 -2.44310 406.09232 4504.42683
-331.58041 -2.45428 408.08125 4506.42694
-331.78615 -2.46566 410.07074 4508.42707
-331.98633 -2.47715 412.06085 4510.42726
-332.18286 -2.48873 414.05137 4512.42748
-332.37872 -2.50035 416.04195 4514.42771
-332.57603 -2.51198 418.03235 4516.42791
-332.77596 -2.52358 420.02247 4518.42808
-332.97890 -2.53507 422.01226 4520.42822
-333.18420 -2.54638 424.00179 4522.42835
-333.39054 -2.55743 425.99121 4524.42847
-333.59675 -2.56820 427.98064 4526.42859
