VERSION 0.7
FIELDS x y z lapdistance
SIZE 4 4 4 4
TYPE F F F F
COUNT 1 1 1 1
WIDTH 1180
HEIGHT 1
VIEWPOINT 0.525 -0.474 -0.478 -0.521 -622.177 -3.287 601.922
POINTS 1180
DATA ascii
471.19102 4.28810 -1064.39113 2448.00000
473.08207 4.27462 -1065.04497 2450.00000
474.97161 4.26072 -1065.69980 2452.00000
476.85820 4.24636 -1066.35514 2454.00000
478.74109 4.23151 -1067.01025 2456.00000
480.62156 4.21594 -1067.66440 2458.00000
482.50163 4.19925 -1068.31650 2460.00000
484.38277 4.18092 -1068.96526 2462.00000
486.26552 4.16054 -1069.61000 2464.00000
488.14980 4.13789 -1070.25045 2466.00000
490.03503 4.11319 -1070.88632 2468.00000
491.92028 4.08693 -1071.51712 2470.00000
493.80492 4.05976 -1072.14233 2472.00000
495.68973 4.03209 -1072.76150 2474.00000
497.57632 4.00394 -1073.37371 2476.00000
499.46613 3.97534 -1073.97733 2478.00000
501.35982 3.94697 -1074.57043 2480.00000
503.25638 3.92056 -1075.15084 2482.00000
505.15187 3.89868 -1075.71610 2484.00000
507.03902 3.88427 -1076.26387 2486.00000
508.91214 3.87888 -1076.79333 2488.00000
510.77479 3.88273 -1077.30621 2490.00000
512.63411 3.89378 -1077.80418 2492.00000
514.49448 3.90863 -1078.28594 2494.00000
516.35721 3.92304 -1078.74707 2496.00000
518.22162 3.93241 -1079.18234 2498.00000
520.08666 3.93338 -1079.58767 2500.00000
521.95320 3.92445 -1079.95984 2502.00000
523.82354 3.90598 -1080.29554 2504.00000
525.69830 3.88120 -1080.59120 2506.00000
527.57624 3.85419 -1080.84368 2508.00000
529.45630 3.82881 -1081.04835 2510.00000
531.33932 3.80761 -1081.19772 2512.00000
533.22701 3.79066 -1081.28197 2514.00000
535.11792 3.77678 -1081.29411 2516.00000
537.00749 3.76447 -1081.23629 2518.00000
538.89112 3.75385 -1081.11802 2520.00000
540.76614 3.74554 -1080.94994 2522.00000
542.63243 3.73876 -1080.73642 2524.00000
544.49174 3.73138 -1080.47345 2526.00000
546.34401 3.72143 -1080.15122 2528.00000
548.18498 3.70882 -1079.75860 2530.00000
550.00854 3.69405 -1079.28956 2532.00000
551.81055 3.67647 -1078.74752 2534.00000
553.59203 3.65572 -1078.14522 2536.00000
555.35975 3.63224 -1077.50097 2538.00000
557.11999 3.60795 -1076.82740 2540.00000
558.87137 3.58515 -1076.12474 2542.00000
560.60713 3.56554 -1075.38578 2544.00000
562.32090 3.54931 -1074.60492 2546.00000
564.01097 3.53503 -1073.78355 2548.00000
565.67997 3.52172 -1072.92615 2550.00000
567.33226 3.50905 -1072.03508 2552.00000
568.96980 3.49688 -1071.10995 2554.00000
570.58948 3.48509 -1070.14867 2556.00000
572.18601 3.47346 -1069.14913 2558.00000
573.75712 3.46207 -1068.11433 2560.00000
575.30556 3.45116 -1067.05340 2562.00000
576.83322 3.44083 -1065.97181 2564.00000
578.33732 3.43101 -1064.86515 2566.00000
579.81238 3.42142 -1063.72229 2568.00000
581.25319 3.41217 -1062.53359 2570.00000
582.65591 3.40330 -1061.29630 2572.00000
584.01882 3.39398 -1060.01417 2574.00000
585.34285 3.38401 -1058.69441 2576.00000
586.63170 3.37299 -1057.34457 2578.00000
587.88988 3.36076 -1055.96775 2580.00000
589.12184 3.34810 -1054.56118 2582.00000
590.33029 3.33555 -1053.12095 2584.00000
591.51317 3.32381 -1051.64727 2586.00000
592.66543 3.31362 -1050.14243 2588.00000
593.78082 3.30450 -1048.60809 2590.00000
594.85121 3.29546 -1047.04358 2592.00000
595.86703 3.28599 -1045.44570 2594.00000
596.82451 3.27581 -1043.81296 2596.00000
597.72745 3.26648 -1042.14795 2598.00000
598.57707 3.25856 -1040.45359 2600.00000
599.37046 3.25022 -1038.73204 2602.00000
600.10816 3.24015 -1036.98732 2604.00000
600.79373 3.22598 -1035.22385 2606.00000
601.42904 3.20887 -1033.44413 2608.00000
602.01636 3.19127 -1031.65128 2610.00000
602.56001 3.17572 -1029.85026 2612.00000
603.06533 3.16325 -1028.04546 2614.00000
603.53640 3.15324 -1026.23641 2616.00000
603.97589 3.14487 -1024.41480 2618.00000
604.38446 3.13740 -1022.56708 2620.00000
604.75748 3.13013 -1020.68754 2622.00000
605.08485 3.12264 -1018.78317 2624.00000
605.35810 3.11464 -1016.86286 2626.00000
605.57831 3.10633 -1014.93199 2628.00000
605.75916 3.09819 -1012.99089 2630.00000
605.92196 3.09077 -1011.03533 2632.00000
606.08238 3.08401 -1009.06337 2634.00000
606.24580 3.07750 -1007.08081 2636.00000
606.41210 3.07086 -1005.09420 2638.00000
606.57982 3.06391 -1003.10713 2640.00000
606.74800 3.05679 -1001.12082 2642.00000
606.91625 3.04980 -999.13530 2644.00000
607.08444 3.04327 -997.15030 2646.00000
607.25274 3.03751 -995.16560 2648.00000
607.42123 3.03265 -993.18100 2650.00000
607.58986 3.02871 -991.19617 2652.00000
607.75874 3.02557 -989.21044 2654.00000
607.92797 3.02308 -987.22305 2656.00000
608.09762 3.02109 -985.23390 2658.00000
608.26805 3.01950 -983.24373 2660.00000
608.43961 3.01825 -981.25331 2662.00000
608.61241 3.01730 -979.26303 2664.00000
608.78623 3.01660 -977.27294 2666.00000
608.96067 3.01605 -975.28299 2668.00000
609.13562 3.01554 -973.29313 2670.00000
609.31130 3.01498 -971.30338 2672.00000
609.48774 3.01433 -969.31372 2674.00000
609.66469 3.01362 -967.32409 2676.00000
609.84207 3.01285 -965.33445 2678.00000
610.01998 3.01207 -963.34475 2680.00000
610.19849 3.01128 -961.35496 2682.00000
610.37823 3.01053 -959.36513 2684.00000
610.56073 3.00984 -957.37543 2686.00000
610.74750 3.00926 -955.38600 2688.00000
610.93902 3.00880 -953.39688 2690.00000
611.13467 3.00841 -951.40801 2692.00000
611.33291 3.00806 -949.41925 2694.00000
611.53207 3.00769 -947.43047 2696.00000
611.73123 3.00729 -945.44162 2698.00000
611.93021 3.00684 -943.45269 2700.00000
612.12917 3.00633 -941.46368 2702.00000
612.32815 3.00573 -939.47456 2704.00000
612.52701 3.00501 -937.48521 2706.00000
612.72566 3.00416 -935.49545 2708.00000
612.92408 3.00318 -933.50515 2710.00000
613.12231 3.00210 -931.51440 2712.00000
613.32041 3.00094 -929.52343 2714.00000
613.51839 2.99975 -927.53240 2716.00000
613.71628 2.99856 -925.54137 2718.00000
613.91406 2.99737 -923.55036 2720.00000
614.11176 2.99619 -921.55935 2722.00000
614.30941 2.99501 -919.56836 2724.00000
614.50700 2.99382 -917.57737 2726.00000
614.70451 2.99261 -915.58638 2728.00000
614.90190 2.99137 -913.59540 2730.00000
615.09913 2.99010 -911.60439 2732.00000
615.29614 2.98882 -909.61336 2734.00000
615.49301 2.98753 -907.62232 2736.00000
615.68991 2.98623 -905.63129 2738.00000
615.88685 2.98491 -903.64028 2740.00000
616.08375 2.98357 -901.64926 2742.00000
616.28055 2.98220 -899.65825 2744.00000
616.47719 2.98077 -897.66722 2746.00000
616.67363 2.97922 -895.67617 2748.00000
616.86980 2.97744 -893.68512 2750.00000
617.06571 2.97536 -891.69404 2752.00000
617.26136 2.97291 -889.70294 2754.00000
617.45677 2.97009 -887.71183 2756.00000
617.65187 2.96697 -885.72065 2758.00000
617.84659 2.96364 -883.72937 2760.00000
618.04066 2.96021 -881.73793 2762.00000
618.23343 2.95675 -879.74631 2764.00000
618.42377 2.95327 -877.75443 2766.00000
618.61068 2.94974 -875.76225 2768.00000
618.79438 2.94617 -873.76981 2770.00000
618.97616 2.94259 -871.77721 2772.00000
619.15717 2.93910 -869.78454 2774.00000
619.33795 2.93575 -867.79186 2776.00000
619.51860 2.93258 -865.79917 2778.00000
619.69907 2.92958 -863.80649 2780.00000
619.87929 2.92663 -861.81378 2782.00000
620.05919 2.92359 -859.82103 2784.00000
620.23871 2.92028 -857.82826 2786.00000
620.41783 2.91652 -855.83544 2788.00000
620.59655 2.91224 -853.84260 2790.00000
620.77488 2.90745 -851.84973 2792.00000
620.95284 2.90230 -849.85685 2794.00000
621.13046 2.89698 -847.86392 2796.00000
621.30778 2.89169 -845.87098 2798.00000
621.48479 2.88655 -843.87801 2800.00000
621.66148 2.88162 -841.88500 2802.00000
621.83778 2.87686 -839.89195 2804.00000
622.01365 2.87219 -837.89888 2806.00000
622.18898 2.86753 -835.90584 2808.00000
622.36373 2.86281 -833.91294 2810.00000
622.53790 2.85798 -831.92022 2812.00000
622.71148 2.85305 -829.92760 2814.00000
622.88454 2.84801 -827.93501 2816.00000
623.05710 2.84294 -825.94240 2818.00000
623.22920 2.83787 -823.94975 2820.00000
623.40088 2.83287 -821.95708 2822.00000
623.57216 2.82794 -819.96434 2824.00000
623.74300 2.82310 -817.97156 2826.00000
623.91335 2.81826 -815.97875 2828.00000
624.08314 2.81337 -813.98591 2830.00000
624.25227 2.80833 -811.99303 2832.00000
624.42070 2.80304 -810.00001 2834.00000
624.58854 2.79745 -808.00664 2836.00000
624.75589 2.79158 -806.01269 2838.00000
624.92273 2.78548 -804.01816 2840.00000
625.08889 2.77916 -802.02418 2842.00000
625.25420 2.77261 -800.03401 2844.00000
625.41850 2.76583 -798.05322 2846.00000
625.58189 2.75885 -796.08590 2848.00000
625.74533 2.75174 -794.12861 2850.00000
625.91016 2.74477 -792.17519 2852.00000
626.07705 2.73822 -790.22343 2854.00000
626.24433 2.73204 -788.27761 2856.00000
626.40431 2.72571 -786.34843 2858.00000
626.54037 2.71821 -784.44610 2860.00000
626.62783 2.70838 -782.56601 2862.00000
626.63950 2.69565 -780.69648 2864.00000
626.55573 2.68093 -778.83479 2866.00000
626.36826 2.66674 -776.98962 2868.00000
626.07905 2.65542 -775.17724 2870.00000
625.70025 2.64712 -773.41420 2872.00000
625.24741 2.64055 -771.70411 2874.00000
624.73188 2.63451 -770.02999 2876.00000
624.15752 2.62839 -768.37577 2878.00000
623.52128 2.62206 -766.74038 2880.00000
622.81793 2.61556 -765.13438 2882.00000
622.04480 2.60895 -763.57168 2884.00000
621.20068 2.60197 -762.06275 2886.00000
620.28256 2.59448 -760.60886 2888.00000
619.28450 2.58689 -759.20126 2890.00000
618.20282 2.57994 -757.83135 2892.00000
617.04097 2.57420 -756.49879 2894.00000
615.80660 2.56951 -755.20978 2896.00000
614.50931 2.56570 -753.97056 2898.00000
613.15893 2.56388 -752.78023 2900.00000
611.76038 2.56552 -751.62791 2902.00000
610.30478 2.57047 -750.50201 2904.00000
608.77619 2.57672 -749.40572 2906.00000
607.17746 2.58195 -748.35707 2908.00000
605.52709 2.58442 -747.36844 2910.00000
603.84781 2.58361 -746.43218 2912.00000
602.15994 2.58017 -745.52344 2914.00000
600.47172 2.57502 -744.61711 2916.00000
598.77602 2.56866 -743.69867 2918.00000
597.06188 2.56154 -742.76375 2920.00000
595.33073 2.55408 -741.81690 2922.00000
593.59106 2.54670 -740.86516 2924.00000
591.84921 2.53972 -739.91289 2926.00000
590.10795 2.53331 -738.96165 2928.00000
588.36760 2.52752 -738.01122 2930.00000
586.62676 2.52233 -737.06034 2932.00000
584.88296 2.51766 -736.10713 2934.00000
583.13403 2.51350 -735.14997 2936.00000
581.38046 2.50985 -734.18908 2938.00000
579.62459 2.50671 -733.22609 2940.00000
577.86813 2.50395 -732.26242 2942.00000
576.11176 2.50138 -731.29878 2944.00000
574.35556 2.49868 -730.33539 2946.00000
572.59944 2.49560 -729.37225 2948.00000
570.84332 2.49195 -728.40925 2950.00000
569.08721 2.48774 -727.44625 2952.00000
567.33116 2.48304 -726.48307 2954.00000
565.57525 2.47798 -725.51946 2956.00000
563.81954 2.47265 -724.55526 2958.00000
562.06405 2.46710 -723.59048 2960.00000
560.30887 2.46139 -722.62534 2962.00000
558.55434 2.45556 -721.66015 2964.00000
556.80103 2.44965 -720.69528 2966.00000
555.04919 2.44374 -719.73101 2968.00000
553.29831 2.43791 -718.76729 2970.00000
551.54772 2.43223 -717.80391 2972.00000
549.79703 2.42672 -716.84070 2974.00000
548.04615 2.42139 -715.87740 2976.00000
546.29528 2.41630 -714.91361 2978.00000
544.54467 2.41151 -713.94890 2980.00000
542.79447 2.40706 -712.98296 2982.00000
541.04483 2.40293 -712.01552 2984.00000
539.29597 2.39913 -711.04621 2986.00000
537.54806 2.39560 -710.07464 2988.00000
535.80121 2.39234 -709.10062 2990.00000
534.05546 2.38928 -708.12414 2992.00000
532.31065 2.38633 -707.14526 2994.00000
530.56648 2.38344 -706.16390 2996.00000
528.82231 2.38061 -705.17980 2998.00000
527.07746 2.37783 -704.19271 3000.00000
525.33196 2.37516 -703.20294 3002.00000
523.58635 2.37263 -702.21134 3004.00000
521.84098 2.37027 -701.21876 3006.00000
520.09600 2.36812 -700.22564 3008.00000
518.35144 2.36616 -699.23211 3010.00000
516.60726 2.36442 -698.23816 3012.00000
514.86330 2.36288 -697.24399 3014.00000
513.11929 2.36154 -696.25016 3016.00000
511.37475 2.36042 -695.25758 3018.00000
509.62919 2.35953 -694.26724 3020.00000
507.88213 2.35887 -693.28013 3022.00000
506.13316 2.35842 -692.29704 3024.00000
504.38216 2.35811 -691.31822 3026.00000
502.62921 2.35787 -690.34347 3028.00000
500.87465 2.35767 -689.37203 3030.00000
499.11906 2.35744 -688.40265 3032.00000
497.36314 2.35719 -687.43396 3034.00000
495.60732 2.35692 -686.46510 3036.00000
493.85169 2.35663 -685.49579 3038.00000
492.09622 2.35633 -684.52605 3040.00000
490.34088 2.35601 -683.55599 3042.00000
488.58576 2.35566 -682.58572 3044.00000
486.83119 2.35530 -681.61541 3046.00000
485.07775 2.35495 -680.64535 3048.00000
483.32585 2.35467 -679.67574 3050.00000
481.57525 2.35453 -678.70641 3052.00000
479.82543 2.35458 -677.73692 3054.00000
478.07609 2.35485 -676.76686 3056.00000
476.32715 2.35533 -675.79592 3058.00000
474.57865 2.35596 -674.82401 3060.00000
472.83060 2.35667 -673.85111 3062.00000
471.08303 2.35737 -672.87722 3064.00000
469.33597 2.35805 -671.90232 3066.00000
467.58952 2.35867 -670.92628 3068.00000
465.84377 2.35923 -669.94890 3070.00000
464.09880 2.35973 -668.97002 3072.00000
462.35463 2.36013 -667.98957 3074.00000
460.61124 2.36041 -667.00758 3076.00000
458.86863 2.36053 -666.02411 3078.00000
457.12676 2.36048 -665.03923 3080.00000
455.38559 2.36026 -664.05301 3082.00000
453.64503 2.35991 -663.06564 3084.00000
451.90489 2.35945 -662.07747 3086.00000
450.16502 2.35893 -661.08884 3088.00000
448.42533 2.35836 -660.09994 3090.00000
446.68576 2.35773 -659.11081 3092.00000
444.94623 2.35707 -658.12139 3094.00000
443.20651 2.35637 -657.13159 3096.00000
441.46614 2.35565 -656.14166 3098.00000
439.72454 2.35494 -655.15255 3100.00000
437.98107 2.35424 -654.16603 3102.00000
436.23523 2.35357 -653.18362 3104.00000
434.48734 2.35292 -652.20503 3106.00000
432.73831 2.35230 -651.22869 3108.00000
430.98887 2.35172 -650.25324 3110.00000
429.23940 2.35118 -649.27788 3112.00000
427.49000 2.35070 -648.30235 3114.00000
425.74069 2.35027 -647.32665 3116.00000
423.99139 2.34988 -646.35087 3118.00000
422.24206 2.34948 -645.37513 3120.00000
420.49264 2.34905 -644.39956 3122.00000
418.74308 2.34853 -643.42427 3124.00000
416.99333 2.34791 -642.44932 3126.00000
415.24337 2.34722 -641.47474 3128.00000
413.49317 2.34652 -640.50065 3130.00000
411.74260 2.34589 -639.52724 3132.00000
409.99154 2.34543 -638.55469 3134.00000
408.23991 2.34517 -637.58303 3136.00000
406.48769 2.34516 -636.61223 3138.00000
404.73495 2.34541 -635.64226 3140.00000
402.98194 2.34602 -634.67318 3142.00000
401.22924 2.34710 -633.70505 3144.00000
399.47765 2.34876 -632.73800 3146.00000
397.72755 2.35107 -631.77195 3148.00000
395.97850 2.35402 -630.80648 3150.00000
394.22993 2.35752 -629.84114 3152.00000
392.48152 2.36146 -628.87573 3154.00000
390.73317 2.36568 -627.91014 3156.00000
388.98486 2.37009 -626.94438 3158.00000
387.23658 2.37464 -625.97847 3160.00000
385.48835 2.37931 -625.01244 3162.00000
383.74019 2.38410 -624.04633 3164.00000
381.99212 2.38903 -623.08007 3166.00000
380.24425 2.39409 -622.11350 3168.00000
378.49673 2.39928 -621.14630 3170.00000
376.74973 2.40453 -620.17816 3172.00000
375.00343 2.40971 -619.20876 3174.00000
373.25797 2.41472 -618.23779 3176.00000
371.51344 2.41950 -617.26509 3178.00000
369.76988 2.42401 -616.29060 3180.00000
368.02728 2.42821 -615.31431 3182.00000
366.28560 2.43217 -614.33634 3184.00000
364.54471 2.43603 -613.35701 3186.00000
362.80437 2.43997 -612.37673 3188.00000
361.06430 2.44403 -611.39587 3190.00000
359.32411 2.44815 -610.41447 3192.00000
357.58317 2.45226 -609.43223 3194.00000
355.84087 2.45636 -608.44877 3196.00000
354.09735 2.46044 -607.46407 3198.00000
352.35332 2.46457 -606.47846 3200.00000
350.60932 2.46882 -605.49223 3202.00000
348.86558 2.47326 -604.50549 3204.00000
347.12220 2.47793 -603.51823 3206.00000
345.37917 2.48283 -602.53045 3208.00000
343.63644 2.48797 -601.54219 3210.00000
341.89394 2.49340 -600.55354 3212.00000
340.15163 2.49916 -599.56452 3214.00000
338.40952 2.50530 -598.57511 3216.00000
336.66767 2.51184 -597.58521 3218.00000
334.92615 2.51875 -596.59468 3220.00000
333.18507 2.52596 -595.60339 3222.00000
331.44452 2.53336 -594.61117 3224.00000
329.70459 2.54082 -593.61783 3226.00000
327.96544 2.54823 -592.62304 3228.00000
326.22744 2.55556 -591.62610 3230.00000
324.49141 2.56283 -590.62584 3232.00000
322.75842 2.57012 -589.62093 3234.00000
321.02940 2.57739 -588.61052 3236.00000
319.30461 2.58436 -587.59426 3238.00000
317.58364 2.59101 -586.57209 3240.00000
315.86578 2.59777 -585.54441 3242.00000
314.15055 2.60497 -584.51176 3244.00000
312.43779 2.61261 -583.47430 3246.00000
310.72758 2.62057 -582.43194 3248.00000
309.02000 2.62880 -581.38466 3250.00000
307.31508 2.63733 -580.33248 3252.00000
305.61279 2.64617 -579.27551 3254.00000
303.91312 2.65528 -578.21380 3256.00000
302.21611 2.66446 -577.14734 3258.00000
300.52181 2.67346 -576.07611 3260.00000
298.83017 2.68202 -575.00021 3262.00000
297.14094 2.68995 -573.92016 3264.00000
295.45355 2.69724 -572.83710 3266.00000
293.76720 2.70389 -571.75263 3268.00000
292.08117 2.70994 -570.66803 3270.00000
290.39480 2.71529 -569.58371 3272.00000
288.70717 2.71984 -568.49914 3274.00000
287.01675 2.72345 -567.41316 3276.00000
285.32238 2.72617 -566.32476 3278.00000
283.62468 2.72820 -565.23408 3280.00000
281.92499 2.72997 -564.14160 3282.00000
280.22424 2.73197 -563.04750 3284.00000
278.52289 2.73461 -561.95161 3286.00000
276.82119 2.73827 -560.85314 3288.00000
275.11972 2.74313 -559.75033 3290.00000
273.41990 2.74909 -558.64053 3292.00000
271.72439 2.75518 -557.52128 3294.00000
270.03622 2.76063 -556.39098 3296.00000
268.35714 2.76521 -555.24753 3298.00000
266.68902 2.76821 -554.08801 3300.00000
265.03467 2.76948 -552.90857 3302.00000
263.39709 2.76922 -551.70574 3304.00000
261.77821 2.76736 -550.47790 3306.00000
260.17839 2.76392 -549.22575 3308.00000
258.59577 2.75930 -547.95286 3310.00000
257.02601 2.75404 -546.66596 3312.00000
255.46429 2.74842 -545.37369 3314.00000
253.90860 2.74217 -544.08282 3316.00000
252.35841 2.73483 -542.79587 3318.00000
250.81201 2.72602 -541.51171 3320.00000
249.26757 2.71591 -540.22833 3322.00000
247.72410 2.70473 -538.94439 3324.00000
246.18138 2.69273 -537.65923 3326.00000
244.63960 2.67994 -536.37256 3328.00000
243.09909 2.66623 -535.08420 3330.00000
241.56007 2.65122 -533.79403 3332.00000
240.02276 2.63423 -532.50188 3334.00000
238.48746 2.61465 -531.20741 3336.00000
236.95440 2.59297 -529.91038 3338.00000
235.42354 2.57080 -528.61083 3340.00000
233.89492 2.54907 -527.30879 3342.00000
232.36878 2.52694 -526.00398 3344.00000
230.84531 2.50350 -524.69629 3346.00000
229.32418 2.47839 -523.38614 3348.00000
227.80469 2.45186 -522.07433 3350.00000
226.28603 2.42433 -520.76164 3352.00000
224.76756 2.39623 -519.44833 3354.00000
223.24887 2.36774 -518.13429 3356.00000
221.72990 2.33873 -516.81949 3358.00000
220.21084 2.30881 -515.50419 3360.00000
218.69184 2.27755 -514.18873 3362.00000
217.17298 2.24462 -512.87331 3364.00000
215.65413 2.20989 -511.55814 3366.00000
214.13501 2.17351 -510.24355 3368.00000
212.61545 2.13574 -508.92969 3370.00000
211.09566 2.09689 -507.61631 3372.00000
209.57599 2.05721 -506.30305 3374.00000
208.05662 2.01688 -504.98969 3376.00000
206.53761 1.97597 -503.67618 3378.00000
205.01894 1.93446 -502.36250 3380.00000
203.50056 1.89230 -501.04864 3382.00000
201.98242 1.84939 -499.73452 3384.00000
200.46440 1.80568 -498.42001 3386.00000
198.94648 1.76108 -497.10508 3388.00000
197.42897 1.71559 -495.79010 3390.00000
195.91303 1.66920 -494.47623 3392.00000
194.40094 1.62203 -493.16570 3394.00000
192.89513 1.57420 -491.86077 3396.00000
191.39521 1.52575 -490.56118 3398.00000
189.89841 1.47661 -489.26455 3400.00000
188.40258 1.42674 -487.96886 3402.00000
186.90677 1.37619 -486.67311 3404.00000
185.41085 1.32513 -485.37698 3406.00000
183.91493 1.27376 -484.08046 3408.00000
182.41909 1.22227 -482.78364 3410.00000
180.92337 1.17074 -481.48664 3412.00000
179.42774 1.11914 -480.18957 3414.00000
177.93218 1.06739 -478.89248 3416.00000
176.43663 1.01544 -477.59539 3418.00000
174.94108 0.96322 -476.29830 3420.00000
173.44557 0.91071 -475.00123 3422.00000
171.95019 0.85785 -473.70422 3424.00000
170.45508 0.80468 -472.40734 3426.00000
168.96027 0.75127 -471.11058 3428.00000
167.46541 0.69775 -469.81362 3430.00000
165.96940 0.64419 -468.51547 3432.00000
164.47009 0.59058 -467.21427 3434.00000
162.96535 0.53686 -465.90815 3436.00000
161.45561 0.48301 -464.59752 3438.00000
159.94327 0.42916 -463.28449 3440.00000
158.43016 0.37548 -461.97076 3442.00000
156.91710 0.32211 -460.65712 3444.00000
155.40428 0.26915 -459.34371 3446.00000
153.89167 0.21655 -458.03039 3448.00000
152.37925 0.16421 -456.71701 3450.00000
150.86698 0.11205 -455.40348 3452.00000
149.35469 0.06001 -454.08999 3454.00000
147.84195 0.00809 -452.77707 3456.00000
146.32811 -0.04367 -451.46560 3458.00000
144.81271 -0.09522 -450.15617 3460.00000
143.29605 -0.14647 -448.84840 3462.00000
141.77880 -0.19741 -447.54148 3464.00000
140.26151 -0.24807 -446.23479 3466.00000
138.74442 -0.29855 -444.92807 3468.00000
137.22741 -0.34887 -443.62114 3470.00000
135.70990 -0.39904 -442.31365 3472.00000
134.19086 -0.44897 -441.00485 3474.00000
132.66937 -0.49856 -439.69399 3476.00000
131.14577 -0.54762 -438.38135 3478.00000
129.62114 -0.59606 -437.06770 3480.00000
128.09627 -0.64382 -435.75358 3482.00000
126.57150 -0.69100 -434.43922 3484.00000
125.04686 -0.73784 -433.12467 3486.00000
123.52231 -0.78461 -431.80993 3488.00000
121.99777 -0.83158 -430.49496 3490.00000
120.47321 -0.87890 -429.17979 3492.00000
118.94862 -0.92656 -427.86440 3494.00000
117.42404 -0.97446 -426.54879 3496.00000
115.89950 -1.02242 -425.23292 3498.00000
114.37502 -1.07027 -423.91678 3500.00000
112.85057 -1.11790 -422.60033 3502.00000
111.32604 -1.16529 -421.28352 3504.00000
109.80128 -1.21246 -419.96634 3506.00000
108.27629 -1.25950 -418.64887 3508.00000
106.75159 -1.30649 -417.33148 3510.00000
105.22853 -1.35351 -416.01522 3512.00000
103.70929 -1.40056 -414.70190 3514.00000
102.19544 -1.44753 -413.39268 3516.00000
100.68615 -1.49426 -412.08613 3518.00000
99.17988 -1.54060 -410.77983 3520.00000
97.67552 -1.58654 -409.47232 3522.00000
96.17218 -1.63211 -408.16349 3524.00000
94.66921 -1.67735 -406.85384 3526.00000
93.16633 -1.72218 -405.54386 3528.00000
91.66347 -1.76650 -404.23378 3530.00000
90.16078 -1.81031 -402.92352 3532.00000
88.65872 -1.85374 -401.61257 3534.00000
87.15804 -1.89684 -400.30009 3536.00000
85.65965 -1.93947 -398.98503 3538.00000
84.16435 -1.98136 -397.66642 3540.00000
82.67262 -2.02223 -396.34372 3542.00000
81.18450 -2.06201 -395.01686 3544.00000
79.69944 -2.10064 -393.68637 3546.00000
78.21636 -2.13806 -392.35349 3548.00000
76.73405 -2.17413 -391.01960 3550.00000
75.25179 -2.20879 -389.68557 3552.00000
73.76929 -2.24197 -388.35167 3554.00000
72.28653 -2.27374 -387.01795 3556.00000
70.80353 -2.30414 -385.68441 3558.00000
69.32036 -2.33322 -384.35096 3560.00000
67.83705 -2.36093 -383.01755 3562.00000
66.35365 -2.38726 -381.68411 3564.00000
64.87024 -2.41207 -380.35064 3566.00000
63.38689 -2.43530 -379.01718 3568.00000
61.90364 -2.45687 -377.68376 3570.00000
60.42042 -2.47683 -376.35031 3572.00000
58.93683 -2.49530 -375.01647 3574.00000
57.45192 -2.51256 -373.68140 3576.00000
55.96439 -2.52887 -372.34392 3578.00000
54.47378 -2.54450 -371.00366 3580.00000
52.98125 -2.55957 -369.66164 3582.00000
51.48809 -2.57408 -368.31895 3584.00000
49.99501 -2.58788 -366.97617 3586.00000
48.50223 -2.60077 -365.63344 3588.00000
47.00961 -2.61256 -364.29090 3590.00000
45.51665 -2.62315 -362.94901 3592.00000
44.02243 -2.63251 -361.60878 3594.00000
42.52563 -2.64070 -360.27172 3596.00000
41.02489 -2.64775 -358.93932 3598.00000
39.51946 -2.65369 -357.61244 3600.00000
38.00908 -2.65842 -356.29130 3602.00000
36.49383 -2.66187 -354.97574 3604.00000
34.97420 -2.66391 -353.66515 3606.00000
33.45127 -2.66451 -352.35820 3608.00000
31.92669 -2.66369 -351.05296 3610.00000
30.40171 -2.66164 -349.74798 3612.00000
28.87680 -2.65848 -348.44274 3614.00000
27.35203 -2.65437 -347.13720 3616.00000
25.82732 -2.64932 -345.83147 3618.00000
24.30257 -2.64331 -344.52565 3620.00000
22.77772 -2.63625 -343.21978 3622.00000
21.25277 -2.62809 -341.91389 3624.00000
19.72772 -2.61875 -340.60792 3626.00000
18.20260 -2.60821 -339.30189 3628.00000
16.67742 -2.59641 -337.99579 3630.00000
15.15223 -2.58332 -336.68955 3632.00000
13.62715 -2.56889 -335.38297 3634.00000
12.10243 -2.55326 -334.07571 3636.00000
10.57842 -2.53656 -332.76735 3638.00000
9.05570 -2.51891 -331.45742 3640.00000
7.53526 -2.50024 -330.14555 3642.00000
6.01844 -2.48059 -328.83182 3644.00000
4.50664 -2.45999 -327.51671 3646.00000
3.00089 -2.43852 -326.19978 3648.00000
1.50186 -2.41605 -324.87873 3650.00000
0.01086 -2.39263 -323.55032 3652.00000
-1.47129 -2.36844 -322.21263 3654.00000
-2.94655 -2.34361 -320.86745 3656.00000
-4.41841 -2.31759 -319.51845 3658.00000
-5.88926 -2.28996 -318.16823 3660.00000
-7.36014 -2.26074 -316.81793 3662.00000
-8.83163 -2.23023 -315.46819 3664.00000
-10.30484 -2.19871 -314.12025 3666.00000
-11.78176 -2.16653 -312.77622 3668.00000
-13.26440 -2.13399 -311.43827 3670.00000
-14.75306 -2.10136 -310.10676 3672.00000
-16.24536 -2.06874 -308.77908 3674.00000
-17.73865 -2.03617 -307.45244 3676.00000
-19.23165 -2.00360 -306.12547 3678.00000
-20.72405 -1.97101 -304.79783 3680.00000
-22.21590 -1.93841 -303.46962 3682.00000
-23.70736 -1.90581 -302.14097 3684.00000
-25.19852 -1.87323 -300.81200 3686.00000
-26.68945 -1.84067 -299.48279 3688.00000
-28.18020 -1.80810 -298.15341 3690.00000
-29.67078 -1.77546 -296.82389 3692.00000
-31.16125 -1.74270 -295.49425 3694.00000
-32.65177 -1.70978 -294.16463 3696.00000
-34.14269 -1.67667 -292.83541 3698.00000
-35.63453 -1.64337 -291.50718 3700.00000
-37.12775 -1.60985 -290.18045 3702.00000
-38.62250 -1.57609 -288.85537 3704.00000
-40.11871 -1.54205 -287.53190 3706.00000
-41.61624 -1.50772 -286.20989 3708.00000
-43.11479 -1.47308 -284.88901 3710.00000
-44.61398 -1.43813 -283.56879 3712.00000
-46.11338 -1.40286 -282.24881 3714.00000
-47.61278 -1.36725 -280.92885 3716.00000
-49.11215 -1.33125 -279.60882 3718.00000
-50.61150 -1.29486 -278.28872 3720.00000
-52.11085 -1.25808 -276.96853 3722.00000
-53.61017 -1.22100 -275.64827 3724.00000
-55.10939 -1.18372 -274.32800 3726.00000
-56.60821 -1.14638 -273.00792 3728.00000
-58.10621 -1.10908 -271.68839 3730.00000
-59.60302 -1.07185 -270.36966 3732.00000
-61.09883 -1.03471 -269.05153 3734.00000
-62.59404 -0.99760 -267.73354 3736.00000
-64.08890 -0.96050 -266.41542 3738.00000
-65.58352 -0.92336 -265.09700 3740.00000
-67.07794 -0.88617 -263.77823 3742.00000
-68.57211 -0.84893 -262.45916 3744.00000
-70.06604 -0.81169 -261.13980 3746.00000
-71.55973 -0.77456 -259.82018 3748.00000
-73.05318 -0.73772 -258.50030 3750.00000
-74.54640 -0.70127 -257.18020 3752.00000
-76.03943 -0.66533 -255.85990 3754.00000
-77.53231 -0.62990 -254.53943 3756.00000
-79.02508 -0.59502 -253.21884 3758.00000
-80.51780 -0.56069 -251.89821 3760.00000
-82.01074 -0.52693 -250.57783 3762.00000
-83.50460 -0.49374 -249.25847 3764.00000
-85.00053 -0.46111 -247.94138 3766.00000
-86.49962 -0.42901 -246.62775 3768.00000
-88.00226 -0.39743 -245.31818 3770.00000
-89.50845 -0.36636 -244.01285 3772.00000
-91.01802 -0.33583 -242.71169 3774.00000
-92.53061 -0.30587 -241.41434 3776.00000
-94.04552 -0.27650 -240.12003 3778.00000
-95.56179 -0.24773 -238.82761 3780.00000
-97.07860 -0.21949 -237.53608 3782.00000
-98.59546 -0.19166 -236.24484 3784.00000
-100.11209 -0.16409 -234.95353 3786.00000
-101.62842 -0.13666 -233.66203 3788.00000
-103.14441 -0.10932 -232.37033 3790.00000
-104.65998 -0.08214 -231.07839 3792.00000
-106.17502 -0.05524 -229.78619 3794.00000
-107.68948 -0.02875 -228.49370 3796.00000
-109.20353 -0.00281 -227.20087 3798.00000
-110.71771 0.02254 -225.90754 3800.00000
-112.23311 0.04742 -224.61332 3802.00000
-113.75078 0.07217 -223.31760 3804.00000
-115.27038 0.09702 -222.02021 3806.00000
-116.79028 0.12145 -220.72101 3808.00000
-118.30886 0.14420 -219.41951 3810.00000
-119.82575 0.16501 -218.11590 3812.00000
-121.34180 0.18493 -216.81139 3814.00000
-122.85796 0.20497 -215.50709 3816.00000
-124.37457 0.22556 -214.20336 3818.00000
-125.89150 0.24671 -212.90003 3820.00000
-127.40849 0.26869 -211.59675 3822.00000
-128.92491 0.29185 -210.29272 3824.00000
-130.43897 0.31550 -208.98565 3826.00000
-131.94742 0.33860 -207.67145 3828.00000
-133.44650 0.35961 -206.34539 3830.00000
-134.93462 0.37755 -205.00547 3832.00000
-136.41421 0.39262 -203.65476 3834.00000
-137.88996 0.40652 -202.29920 3836.00000
-139.36522 0.42118 -200.94303 3838.00000
-140.84090 0.43670 -199.58744 3840.00000
-142.31708 0.45221 -198.23254 3842.00000
-143.79430 0.46708 -196.87899 3844.00000
-145.27356 0.48106 -195.52802 3846.00000
-146.75603 0.49423 -194.18112 3848.00000
-148.24330 0.50680 -192.84038 3850.00000
-149.73674 0.51907 -191.50758 3852.00000
-151.23656 0.53121 -190.18312 3854.00000
-152.74162 0.54325 -188.86542 3856.00000
-154.25002 0.55510 -187.55141 3858.00000
-155.76104 0.56668 -186.23826 3860.00000
-157.27618 0.57806 -184.92488 3862.00000
-158.79687 0.58940 -183.61170 3864.00000
-160.32151 0.60081 -182.29904 3866.00000
-161.84740 0.61226 -180.98627 3868.00000
-163.37300 0.62372 -179.67301 3870.00000
-164.89787 0.63515 -178.35922 3872.00000
-166.42209 0.64653 -177.04505 3874.00000
-167.94592 0.65787 -175.73064 3876.00000
-169.46978 0.66922 -174.41621 3878.00000
-170.99425 0.68058 -173.10213 3880.00000
-172.52001 0.69190 -171.78899 3882.00000
-174.04718 0.70301 -170.47750 3884.00000
-175.57491 0.71371 -169.16906 3886.00000
-177.10123 0.72378 -167.86648 3888.00000
-178.62285 0.73306 -166.57209 3890.00000
-180.13829 0.74148 -165.28494 3892.00000
-181.64939 0.74902 -164.00163 3894.00000
-183.15843 0.75567 -162.71942 3896.00000
-184.66669 0.76136 -161.43717 3898.00000
-186.17451 0.76604 -160.15473 3900.00000
-187.68179 0.76969 -158.87231 3902.00000
-189.18869 0.77242 -157.58985 3904.00000
-190.69628 0.77443 -156.30643 3906.00000
-192.20693 0.77603 -155.01973 3908.00000
-193.72341 0.77745 -153.72620 3910.00000
-195.24515 0.77884 -152.42309 3912.00000
-196.76667 0.78023 -151.10947 3914.00000
-198.28195 0.78149 -149.78451 3916.00000
-199.78804 0.78255 -148.44833 3918.00000
-201.28598 0.78339 -147.10308 3920.00000
-202.78005 0.78410 -145.75202 3922.00000
-204.27556 0.78479 -144.39691 3924.00000
-205.77685 0.78551 -143.03721 3926.00000
-207.28504 0.78627 -141.67314 3928.00000
-208.79796 0.78711 -140.30629 3930.00000
-210.31309 0.78807 -138.93579 3932.00000
-211.82861 0.78894 -137.55470 3934.00000
-213.34338 0.78899 -136.14925 3936.00000
-214.85650 0.78782 -134.70715 3938.00000
-216.36304 0.78459 -133.23003 3940.00000
-217.85045 0.77757 -131.72374 3942.00000
-219.30159 0.76456 -130.18442 3944.00000
-220.69991 0.74407 -128.59692 3946.00000
-222.03433 0.71579 -126.93890 3948.00000
-223.30258 0.68165 -125.19487 3950.00000
-224.50080 0.64533 -123.36685 3952.00000
-225.61370 0.61117 -121.46444 3954.00000
-226.61477 0.58244 -119.49364 3956.00000
-227.47724 0.56042 -117.45538 3958.00000
-228.18710 0.54480 -115.35317 3960.00000
-228.73782 0.53470 -113.20147 3962.00000
-229.12504 0.52946 -111.02625 3964.00000
-229.35579 0.52902 -108.85791 3966.00000
-229.45560 0.53338 -106.71528 3968.00000
-229.46585 0.54224 -104.59398 3970.00000
-229.43328 0.55437 -102.48265 3972.00000
-229.38519 0.56779 -100.37782 3974.00000
-229.32078 0.58042 -98.28643 3976.00000
-229.23120 0.59089 -96.22097 3978.00000
-229.11314 0.59881 -94.18456 3980.00000
-228.96981 0.60432 -92.16610 3982.00000
-228.80692 0.60727 -90.15415 3984.00000
-228.63001 0.60714 -88.14279 3986.00000
-228.44379 0.60331 -86.13093 3988.00000
-228.25179 0.59544 -84.12111 3990.00000
-228.05667 0.58370 -82.11901 3992.00000
-227.86005 0.56875 -80.13080 3994.00000
-227.66258 0.55133 -78.15603 3996.00000
-227.46471 0.53196 -76.18837 3998.00000
-227.26788 0.51086 -74.22244 4000.00000
-227.07572 0.48822 -72.25572 4002.00000
-226.89448 0.46445 -70.28834 4004.00000
-226.72971 0.44035 -68.32297 4006.00000
-226.58166 0.41685 -66.36440 4008.00000
-226.44663 0.39462 -64.41637 4010.00000
-226.32455 0.37390 -62.47631 4012.00000
-226.22114 0.35468 -60.53839 4014.00000
-226.14426 0.33688 -58.59873 4016.00000
-226.10233 0.32047 -56.65651 4018.00000
-226.10527 0.30563 -54.71388 4020.00000
-226.16314 0.29257 -52.77633 4022.00000
-226.28195 0.28138 -50.85275 4024.00000
-226.46130 0.27178 -48.95138 4026.00000
-226.69625 0.26301 -47.07125 4028.00000
-226.97914 0.25405 -45.20538 4030.00000
-227.30107 0.24409 -43.34937 4032.00000
-227.65275 0.23301 -41.50225 4034.00000
-228.02531 0.22143 -39.66370 4036.00000
-228.41729 0.21008 -37.83133 4038.00000
-228.83853 0.19856 -35.99896 4040.00000
-229.30335 0.18632 -34.15764 4042.00000
-229.81975 0.17245 -32.30541 4044.00000
-230.38417 0.15668 -30.45014 4046.00000
-230.98589 0.13963 -28.59854 4048.00000
-231.61507 0.12190 -26.75342 4050.00000
-232.26924 0.10406 -24.91693 4052.00000
-232.94865 0.08678 -23.09226 4054.00000
-233.64987 0.07072 -21.28424 4056.00000
-234.36672 0.05634 -19.49854 4058.00000
-235.09517 0.04360 -17.73489 4060.00000
-235.83489 0.03188 -15.98471 4062.00000
-236.58768 0.02047 -14.24069 4064.00000
-237.35794 0.00869 -12.50109 4066.00000
-238.15315 -0.00356 -10.76928 4068.00000
-238.98082 -0.01578 -9.05124 4070.00000
-239.84264 -0.02776 -7.35207 4072.00000
-240.73344 -0.03972 -5.67389 4074.00000
-241.64731 -0.05209 -4.01462 4076.00000
-242.58467 -0.06530 -2.36953 4078.00000
-243.55385 -0.07906 -0.73852 4080.00000
-244.56676 -0.09290 0.87261 4082.00000
-245.63003 -0.10678 2.45765 4084.00000
-246.74091 -0.12020 4.01329 4086.00000
-247.88949 -0.13249 5.53823 4088.00000
-249.06450 -0.14371 7.03054 4090.00000
-250.25997 -0.15419 8.48872 4092.00000
-251.47769 -0.16415 9.91651 4094.00000
-252.72148 -0.17371 11.31848 4096.00000
-253.99258 -0.18275 12.69589 4098.00000
-255.28976 -0.19106 14.04746 4100.00000
-256.61147 -0.19845 15.37184 4102.00000
-257.95864 -0.20496 16.67029 4104.00000
-259.33730 -0.21051 17.94852 4106.00000
-260.75676 -0.21467 19.21410 4108.00000
-262.21882 -0.21650 20.46672 4110.00000
-263.71593 -0.21521 21.69783 4112.00000
-265.24004 -0.21095 22.89979 4114.00000
-266.78591 -0.20423 24.06882 4116.00000
-268.35178 -0.19608 25.20526 4118.00000
-269.94041 -0.18745 26.31437 4120.00000
-271.55981 -0.17865 27.40894 4122.00000
-273.21840 -0.17007 28.50795 4124.00000
-274.91157 -0.16182 29.62341 4126.00000
-276.62165 -0.15357 30.75517 4128.00000
-278.32970 -0.14526 31.90405 4130.00000
-280.01679 -0.13698 33.08182 4132.00000
-281.66425 -0.12935 34.31265 4134.00000
-283.25877 -0.12303 35.63029 4136.00000
-284.79840 -0.11854 37.07261 4138.00000
-286.28889 -0.11622 38.66461 4140.00000
-287.72315 -0.11638 40.40018 4142.00000
-289.07990 -0.11955 42.25776 4144.00000
-290.34012 -0.12627 44.21096 4146.00000
-291.49497 -0.13678 46.23003 4148.00000
-292.54697 -0.15053 48.28350 4150.00000
-293.50509 -0.16627 50.34672 4152.00000
-294.37868 -0.18253 52.41601 4154.00000
-295.17646 -0.19847 54.50390 4156.00000
-295.90416 -0.21397 56.61859 4158.00000
-296.56760 -0.22962 58.75592 4160.00000
-297.17600 -0.24535 60.90076 4162.00000
-297.73955 -0.26045 63.03050 4164.00000
-298.26742 -0.27417 65.12204 4166.00000
-298.76768 -0.28661 67.17041 4168.00000
-299.24558 -0.29864 69.19357 4170.00000
-299.70077 -0.31138 71.20984 4172.00000
-300.12908 -0.32596 73.22862 4174.00000
-300.52653 -0.34065 75.25135 4176.00000
-300.89139 -0.35467 77.27421 4178.00000
-301.22607 -0.36648 79.29038 4180.00000
-301.53740 -0.37563 81.29407 4182.00000
-301.83402 -0.38339 83.28663 4184.00000
-302.12262 -0.39102 85.27376 4186.00000
-302.40597 -0.39946 87.25983 4188.00000
-302.68361 -0.40868 89.24679 4190.00000
-302.95385 -0.41858 91.23523 4192.00000
-303.21612 -0.42881 93.22523 4194.00000
-303.47272 -0.43919 95.21669 4196.00000
-303.72711 -0.44896 97.20942 4198.00000
-303.98108 -0.45732 99.20300 4200.00000
-304.23436 -0.46372 101.19710 4202.00000
-304.48559 -0.46850 103.19167 4204.00000
-304.73311 -0.47304 105.18689 4206.00000
-304.97579 -0.47888 107.18296 4208.00000
-305.21413 -0.48734 109.17965 4210.00000
-305.44939 -0.49933 111.17583 4212.00000
-305.68234 -0.51454 113.16902 4214.00000
-305.91303 -0.53183 115.15571 4216.00000
-306.14127 -0.54950 117.13426 4218.00000
-306.36698 -0.56579 119.10734 4220.00000
-306.59002 -0.57933 121.07844 4222.00000
-306.81025 -0.58953 123.04953 4224.00000
-307.02756 -0.59674 125.02122 4226.00000
-307.24199 -0.60192 126.99339 4228.00000
-307.45386 -0.60638 128.96608 4230.00000
-307.66397 -0.61123 130.94018 4232.00000
-307.87318 -0.61730 132.91803 4234.00000
-308.08204 -0.62524 134.90285 4236.00000
-308.29062 -0.63566 136.89537 4238.00000
-308.49881 -0.64903 138.89253 4240.00000
-308.70722 -0.66499 140.89118 4242.00000
-308.91677 -0.68296 142.88974 4244.00000
-309.12799 -0.70139 144.88776 4246.00000
-309.34059 -0.71933 146.88537 4248.00000
-309.55344 -0.73613 148.88285 4250.00000
-309.76495 -0.75169 150.88046 4252.00000
-309.97340 -0.76614 152.87842 4254.00000
-310.17734 -0.77962 154.87693 4256.00000
-310.37557 -0.79216 156.87614 4258.00000
-310.56742 -0.80397 158.87613 4260.00000
-310.75327 -0.81539 160.87652 4262.00000
-310.93447 -0.82680 162.87618 4264.00000
-311.11278 -0.83854 164.87324 4266.00000
-311.28957 -0.85077 166.86625 4268.00000
-311.46561 -0.86349 168.85587 4270.00000
-311.64143 -0.87652 170.84383 4272.00000
-311.81737 -0.88963 172.83142 4274.00000
-311.99364 -0.90258 174.81916 4276.00000
-312.17035 -0.91517 176.80714 4278.00000
-312.34760 -0.92735 178.79525 4280.00000
-312.52545 -0.93916 180.78341 4282.00000
-312.70395 -0.95077 182.77159 4284.00000
-312.88303 -0.96239 184.75975 4286.00000
-313.06243 -0.97424 186.74790 4288.00000
-313.24185 -0.98648 188.73609 4290.00000
-313.42106 -0.99917 190.72436 4292.00000
-313.59997 -1.01223 192.71278 4294.00000
-313.77870 -1.02548 194.70130 4296.00000
-313.95751 -1.03861 196.68987 4298.00000
-314.13680 -1.05136 198.67841 4300.00000
-314.31694 -1.06355 200.66692 4302.00000
-314.49789 -1.07514 202.65542 4304.00000
-314.67933 -1.08623 204.64395 4306.00000
-314.86102 -1.09699 206.63251 4308.00000
-315.04299 -1.10759 208.62107 4310.00000
-315.22532 -1.11814 210.60958 4312.00000
-315.40829 -1.12870 212.59802 4314.00000
-315.59291 -1.13927 214.58630 4316.00000
-315.78086 -1.14990 216.57437 4318.00000
-315.97371 -1.16065 218.56247 4320.00000
-316.17237 -1.17161 220.55110 4322.00000
-316.37702 -1.18285 222.54059 4324.00000
-316.58708 -1.19437 224.53061 4326.00000
-316.80121 -1.20616 226.52069 4328.00000
-317.01768 -1.21821 228.51064 4330.00000
-317.23504 -1.23052 230.50048 4332.00000
-317.45252 -1.24310 232.49027 4334.00000
-317.66991 -1.25596 234.48001 4336.00000
-317.88730 -1.26910 236.46970 4338.00000
-318.10477 -1.28247 238.45940 4340.00000
-318.32234 -1.29600 240.44913 4342.00000
-318.53995 -1.30959 242.43885 4344.00000
-318.75752 -1.32313 244.42857 4346.00000
-318.97503 -1.33657 246.41832 4348.00000
-319.19242 -1.34991 248.40811 4350.00000
-319.40970 -1.36325 250.39792 4352.00000
-319.62685 -1.37669 252.38775 4354.00000
-319.84391 -1.39034 254.37762 4356.00000
-320.06093 -1.40428 256.36755 4358.00000
-320.27804 -1.41853 258.35755 4360.00000
-320.49537 -1.43307 260.34762 4362.00000
-320.71297 -1.44780 262.33769 4364.00000
-320.93040 -1.46269 264.32778 4366.00000
-321.14628 -1.47771 266.31804 4368.00000
-321.35804 -1.49288 268.30877 4370.00000
-321.56296 -1.50819 270.30024 4372.00000
-321.76024 -1.52359 272.29251 4374.00000
-321.95166 -1.53897 274.28542 4376.00000
-322.14030 -1.55416 276.27864 4378.00000
-322.32838 -1.56903 278.27193 4380.00000
-322.51676 -1.58354 280.26520 4382.00000
-322.70556 -1.59780 282.25846 4384.00000
-322.89462 -1.61202 284.25170 4386.00000
-323.08378 -1.62647 286.24490 4388.00000
-323.27295 -1.64142 288.23792 4390.00000
-323.46209 -1.65703 290.23047 4392.00000
-323.65116 -1.67325 292.22230 4394.00000
-323.84019 -1.68983 294.21347 4396.00000
-324.02918 -1.70636 296.20426 4398.00000
-324.21813 -1.72235 298.19489 4400.00000
-324.40709 -1.73747 300.18551 4402.00000
-324.59628 -1.75154 302.17617 4404.00000
-324.78621 -1.76470 304.16681 4406.00000
-324.97759 -1.77725 306.15734 4408.00000
-325.17072 -1.78963 308.14769 4410.00000
-325.36550 -1.80225 310.13786 4412.00000
-325.56259 -1.81534 312.12775 4414.00000
-325.76340 -1.82898 314.11723 4416.00000
-325.96811 -1.84311 316.10630 4418.00000
-326.17489 -1.85761 318.09514 4420.00000
-326.38213 -1.87240 320.08394 4422.00000
-326.58916 -1.88745 322.07279 4424.00000
-326.79587 -1.90277 324.06167 4426.00000
-327.00236 -1.91835 326.05056 4428.00000
-327.20876 -1.93418 328.03946 4430.00000
-327.41513 -1.95015 330.02837 4432.00000
-327.62151 -1.96611 332.01730 4434.00000
-327.82787 -1.98194 334.00622 4436.00000
-328.03421 -1.99757 335.99513 4438.00000
-328.24055 -2.01296 337.98403 4440.00000
-328.44692 -2.02813 339.97286 4442.00000
-328.65334 -2.04307 341.96166 4444.00000
-328.85982 -2.05779 343.95044 4446.00000
-329.06637 -2.07226 345.93919 4448.00000
-329.27296 -2.08648 347.92790 4450.00000
-329.47961 -2.10047 349.91662 4452.00000
-329.68631 -2.11432 351.90534 4454.00000
-329.89308 -2.12814 353.89406 4456.00000
-330.09991 -2.14204 355.88278 4458.00000
-330.30680 -2.15611 357.87153 4460.00000
-330.51376 -2.17034 359.86025 4462.00000
-330.72075 -2.18462 361.84894 4464.00000
-330.92776 -2.19876 363.83761 4466.00000
-331.13477 -2.21253 365.82629 4468.00000
-331.34177 -2.22573 367.81497 4470.00000
-331.54876 -2.23823 369.80365 4472.00000
-331.75576 -2.25002 371.79236 4474.00000
-331.96275 -2.26123 373.78105 4476.00000
-332.16968 -2.27204 375.76976 4478.00000
-332.37647 -2.28269 377.75847 4480.00000
-332.58312 -2.29334 379.74717 4482.00000
-332.78984 -2.30410 381.73584 4484.00000
-332.99738 -2.31497 383.72444 4486.00000
-333.20702 -2.32591 385.71287 4488.00000
-333.42015 -2.33687 387.70098 4490.00000
-333.63785 -2.34777 389.68864 4492.00000
-333.86061 -2.35859 391.67576 4494.00000
-334.08791 -2.36929 393.66237 4496.00000
-334.31855 -2.37987 395.64865 4498.00000
-334.55132 -2.39042 397.63468 4500.00000
-334.78529 -2.40105 399.62057 4502.00000
-335.01948 -2.41190 401.60644 4504.00000
-335.25245 -2.42313 403.59244 4506.00000
-335.48189 -2.43478 405.57880 4508.00000
-335.70458 -2.44683 407.56593 4510.00000
-335.91708 -2.45914 409.55420 4512.00000
-336.11840 -2.47153 411.54371 4514.00000
-336.31236 -2.48380 413.53401 4516.00000
-336.50494 -2.49582 415.52448 4518.00000
-336.70035 -2.50754 417.51466 4520.00000
-336.90099 -2.51898 419.50427 4522.00000
-337.10762 -2.53016 421.49318 4524.00000
-337.31899 -2.54110 423.48155 4526.00000
-337.53247 -2.55182 425.46968 4528.00000
-337.74572 -2.56233 427.45784 4530.00000
-337.95712 -2.57265 429.44618 4532.00000
-338.16568 -2.58279 431.43483 4534.00000
-338.37105 -2.59287 433.42387 4536.00000
-338.57331 -2.60294 435.41334 4538.00000
-338.77266 -2.61303 437.40322 4540.00000
-338.96948 -2.62317 439.39343 4542.00000
-339.16444 -2.63338 441.38388 4544.00000
-339.35842 -2.64364 443.37444 4546.00000
-339.55208 -2.65392 445.36504 4548.00000
-339.74566 -2.66422 447.35563 4550.00000
-339.93919 -2.67454 449.34624 4552.00000
-340.13263 -2.68485 451.33688 4554.00000
-340.32594 -2.69517 453.32751 4556.00000
-340.51914 -2.70556 455.31813 4558.00000
-340.71233 -2.71607 457.30877 4560.00000
-340.90559 -2.72671 459.29941 4562.00000
-341.09893 -2.73752 461.29004 4564.00000
-341.29235 -2.74853 463.28063 4566.00000
-341.48581 -2.75974 465.27123 4568.00000
-341.67922 -2.77118 467.26184 4570.00000
-341.87254 -2.78289 469.25245 4572.00000
-342.06572 -2.79491 471.24307 4574.00000
-342.25875 -2.80726 473.23372 4576.00000
-342.45173 -2.81988 475.22438 4578.00000
-342.64497 -2.83260 477.21503 4580.00000
-342.83900 -2.84520 479.20558 4582.00000
-343.03442 -2.85745 481.19598 4584.00000
-343.23120 -2.86922 483.18621 4586.00000
-343.42871 -2.88050 485.17635 4588.00000
-343.62674 -2.89138 487.16645 4590.00000
-343.82582 -2.90206 489.15648 4592.00000
-344.02702 -2.91275 491.14633 4594.00000
-344.23121 -2.92363 493.13591 4596.00000
-344.43864 -2.93476 495.12514 4598.00000
-344.64898 -2.94614 497.11405 4600.00000
-344.86133 -2.95768 499.10274 4602.00000
-345.07461 -2.96928 501.09133 4604.00000
-345.28808 -2.98085 503.07988 4606.00000
-345.50147 -2.99233 505.06842 4608.00000
-345.71475 -3.00366 507.05699 4610.00000
-345.92796 -3.01487 509.04559 4612.00000
-346.14118 -3.02596 511.03421 4614.00000
-346.35456 -3.03695 513.02281 4616.00000
-346.56834 -3.04786 515.01135 4618.00000
-346.78293 -3.05872 516.99978 4620.00000
-346.99892 -3.06952 518.98802 4622.00000
-347.21741 -3.08028 520.97596 4624.00000
-347.44038 -3.09105 522.96343 4626.00000
-347.67035 -3.10189 524.95014 4628.00000
-347.90839 -3.11282 526.93593 4630.00000
-348.15274 -3.12386 528.92095 4632.00000
-348.40032 -3.13506 530.90560 4634.00000
-348.64888 -3.14638 532.89014 4636.00000
-348.89718 -3.15779 534.87470 4638.00000
-349.14434 -3.16926 536.85939 4640.00000
-349.38940 -3.18080 538.84431 4642.00000
-349.63085 -3.19241 540.82965 4644.00000
-349.86599 -3.20409 542.81573 4646.00000
-350.09135 -3.21580 544.80291 4648.00000
-350.30519 -3.22749 546.79135 4650.00000
-350.50945 -3.23911 548.78083 4652.00000
-350.70839 -3.25063 550.77087 4654.00000
-350.90566 -3.26207 552.76110 4656.00000
-351.10318 -3.27342 554.75136 4658.00000
-351.30154 -3.28473 556.74160 4660.00000
-351.50057 -3.29600 558.73177 4662.00000
-351.69990 -3.30724 560.72186 4664.00000
-351.89928 -3.31846 562.71189 4666.00000
-352.09864 -3.32967 564.70193 4668.00000
-352.29798 -3.34092 566.69201 4670.00000
-352.49738 -3.35228 568.68209 4672.00000
-352.69694 -3.36384 570.67212 4674.00000
-352.89674 -3.37566 572.66208 4676.00000
-353.09682 -3.38774 574.65201 4678.00000
-353.29712 -3.39997 576.64193 4680.00000
-353.49751 -3.41214 578.63184 4682.00000
-353.69796 -3.42405 580.62178 4684.00000
-353.89851 -3.43550 582.61175 4686.00000
-354.09926 -3.44642 584.60169 4688.00000
-354.30039 -3.45686 586.59159 4690.00000
-354.50218 -3.46694 588.58136 4692.00000
-354.70502 -3.47687 590.57097 4694.00000
-354.90942 -3.48681 592.56041 4696.00000
-355.11570 -3.49686 594.54967 4698.00000
-355.32357 -3.50704 596.53877 4700.00000
-355.53244 -3.51735 598.52776 4702.00000
-355.74190 -3.52776 600.51673 4704.00000
-355.95164 -3.53826 602.50566 4706.00000
-356.16143 -3.54885 604.49457 4708.00000
-356.37119 -3.55951 606.48348 4710.00000
-356.58091 -3.57026 608.47238 4712.00000
-356.79063 -3.58107 610.46132 4714.00000
-357.00039 -3.59192 612.45026 4716.00000
-357.21021 -3.60279 614.43918 4718.00000
-357.42013 -3.61367 616.42807 4720.00000
-357.63024 -3.62456 618.41692 4722.00000
-357.84072 -3.63545 620.40572 4724.00000
-358.05183 -3.64636 622.39448 4726.00000
-358.26378 -3.65728 624.38315 4728.00000
-358.47653 -3.66822 626.37174 4730.00000
-358.68987 -3.67916 628.36025 4732.00000
-358.90352 -3.69013 630.34872 4734.00000
-359.11728 -3.70114 632.33714 4736.00000
-359.33106 -3.71220 634.32554 4738.00000
-359.54482 -3.72335 636.31395 4740.00000
-359.75857 -3.73459 638.30239 4742.00000
-359.97230 -3.74593 640.29086 4744.00000
-360.18605 -3.75740 642.27931 4746.00000
-360.39982 -3.76901 644.26771 4748.00000
-360.61364 -3.78085 646.25612 4750.00000
-360.82750 -3.79300 648.24452 4752.00000
-361.04142 -3.80557 650.23296 4754.00000
-361.25541 -3.81854 652.22151 4756.00000
-361.46949 -3.83180 654.21033 4758.00000
-361.68370 -3.84504 656.19950 4760.00000
-361.89804 -3.85788 658.18890 4762.00000
-362.11250 -3.86997 660.17841 4764.00000
-362.32707 -3.88107 662.16797 4766.00000
-362.54169 -3.89123 664.15751 4768.00000
-362.75634 -3.90065 666.14703 4770.00000
-362.97097 -3.90976 668.13657 4772.00000
-363.18556 -3.91894 670.12615 4774.00000
-363.40009 -3.92847 672.11574 4776.00000
-363.61456 -3.93847 674.10532 4778.00000
-363.82900 -3.94891 676.09489 4780.00000
-364.04341 -3.95970 678.08445 4782.00000
-364.25780 -3.97071 680.07402 4784.00000
-364.47220 -3.98188 682.06359 4786.00000
-364.68658 -3.99317 684.05315 4788.00000
-364.90097 -4.00458 686.04270 4790.00000
-365.11536 -4.01610 688.03226 4792.00000
-365.32975 -4.02769 690.02188 4794.00000
-365.54415 -4.03935 692.01152 4796.00000
-365.75855 -4.05105 694.00116 4798.00000
-365.97296 -4.06279 695.99080 4800.00000
-366.18738 -4.07454 697.98042 4802.00000
-366.40182 -4.08625 699.97004 4804.00000
-366.61628 -4.09784 701.95964 4806.00000
