VERSION 0.7
FIELDS x y z lapdistance
SIZE 4 4 4 4
TYPE F F F F
COUNT 1 1 1 1
WIDTH 1177
HEIGHT 1
VIEWPOINT 0.525 -0.474 -0.478 -0.521 -622.177 -3.287 601.922
POINTS 1177
DATA ascii
633.58987 3.20134 -802.66828 2842.00000
633.75790 3.20298 -800.67150 2844.00000
633.92529 3.20457 -798.66440 2846.00000
634.09266 3.20611 -796.64319 2848.00000
634.26018 3.20762 -794.61169 2850.00000
634.42778 3.20904 -792.57633 2852.00000
634.59466 3.21035 -790.53929 2854.00000
634.75748 3.21121 -788.49511 2856.00000
634.90811 3.21103 -786.42984 2858.00000
635.03322 3.20912 -784.32849 2860.00000
635.11741 3.20545 -782.19251 2862.00000
635.14552 3.20071 -780.03797 2864.00000
635.09879 3.19547 -777.88224 2866.00000
634.95447 3.18980 -775.73896 2868.00000
634.69806 3.18360 -773.61412 2870.00000
634.33769 3.17721 -771.50087 2872.00000
633.89847 3.17130 -769.38230 2874.00000
633.39259 3.16575 -767.24916 2876.00000
632.80384 3.15955 -765.11099 2878.00000
632.10593 3.15206 -762.99090 2880.00000
631.28090 3.14360 -760.91687 2882.00000
630.32502 3.13522 -758.91471 2884.00000
629.24813 3.12836 -757.00145 2886.00000
628.06289 3.12405 -755.18207 2888.00000
626.77299 3.12229 -753.45007 2890.00000
625.37482 3.12183 -751.79460 2892.00000
623.86855 3.12093 -750.21054 2894.00000
622.26519 3.11818 -748.69757 2896.00000
620.58612 3.11318 -747.25388 2898.00000
618.85638 3.10668 -745.87611 2900.00000
617.10012 3.10042 -744.56067 2902.00000
615.33716 3.09639 -743.30460 2904.00000
613.57519 3.09464 -742.10482 2906.00000
611.80720 3.09329 -740.95398 2908.00000
610.02511 3.09038 -739.84378 2910.00000
608.22804 3.08475 -738.76622 2912.00000
606.42260 3.07658 -737.71297 2914.00000
604.62075 3.06680 -736.67589 2916.00000
602.83511 3.05626 -735.65077 2918.00000
601.07150 3.04545 -734.63694 2920.00000
599.32344 3.03418 -733.63158 2922.00000
597.58101 3.02183 -732.63154 2924.00000
595.83812 3.00746 -731.63516 2926.00000
594.09273 2.99027 -730.64167 2928.00000
592.34517 2.97006 -729.65044 2930.00000
590.59697 2.94743 -728.66084 2932.00000
588.85004 2.92373 -727.67261 2934.00000
587.10578 2.90066 -726.68580 2936.00000
585.36393 2.87959 -725.70020 2938.00000
583.62323 2.86116 -724.71531 2940.00000
581.88270 2.84516 -723.73084 2942.00000
580.14195 2.83079 -722.74667 2944.00000
578.40097 2.81707 -721.76268 2946.00000
576.65994 2.80324 -720.77869 2948.00000
574.91896 2.78894 -719.79456 2950.00000
573.17804 2.77424 -718.81034 2952.00000
571.43713 2.75934 -717.82622 2954.00000
569.69618 2.74443 -716.84243 2956.00000
567.95515 2.72957 -715.85917 2958.00000
566.21391 2.71467 -714.87648 2960.00000
564.47215 2.69978 -713.89423 2962.00000
562.72911 2.68495 -712.91206 2964.00000
560.98369 2.67023 -711.92948 2966.00000
559.23522 2.65563 -710.94636 2968.00000
557.48411 2.64097 -709.96370 2970.00000
555.73078 2.62615 -708.98318 2972.00000
553.97522 2.61101 -708.00647 2974.00000
552.21702 2.59581 -707.03502 2976.00000
550.45569 2.58075 -706.06987 2978.00000
548.69120 2.56631 -705.11107 2980.00000
546.92428 2.55282 -704.15733 2982.00000
545.15616 2.54031 -703.20669 2984.00000
543.38797 2.52859 -702.25784 2986.00000
541.62013 2.51707 -701.31038 2988.00000
539.85172 2.50512 -700.36379 2990.00000
538.08157 2.49240 -699.41706 2992.00000
536.31018 2.47912 -698.46963 2994.00000
534.53883 2.46567 -697.52191 2996.00000
532.76861 2.45264 -696.57641 2998.00000
530.99930 2.44030 -695.63836 3000.00000
529.22787 2.42869 -694.71411 3002.00000
527.45085 2.41771 -693.80700 3004.00000
525.66816 2.40727 -692.91376 3006.00000
523.88244 2.39738 -692.02721 3008.00000
522.09580 2.38809 -691.14242 3010.00000
520.30898 2.37942 -690.25778 3012.00000
518.52240 2.37144 -689.37311 3014.00000
516.73731 2.36422 -688.48811 3016.00000
514.95642 2.35786 -687.60187 3018.00000
513.18284 2.35235 -686.71326 3020.00000
511.41614 2.34743 -685.82119 3022.00000
509.64874 2.34276 -684.92476 3024.00000
507.87709 2.33803 -684.02454 3026.00000
506.10344 2.33318 -683.12010 3028.00000
504.33149 2.32834 -682.20892 3030.00000
502.56363 2.32358 -681.28888 3032.00000
500.79976 2.31895 -680.36109 3034.00000
499.03844 2.31441 -679.42846 3036.00000
497.27845 2.30993 -678.49327 3038.00000
495.51897 2.30546 -677.55707 3040.00000
493.75946 2.30091 -676.62085 3042.00000
491.99969 2.29618 -675.68481 3044.00000
490.23952 2.29133 -674.74846 3046.00000
488.47880 2.28665 -673.81078 3048.00000
486.71760 2.28270 -672.87080 3050.00000
484.95647 2.28011 -671.92813 3052.00000
483.19599 2.27931 -670.98292 3054.00000
481.43653 2.28054 -670.03545 3056.00000
479.67815 2.28361 -669.08595 3058.00000
477.92082 2.28809 -668.13458 3060.00000
476.16445 2.29337 -667.18140 3062.00000
474.40898 2.29895 -666.22648 3064.00000
472.65437 2.30455 -665.26987 3066.00000
470.90058 2.31006 -664.31166 3068.00000
469.14757 2.31546 -663.35190 3070.00000
467.39529 2.32069 -662.39066 3072.00000
465.64375 2.32558 -661.42798 3074.00000
463.89295 2.32994 -660.46389 3076.00000
462.14285 2.33368 -659.49844 3078.00000
460.39339 2.33675 -658.53174 3080.00000
458.64442 2.33923 -657.56403 3082.00000
456.89579 2.34118 -656.59568 3084.00000
455.14732 2.34270 -655.62702 3086.00000
453.39887 2.34379 -654.65828 3088.00000
451.65035 2.34448 -653.68962 3090.00000
449.90171 2.34479 -652.72113 3092.00000
448.15303 2.34474 -651.75287 3094.00000
446.40452 2.34448 -650.78494 3096.00000
444.65641 2.34412 -649.81746 3098.00000
442.90877 2.34380 -648.85047 3100.00000
441.16137 2.34360 -647.88385 3102.00000
439.41399 2.34353 -646.91747 3104.00000
437.66652 2.34359 -645.95125 3106.00000
435.91900 2.34377 -644.98503 3108.00000
434.17157 2.34410 -644.01856 3110.00000
432.42439 2.34462 -643.05150 3112.00000
430.67763 2.34538 -642.08364 3114.00000
428.93137 2.34635 -641.11485 3116.00000
427.18558 2.34748 -640.14511 3118.00000
425.44034 2.34866 -639.17433 3120.00000
423.69589 2.34980 -638.20209 3122.00000
421.95280 2.35083 -637.22734 3124.00000
420.21185 2.35172 -636.24860 3126.00000
418.47340 2.35248 -635.26527 3128.00000
416.73678 2.35310 -634.27855 3130.00000
415.00100 2.35354 -633.29033 3132.00000
413.26540 2.35376 -632.30189 3134.00000
411.52973 2.35373 -631.31374 3136.00000
409.79400 2.35344 -630.32591 3138.00000
408.05824 2.35293 -629.33827 3140.00000
406.32235 2.35224 -628.35059 3142.00000
404.58591 2.35146 -627.36250 3144.00000
402.84818 2.35064 -626.37368 3146.00000
401.10867 2.34981 -625.38437 3148.00000
399.36741 2.34897 -624.39586 3150.00000
397.62429 2.34812 -623.40974 3152.00000
395.87933 2.34728 -622.42683 3154.00000
394.13304 2.34646 -621.44649 3156.00000
392.38612 2.34568 -620.46747 3158.00000
390.63903 2.34496 -619.48883 3160.00000
388.89201 2.34428 -618.51010 3162.00000
387.14510 2.34366 -617.53115 3164.00000
385.39830 2.34306 -616.55197 3166.00000
383.65158 2.34248 -615.57261 3168.00000
381.90495 2.34190 -614.59308 3170.00000
380.15840 2.34132 -613.61341 3172.00000
378.41194 2.34074 -612.63361 3174.00000
376.66555 2.34017 -611.65365 3176.00000
374.91922 2.33959 -610.67352 3178.00000
373.17296 2.33903 -609.69321 3180.00000
371.42677 2.33848 -608.71273 3182.00000
369.68063 2.33793 -607.73208 3184.00000
367.93452 2.33739 -606.75126 3186.00000
366.18836 2.33686 -605.77040 3188.00000
364.44213 2.33633 -604.78980 3190.00000
362.69604 2.33578 -603.80992 3192.00000
360.95058 2.33519 -602.83132 3194.00000
359.20628 2.33457 -601.85447 3196.00000
357.46294 2.33399 -600.87942 3198.00000
355.71986 2.33359 -599.90584 3200.00000
353.97649 2.33356 -598.93342 3202.00000
352.23264 2.33408 -597.96184 3204.00000
350.48840 2.33523 -596.99079 3206.00000
348.74390 2.33703 -596.02000 3208.00000
346.99927 2.33945 -595.04936 3210.00000
345.25455 2.34242 -594.07881 3212.00000
343.50978 2.34595 -593.10828 3214.00000
341.76503 2.35006 -592.13767 3216.00000
340.02031 2.35478 -591.16697 3218.00000
338.27564 2.36008 -590.19617 3220.00000
336.53097 2.36584 -589.22529 3222.00000
334.78626 2.37182 -588.25436 3224.00000
333.04143 2.37777 -587.28342 3226.00000
331.29641 2.38350 -586.31257 3228.00000
329.55131 2.38891 -585.34180 3230.00000
327.80672 2.39397 -584.37067 3232.00000
326.06402 2.39875 -583.39804 3234.00000
324.32524 2.40335 -582.42185 3236.00000
322.59198 2.40793 -581.43952 3238.00000
320.86458 2.41266 -580.44878 3240.00000
319.14289 2.41767 -579.44830 3242.00000
317.42681 2.42300 -578.43746 3244.00000
315.71638 2.42857 -577.41600 3246.00000
314.01169 2.43432 -576.38381 3248.00000
312.31293 2.44016 -575.34080 3250.00000
310.62022 2.44606 -574.28690 3252.00000
308.93366 2.45191 -573.22206 3254.00000
307.25337 2.45760 -572.14619 3256.00000
305.57950 2.46298 -571.05915 3258.00000
303.91209 2.46794 -569.96101 3260.00000
302.25076 2.47249 -568.85247 3262.00000
300.59434 2.47670 -567.73555 3264.00000
298.94072 2.48050 -566.61366 3266.00000
297.28791 2.48355 -565.49003 3268.00000
295.63522 2.48560 -564.36609 3270.00000
293.98369 2.48740 -563.24186 3272.00000
292.33593 2.48971 -562.11744 3274.00000
290.69503 2.49218 -560.99442 3276.00000
289.06215 2.49526 -559.87433 3278.00000
287.43451 2.49903 -558.75657 3280.00000
285.80850 2.50229 -557.63993 3282.00000
284.18228 2.50404 -556.52314 3284.00000
282.55601 2.50382 -555.40448 3286.00000
280.93154 2.50158 -554.28119 3288.00000
279.31133 2.49761 -553.15001 3290.00000
277.69723 2.49273 -552.00869 3292.00000
276.09020 2.48819 -550.85628 3294.00000
274.49066 2.48527 -549.69264 3296.00000
272.89844 2.48437 -548.51843 3298.00000
271.31273 2.48489 -547.33528 3300.00000
269.73208 2.48605 -546.14554 3302.00000
268.15490 2.48729 -544.95176 3304.00000
266.57978 2.48778 -543.75626 3306.00000
265.00588 2.48664 -542.56047 3308.00000
263.43295 2.48386 -541.36467 3310.00000
261.86078 2.47995 -540.16814 3312.00000
260.28822 2.47547 -538.96951 3314.00000
258.71312 2.47050 -537.76701 3316.00000
257.13445 2.46496 -536.55967 3318.00000
255.55382 2.45864 -535.34819 3320.00000
253.97356 2.45128 -534.13322 3322.00000
252.39544 2.44277 -532.91467 3324.00000
250.82071 2.43308 -531.69184 3326.00000
249.25050 2.42225 -530.46344 3328.00000
247.68621 2.41042 -529.22766 3330.00000
246.12916 2.39754 -527.98278 3332.00000
244.58023 2.38358 -526.72776 3334.00000
243.03979 2.36846 -525.46224 3336.00000
241.50774 2.35201 -524.18646 3338.00000
239.98319 2.33407 -522.90166 3340.00000
238.46402 2.31462 -521.61050 3342.00000
236.94740 2.29376 -520.31643 3344.00000
235.43132 2.27171 -519.02194 3346.00000
233.91490 2.24860 -517.72805 3348.00000
232.39792 2.22452 -516.43508 3350.00000
230.88043 2.19943 -515.14299 3352.00000
229.36258 2.17329 -513.85175 3354.00000
227.84453 2.14601 -512.56130 3356.00000
226.32632 2.11747 -511.27157 3358.00000
224.80799 2.08760 -509.98230 3360.00000
223.28964 2.05644 -508.69319 3362.00000
221.77150 2.02422 -507.40396 3364.00000
220.25366 1.99122 -506.11447 3366.00000
218.73607 1.95768 -504.82475 3368.00000
217.21858 1.92364 -503.53499 3370.00000
215.70107 1.88895 -502.24532 3372.00000
214.18347 1.85339 -500.95582 3374.00000
212.66578 1.81672 -499.66650 3376.00000
211.14807 1.77884 -498.37727 3378.00000
209.63045 1.73979 -497.08801 3380.00000
208.11305 1.69978 -495.79866 3382.00000
206.59605 1.65906 -494.50925 3384.00000
205.07958 1.61786 -493.21991 3386.00000
203.56362 1.57629 -491.93058 3388.00000
202.04773 1.53434 -490.64077 3390.00000
200.53062 1.49193 -489.34909 3392.00000
199.01008 1.44883 -488.05321 3394.00000
197.48421 1.40478 -486.75079 3396.00000
195.95385 1.35958 -485.44193 3398.00000
194.42159 1.31319 -484.12905 3400.00000
192.88905 1.26571 -482.81469 3402.00000
191.35682 1.21742 -481.50021 3404.00000
189.82541 1.16875 -480.18553 3406.00000
188.29593 1.12013 -478.86917 3408.00000
186.77024 1.07187 -477.54866 3410.00000
185.24964 1.02406 -476.22222 3412.00000
183.73343 0.97665 -474.89048 3414.00000
182.21960 0.92944 -473.55570 3416.00000
180.70646 0.88203 -472.21981 3418.00000
179.19314 0.83411 -470.88384 3420.00000
177.67938 0.78533 -469.54807 3422.00000
176.16513 0.73568 -468.21237 3424.00000
174.65042 0.68527 -466.87651 3426.00000
173.13535 0.63441 -465.54040 3428.00000
171.62026 0.58341 -464.20427 3430.00000
170.10630 0.53265 -462.86910 3432.00000
168.59562 0.48249 -461.53674 3434.00000
167.09029 0.43314 -460.20898 3436.00000
165.58966 0.38442 -458.88536 3438.00000
164.09143 0.33600 -457.56397 3440.00000
162.59383 0.28746 -456.24331 3442.00000
161.09608 0.23863 -454.92271 3444.00000
159.59795 0.18942 -453.60215 3446.00000
158.09923 0.13987 -452.28208 3448.00000
156.59956 0.09009 -450.96322 3450.00000
155.09869 0.04020 -449.64602 3452.00000
153.59678 -0.00966 -448.33027 3454.00000
152.09432 -0.05944 -447.01531 3456.00000
150.59169 -0.10909 -445.70060 3458.00000
149.08896 -0.15861 -444.38606 3460.00000
147.58568 -0.20794 -443.07224 3462.00000
146.08086 -0.25699 -441.76034 3464.00000
144.57343 -0.30562 -440.45165 3466.00000
143.06302 -0.35379 -439.14659 3468.00000
141.55040 -0.40148 -437.84464 3470.00000
140.03725 -0.44877 -436.54501 3472.00000
138.52553 -0.49579 -435.24763 3474.00000
137.01660 -0.54261 -433.95284 3476.00000
135.51002 -0.58934 -432.66001 3478.00000
134.00449 -0.63607 -431.36803 3480.00000
132.49909 -0.68281 -430.07617 3482.00000
130.99345 -0.72962 -428.78415 3484.00000
129.48753 -0.77665 -427.49191 3486.00000
127.98138 -0.82416 -426.19949 3488.00000
126.47507 -0.87248 -424.90694 3490.00000
124.96861 -0.92189 -423.61429 3492.00000
123.46201 -0.97231 -422.32150 3494.00000
121.95528 -1.02339 -421.02855 3496.00000
120.44851 -1.07431 -419.73539 3498.00000
118.94179 -1.12432 -418.44188 3500.00000
117.43523 -1.17282 -417.14795 3502.00000
115.92888 -1.21971 -415.85365 3504.00000
114.42277 -1.26526 -414.55917 3506.00000
112.91678 -1.31001 -413.26464 3508.00000
111.41040 -1.35457 -411.96979 3510.00000
109.90245 -1.39933 -410.67362 3512.00000
108.39106 -1.44447 -409.37447 3514.00000
106.87514 -1.48994 -408.07130 3516.00000
105.35591 -1.53556 -406.76521 3518.00000
103.83529 -1.58112 -405.45793 3520.00000
102.31444 -1.62645 -404.15052 3522.00000
100.79386 -1.67145 -402.84326 3524.00000
99.27382 -1.71606 -401.53585 3526.00000
97.75474 -1.76030 -400.22763 3528.00000
96.23721 -1.80421 -398.91779 3530.00000
94.72173 -1.84793 -397.60571 3532.00000
93.20854 -1.89162 -396.29109 3534.00000
91.69772 -1.93545 -394.97381 3536.00000
90.18927 -1.97947 -393.65387 3538.00000
88.68320 -2.02343 -392.33124 3540.00000
87.17950 -2.06670 -391.00585 3542.00000
85.67815 -2.10840 -389.67772 3544.00000
84.17896 -2.14754 -388.34708 3546.00000
82.68146 -2.18351 -387.01442 3548.00000
81.18502 -2.21607 -385.68044 3550.00000
79.68909 -2.24566 -384.34579 3552.00000
78.19330 -2.27312 -383.01094 3554.00000
76.69742 -2.29940 -381.67613 3556.00000
75.20137 -2.32530 -380.34145 3558.00000
73.70515 -2.35119 -379.00691 3560.00000
72.20877 -2.37705 -377.67248 3562.00000
70.71226 -2.40248 -376.33808 3564.00000
69.21564 -2.42698 -375.00365 3566.00000
67.71889 -2.45012 -373.66910 3568.00000
66.22203 -2.47162 -372.33441 3570.00000
64.72515 -2.49148 -370.99967 3572.00000
63.22864 -2.50982 -369.66528 3574.00000
61.73330 -2.52690 -368.33209 3576.00000
60.24013 -2.54297 -367.00117 3578.00000
58.74935 -2.55824 -365.67283 3580.00000
57.26010 -2.57282 -364.34631 3582.00000
55.77142 -2.58667 -363.02068 3584.00000
54.28281 -2.59966 -361.69533 3586.00000
52.79411 -2.61156 -360.36998 3588.00000
51.30535 -2.62218 -359.04457 3590.00000
49.81658 -2.63145 -357.71916 3592.00000
48.32784 -2.63936 -356.39377 3594.00000
46.83913 -2.64604 -355.06846 3596.00000
45.35046 -2.65161 -353.74320 3598.00000
43.86180 -2.65620 -352.41802 3600.00000
42.37315 -2.65984 -351.09289 3602.00000
40.88451 -2.66253 -349.76783 3604.00000
39.39588 -2.66418 -348.44284 3606.00000
37.90727 -2.66473 -347.11793 3608.00000
36.41869 -2.66411 -345.79313 3610.00000
34.93009 -2.66230 -344.46844 3612.00000
33.44143 -2.65930 -343.14390 3614.00000
31.95265 -2.65513 -341.81958 3616.00000
30.46368 -2.64978 -340.49562 3618.00000
28.97441 -2.64323 -339.17206 3620.00000
27.48482 -2.63540 -337.84893 3622.00000
25.99489 -2.62630 -336.52624 3624.00000
24.50467 -2.61593 -335.20393 3626.00000
23.01423 -2.60438 -333.88194 3628.00000
21.52368 -2.59170 -332.56014 3630.00000
20.03309 -2.57801 -331.23848 3632.00000
18.54251 -2.56332 -329.91693 3634.00000
17.05201 -2.54768 -328.59550 3636.00000
15.56160 -2.53101 -327.27422 3638.00000
14.07118 -2.51328 -325.95304 3640.00000
12.58040 -2.49442 -324.63166 3642.00000
11.08848 -2.47443 -323.30936 3644.00000
9.59447 -2.45332 -321.98525 3646.00000
8.09812 -2.43123 -320.65911 3648.00000
6.60026 -2.40827 -319.33169 3650.00000
5.10181 -2.38457 -318.00380 3652.00000
3.60322 -2.36012 -316.67585 3654.00000
2.10468 -2.33485 -315.34798 3656.00000
0.60621 -2.30851 -314.02019 3658.00000
-0.89220 -2.28077 -312.69246 3660.00000
-2.39058 -2.25127 -311.36474 3662.00000
-3.88894 -2.21984 -310.03701 3664.00000
-5.38730 -2.18673 -308.70927 3666.00000
-6.88568 -2.15255 -307.38152 3668.00000
-8.38411 -2.11823 -306.05379 3670.00000
-9.88260 -2.08458 -304.72612 3672.00000
-11.38114 -2.05207 -303.39852 3674.00000
-12.87975 -2.02071 -302.07098 3676.00000
-14.37843 -1.99008 -300.74350 3678.00000
-15.87717 -1.95962 -299.41608 3680.00000
-17.37596 -1.92866 -298.08872 3682.00000
-18.87479 -1.89667 -296.76138 3684.00000
-20.37366 -1.86333 -295.43406 3686.00000
-21.87258 -1.82861 -294.10678 3688.00000
-23.37154 -1.79289 -292.77957 3690.00000
-24.87059 -1.75678 -291.45248 3692.00000
-26.36973 -1.72095 -290.12554 3694.00000
-27.86901 -1.68583 -288.79874 3696.00000
-29.36845 -1.65153 -287.47207 3698.00000
-30.86802 -1.61795 -286.14553 3700.00000
-32.36772 -1.58485 -284.81910 3702.00000
-33.86752 -1.55208 -283.49279 3704.00000
-35.36743 -1.51952 -282.16657 3706.00000
-36.86742 -1.48715 -280.84043 3708.00000
-38.36748 -1.45496 -279.51438 3710.00000
-39.86759 -1.42290 -278.18839 3712.00000
-41.36773 -1.39085 -276.86243 3714.00000
-42.86788 -1.35864 -275.53648 3716.00000
-44.36799 -1.32607 -274.21053 3718.00000
-45.86808 -1.29298 -272.88463 3720.00000
-47.36828 -1.25940 -271.55894 3722.00000
-48.86889 -1.22548 -270.23374 3724.00000
-50.37046 -1.19155 -268.90939 3726.00000
-51.87363 -1.15795 -267.58602 3728.00000
-53.37899 -1.12495 -266.26335 3730.00000
-54.88671 -1.09265 -264.94092 3732.00000
-56.39617 -1.06097 -263.61855 3734.00000
-57.90652 -1.02970 -262.29629 3736.00000
-59.41720 -0.99855 -260.97420 3738.00000
-60.92794 -0.96728 -259.65228 3740.00000
-62.43867 -0.93570 -258.33054 3742.00000
-63.94941 -0.90374 -257.00894 3744.00000
-65.46016 -0.87147 -255.68747 3746.00000
-66.97089 -0.83904 -254.36608 3748.00000
-68.48158 -0.80664 -253.04471 3750.00000
-69.99219 -0.77442 -251.72331 3752.00000
-71.50269 -0.74246 -250.40185 3754.00000
-73.01306 -0.71078 -249.08033 3756.00000
-74.52330 -0.67942 -247.75873 3758.00000
-76.03340 -0.64847 -246.43706 3760.00000
-77.54336 -0.61804 -245.11530 3762.00000
-79.05319 -0.58827 -243.79346 3764.00000
-80.56284 -0.55923 -242.47158 3766.00000
-82.07229 -0.53097 -241.14969 3768.00000
-83.58155 -0.50341 -239.82780 3770.00000
-85.09067 -0.47648 -238.50588 3772.00000
-86.59967 -0.45005 -237.18391 3774.00000
-88.10856 -0.42402 -235.86189 3776.00000
-89.61735 -0.39834 -234.53979 3778.00000
-91.12605 -0.37300 -233.21761 3780.00000
-92.63463 -0.34801 -231.89537 3782.00000
-94.14310 -0.32336 -230.57304 3784.00000
-95.65144 -0.29899 -229.25061 3786.00000
-97.15964 -0.27487 -227.92809 3788.00000
-98.66769 -0.25097 -226.60546 3790.00000
-100.17566 -0.22735 -225.28271 3792.00000
-101.68358 -0.20416 -223.95979 3794.00000
-103.19146 -0.18162 -222.63672 3796.00000
-104.69920 -0.15998 -221.31363 3798.00000
-106.20646 -0.13944 -219.99080 3800.00000
-107.71262 -0.12003 -218.66878 3802.00000
-109.21710 -0.10166 -217.34808 3804.00000
-110.72004 -0.08402 -216.02856 3806.00000
-112.22210 -0.06682 -214.70963 3808.00000
-113.72382 -0.04976 -213.39082 3810.00000
-115.22545 -0.03272 -212.07189 3812.00000
-116.72704 -0.01567 -210.75276 3814.00000
-118.22856 0.00137 -209.43341 3816.00000
-119.72996 0.01837 -208.11386 3818.00000
-121.23122 0.03532 -206.79409 3820.00000
-122.73229 0.05223 -205.47413 3822.00000
-124.23318 0.06908 -204.15398 3824.00000
-125.73394 0.08588 -202.83365 3826.00000
-127.23459 0.10262 -201.51317 3828.00000
-128.73516 0.11932 -200.19257 3830.00000
-130.23567 0.13601 -198.87187 3832.00000
-131.73612 0.15272 -197.55108 3834.00000
-133.23649 0.16943 -196.23019 3836.00000
-134.73675 0.18612 -194.90917 3838.00000
-136.23688 0.20274 -193.58799 3840.00000
-137.73685 0.21920 -192.26662 3842.00000
-139.23667 0.23544 -190.94508 3844.00000
-140.73641 0.25142 -189.62345 3846.00000
-142.23618 0.26715 -188.30187 3848.00000
-143.73617 0.28270 -186.98052 3850.00000
-145.23653 0.29814 -185.65951 3852.00000
-146.73742 0.31354 -184.33897 3854.00000
-148.23895 0.32897 -183.01916 3856.00000
-149.74118 0.34444 -181.70070 3858.00000
-151.24390 0.35998 -180.38463 3860.00000
-152.74668 0.37566 -179.07220 3862.00000
-154.24962 0.39158 -177.76427 3864.00000
-155.75372 0.40790 -176.46076 3866.00000
-157.26001 0.42471 -175.16123 3868.00000
-158.76890 0.44193 -173.86516 3870.00000
-160.28016 0.45921 -172.57189 3872.00000
-161.79305 0.47601 -171.28047 3874.00000
-163.30672 0.49172 -169.98996 3876.00000
-164.82058 0.50583 -168.69988 3878.00000
-166.33433 0.51826 -167.41009 3880.00000
-167.84784 0.52906 -166.12059 3882.00000
-169.36129 0.53864 -164.83105 3884.00000
-170.87558 0.54727 -163.54016 3886.00000
-172.39260 0.55524 -162.24527 3888.00000
-173.91451 0.56260 -160.94324 3890.00000
-175.44092 0.56937 -159.63338 3892.00000
-176.96883 0.57557 -158.31776 3894.00000
-178.49577 0.58124 -156.99855 3896.00000
-180.02073 0.58643 -155.67693 3898.00000
-181.54374 0.59113 -154.35326 3900.00000
-183.06508 0.59532 -153.02754 3902.00000
-184.58479 0.59903 -151.70000 3904.00000
-186.10210 0.60231 -150.37150 3906.00000
-187.61496 0.60529 -149.04384 3908.00000
-189.12071 0.60807 -147.71936 3910.00000
-190.61880 0.61070 -146.39857 3912.00000
-192.11169 0.61322 -145.07943 3914.00000
-193.60193 0.61563 -143.75975 3916.00000
-195.09061 0.61798 -142.43797 3918.00000
-196.57681 0.62019 -141.11291 3920.00000
-198.05731 0.62215 -139.78347 3922.00000
-199.52700 0.62371 -138.44922 3924.00000
-200.98126 0.62476 -137.11074 3926.00000
-202.42007 0.62524 -135.76692 3928.00000
-203.84722 0.62510 -134.41513 3930.00000
-205.26596 0.62428 -133.05580 3932.00000
-206.67683 0.62282 -131.69516 3934.00000
-208.07375 0.62072 -130.34207 3936.00000
-209.44378 0.61790 -128.99761 3938.00000
-210.77594 0.61413 -127.64700 3940.00000
-212.06086 0.60923 -126.27082 3942.00000
-213.28636 0.60327 -124.86096 3944.00000
-214.43519 0.59653 -123.42406 3946.00000
-215.48874 0.58935 -121.97595 3948.00000
-216.43924 0.58210 -120.52193 3950.00000
-217.29522 0.57533 -119.04717 3952.00000
-218.06306 0.56919 -117.53861 3954.00000
-218.74085 0.56385 -115.99419 3956.00000
-219.32522 0.55928 -114.41790 3958.00000
-219.81467 0.55505 -112.81240 3960.00000
-220.20790 0.55055 -111.17764 3962.00000
-220.50370 0.54524 -109.50601 3964.00000
-220.70329 0.53892 -107.77583 3966.00000
-220.81237 0.53158 -105.96768 3968.00000
-220.84168 0.52374 -104.09911 3970.00000
-220.80641 0.51620 -102.20260 3972.00000
-220.72664 0.50958 -100.29699 3974.00000
-220.62102 0.50418 -98.38249 3976.00000
-220.49216 0.49995 -96.44879 3978.00000
-220.33064 0.49653 -94.49264 3980.00000
-220.12832 0.49350 -92.52355 3982.00000
-219.88501 0.49059 -90.55162 3984.00000
-219.60891 0.48779 -88.58197 3986.00000
-219.31369 0.48528 -86.61514 3988.00000
-219.01182 0.48317 -84.64855 3990.00000
-218.71060 0.48125 -82.67756 3992.00000
-218.41535 0.47894 -80.69735 3994.00000
-218.13305 0.47543 -78.70738 3996.00000
-217.87024 0.47007 -76.71108 3998.00000
-217.62862 0.46239 -74.71188 4000.00000
-217.40694 0.45234 -72.71167 4002.00000
-217.20679 0.44002 -70.71011 4004.00000
-217.03488 0.42560 -68.70428 4006.00000
-216.89878 0.40903 -66.68896 4008.00000
-216.80205 0.39023 -64.65984 4010.00000
-216.74388 0.36920 -62.61890 4012.00000
-216.72150 0.34642 -60.57176 4014.00000
-216.73013 0.32291 -58.52314 4016.00000
-216.76356 0.30008 -56.47567 4018.00000
-216.81714 0.27938 -54.42955 4020.00000
-216.88959 0.26168 -52.38186 4022.00000
-216.98292 0.24727 -50.32593 4024.00000
-217.10164 0.23580 -48.25446 4026.00000
-217.25110 0.22678 -46.16796 4028.00000
-217.43807 0.21978 -44.07386 4030.00000
-217.67249 0.21462 -41.98014 4032.00000
-217.96411 0.21119 -39.89347 4034.00000
-218.31460 0.20936 -37.81908 4036.00000
-218.71567 0.20864 -35.76153 4038.00000
-219.15550 0.20817 -33.72589 4040.00000
-219.62570 0.20693 -31.71629 4042.00000
-220.12355 0.20389 -29.73034 4044.00000
-220.65093 0.19846 -27.76021 4046.00000
-221.21205 0.19056 -25.80071 4048.00000
-221.81358 0.18061 -23.85155 4050.00000
-222.46408 0.16944 -21.91563 4052.00000
-223.16899 0.15787 -19.99527 4054.00000
-223.92641 0.14657 -18.08912 4056.00000
-224.72712 0.13593 -16.19165 4058.00000
-225.55853 0.12609 -14.29736 4060.00000
-226.41312 0.11705 -12.40579 4062.00000
-227.29133 0.10880 -10.52026 4064.00000
-228.19715 0.10149 -8.64508 4066.00000
-229.13551 0.09537 -6.78471 4068.00000
-230.11083 0.09060 -4.94364 4070.00000
-231.12325 0.08687 -3.12455 4072.00000
-232.16666 0.08345 -1.32632 4074.00000
-233.23371 0.07904 0.45569 4076.00000
-234.32288 0.07216 2.22585 4078.00000
-235.43962 0.06169 3.98332 4080.00000
-236.59501 0.04694 5.72094 4082.00000
-237.80039 0.02815 7.42913 4084.00000
-239.05779 0.00612 9.10355 4086.00000
-240.36095 -0.01789 10.74718 4088.00000
-241.70312 -0.04286 12.36717 4090.00000
-243.07897 -0.06815 13.97112 4092.00000
-244.48408 -0.09354 15.56126 4094.00000
-245.91551 -0.11894 17.13515 4096.00000
-247.37148 -0.14413 18.68923 4098.00000
-248.85013 -0.16873 20.22069 4100.00000
-250.34757 -0.19226 21.72838 4102.00000
-251.85647 -0.21440 23.21305 4104.00000
-253.36693 -0.23506 24.67643 4106.00000
-254.87178 -0.25430 26.11981 4108.00000
-256.37420 -0.27232 27.54527 4110.00000
-257.88536 -0.28939 28.95332 4112.00000
-259.41688 -0.30558 30.33974 4114.00000
-260.97396 -0.32025 31.70109 4116.00000
-262.55187 -0.33231 33.03852 4118.00000
-264.13935 -0.34148 34.35063 4120.00000
-265.72062 -0.34818 35.62813 4122.00000
-267.28017 -0.35180 36.85902 4124.00000
-268.81911 -0.35295 38.04480 4126.00000
-270.35235 -0.35229 39.20235 4128.00000
-271.88879 -0.35010 40.35139 4130.00000
-273.42473 -0.34691 41.50866 4132.00000
-274.93969 -0.34352 42.68816 4134.00000
-276.39145 -0.34041 43.90152 4136.00000
-277.72499 -0.33750 45.15311 4138.00000
-278.90510 -0.33464 46.44641 4140.00000
-279.94838 -0.33244 47.79629 4142.00000
-280.89686 -0.33251 49.20460 4144.00000
-281.78115 -0.33631 50.65955 4146.00000
-282.61075 -0.34401 52.15294 4148.00000
-283.38946 -0.35464 53.68474 4150.00000
-284.12315 -0.36682 55.26370 4152.00000
-284.81160 -0.37928 56.89671 4154.00000
-285.44415 -0.39074 58.57602 4156.00000
-286.00734 -0.39977 60.28870 4158.00000
-286.49440 -0.40696 62.02398 4160.00000
-286.91314 -0.41440 63.77723 4162.00000
-287.28245 -0.42305 65.55663 4164.00000
-287.61833 -0.43309 67.38252 4166.00000
-287.92767 -0.44443 69.26105 4168.00000
-288.21596 -0.45670 71.17120 4170.00000
-288.49185 -0.46953 73.08974 4172.00000
-288.76318 -0.48272 75.00396 4174.00000
-289.03447 -0.49630 76.91196 4176.00000
-289.30756 -0.51037 78.82078 4178.00000
-289.58380 -0.52506 80.74457 4180.00000
-289.86437 -0.54034 82.69652 4182.00000
-290.14841 -0.55593 84.67395 4184.00000
-290.43397 -0.57144 86.66454 4186.00000
-290.71967 -0.58657 88.65901 4188.00000
-291.00496 -0.60114 90.65322 4190.00000
-291.28968 -0.61513 92.64578 4192.00000
-291.57374 -0.62860 94.63529 4194.00000
-291.85684 -0.64158 96.61930 4196.00000
-292.13875 -0.65402 98.59618 4198.00000
-292.41976 -0.66588 100.56778 4200.00000
-292.70028 -0.67716 102.53712 4202.00000
-292.98053 -0.68801 104.50603 4204.00000
-293.26053 -0.69873 106.47511 4206.00000
-293.54022 -0.70971 108.44435 4208.00000
-293.81962 -0.72131 110.41378 4210.00000
-294.09900 -0.73378 112.38433 4212.00000
-294.37882 -0.74707 114.35857 4214.00000
-294.65966 -0.76101 116.34014 4216.00000
-294.94172 -0.77524 118.33040 4218.00000
-295.22463 -0.78942 120.32643 4220.00000
-295.50787 -0.80330 122.32475 4222.00000
-295.79112 -0.81676 124.32339 4224.00000
-296.07422 -0.82978 126.32186 4226.00000
-296.35703 -0.84230 128.32019 4228.00000
-296.63939 -0.85423 130.31816 4230.00000
-296.92100 -0.86542 132.31465 4232.00000
-297.20160 -0.87572 134.30707 4234.00000
-297.48133 -0.88509 136.29213 4236.00000
-297.76147 -0.89364 138.26925 4238.00000
-298.04435 -0.90158 140.24132 4240.00000
-298.33160 -0.90920 142.21133 4242.00000
-298.62307 -0.91675 144.18100 4244.00000
-298.91722 -0.92438 146.15103 4246.00000
-299.21231 -0.93219 148.12160 4248.00000
-299.50745 -0.94018 150.09261 4250.00000
-299.80226 -0.94837 152.06395 4252.00000
-300.09624 -0.95680 154.03562 4254.00000
-300.38851 -0.96550 156.00765 4256.00000
-300.67784 -0.97449 157.98012 4258.00000
-300.96306 -0.98378 159.95320 4260.00000
-301.24343 -0.99333 161.92719 4262.00000
-301.51878 -1.00313 163.90290 4264.00000
-301.78929 -1.01314 165.88177 4266.00000
-302.05516 -1.02337 167.86487 4268.00000
-302.31632 -1.03383 169.85135 4270.00000
-302.57258 -1.04453 171.83961 4272.00000
-302.82384 -1.05555 173.82861 4274.00000
-303.07004 -1.06698 175.81793 4276.00000
-303.31119 -1.07890 177.80752 4278.00000
-303.54722 -1.09132 179.79747 4280.00000
-303.77806 -1.10421 181.78792 4282.00000
-304.00359 -1.11743 183.77890 4284.00000
-304.22391 -1.13084 185.77041 4286.00000
-304.43964 -1.14426 187.76240 4288.00000
-304.65219 -1.15754 189.75476 4290.00000
-304.86337 -1.17057 191.74728 4292.00000
-305.07445 -1.18331 193.73982 4294.00000
-305.28615 -1.19578 195.73226 4296.00000
-305.49911 -1.20801 197.72457 4298.00000
-305.71387 -1.22001 199.71668 4300.00000
-305.93031 -1.23183 201.70860 4302.00000
-306.14763 -1.24351 203.70043 4304.00000
-306.36517 -1.25505 205.69224 4306.00000
-306.58260 -1.26645 207.68405 4308.00000
-306.79987 -1.27769 209.67590 4310.00000
-307.01704 -1.28874 211.66782 4312.00000
-307.23417 -1.29962 213.65982 4314.00000
-307.45129 -1.31033 215.65185 4316.00000
-307.66832 -1.32083 217.64376 4318.00000
-307.88515 -1.33101 219.63509 4320.00000
-308.10159 -1.34071 221.62513 4322.00000
-308.31745 -1.34977 223.61349 4324.00000
-308.53268 -1.35816 225.60069 4326.00000
-308.74729 -1.36605 227.58739 4328.00000
-308.96135 -1.37393 229.57405 4330.00000
-309.17489 -1.38247 231.56089 4332.00000
-309.38782 -1.39246 233.54792 4334.00000
-309.60008 -1.40446 235.53510 4336.00000
-309.81160 -1.41859 237.52237 4338.00000
-310.02228 -1.43438 239.50970 4340.00000
-310.23198 -1.45102 241.49713 4342.00000
-310.44053 -1.46757 243.48467 4344.00000
-310.64785 -1.48322 245.47241 4346.00000
-310.85403 -1.49763 247.46029 4348.00000
-311.05937 -1.51074 249.44825 4350.00000
-311.26430 -1.52276 251.43625 4352.00000
-311.46910 -1.53389 253.42426 4354.00000
-311.67389 -1.54424 255.41223 4356.00000
-311.87867 -1.55385 257.40013 4358.00000
-312.08345 -1.56278 259.38795 4360.00000
-312.28826 -1.57115 261.37576 4362.00000
-312.49310 -1.57919 263.36359 4364.00000
-312.69799 -1.58712 265.35142 4366.00000
-312.90297 -1.59516 267.33920 4368.00000
-313.10804 -1.60344 269.32695 4370.00000
-313.31321 -1.61201 271.31468 4372.00000
-313.51847 -1.62090 273.30241 4374.00000
-313.72382 -1.63017 275.29015 4376.00000
-313.92927 -1.63988 277.27789 4378.00000
-314.13482 -1.65008 279.26565 4380.00000
-314.34047 -1.66076 281.25340 4382.00000
-314.54618 -1.67191 283.24109 4384.00000
-314.75193 -1.68348 285.22870 4386.00000
-314.95769 -1.69543 287.21629 4388.00000
-315.16347 -1.70778 289.20403 4390.00000
-315.36931 -1.72054 291.19224 4392.00000
-315.57523 -1.73370 293.18118 4394.00000
-315.78124 -1.74713 295.17071 4396.00000
-315.98732 -1.76063 297.16055 4398.00000
-316.19344 -1.77392 299.15049 4400.00000
-316.39962 -1.78680 301.14041 4402.00000
-316.60582 -1.79917 303.13029 4404.00000
-316.81205 -1.81114 305.12013 4406.00000
-317.01829 -1.82302 307.10996 4408.00000
-317.22454 -1.83522 309.09977 4410.00000
-317.43081 -1.84819 311.08956 4412.00000
-317.63708 -1.86221 313.07936 4414.00000
-317.84336 -1.87735 315.06918 4416.00000
-318.04963 -1.89343 317.05900 4418.00000
-318.25584 -1.91005 319.04882 4420.00000
-318.46197 -1.92677 321.03866 4422.00000
-318.66801 -1.94317 323.02849 4424.00000
-318.87394 -1.95897 325.01834 4426.00000
-319.07977 -1.97407 327.00821 4428.00000
-319.28553 -1.98852 328.99809 4430.00000
-319.49124 -2.00249 330.98801 4432.00000
-319.69696 -2.01613 332.97795 4434.00000
-319.90268 -2.02956 334.96786 4436.00000
-320.10842 -2.04283 336.95771 4438.00000
-320.31419 -2.05594 338.94753 4440.00000
-320.51998 -2.06885 340.93733 4442.00000
-320.72579 -2.08149 342.92706 4444.00000
-320.93161 -2.09376 344.91675 4446.00000
-321.13743 -2.10562 346.90644 4448.00000
-321.34326 -2.11703 348.89615 4450.00000
-321.54913 -2.12811 350.88589 4452.00000
-321.75504 -2.13910 352.87561 4454.00000
-321.96100 -2.15033 354.86530 4456.00000
-322.16704 -2.16208 356.85496 4458.00000
-322.37315 -2.17454 358.84463 4460.00000
-322.57931 -2.18768 360.83430 4462.00000
-322.78551 -2.20129 362.82397 4464.00000
-322.99173 -2.21501 364.81363 4466.00000
-323.19795 -2.22847 366.80329 4468.00000
-323.40419 -2.24136 368.79295 4470.00000
-323.61045 -2.25352 370.78264 4472.00000
-323.81672 -2.26494 372.77231 4474.00000
-324.02296 -2.27583 374.76201 4476.00000
-324.22909 -2.28644 376.75174 4478.00000
-324.43495 -2.29706 378.74147 4480.00000
-324.64035 -2.30794 380.73121 4482.00000
-324.84519 -2.31917 382.72100 4484.00000
-325.04943 -2.33079 384.71086 4486.00000
-325.25304 -2.34265 386.70084 4488.00000
-325.45603 -2.35461 388.69096 4490.00000
-325.65839 -2.36646 390.68120 4492.00000
-325.86008 -2.37804 392.67154 4494.00000
-326.06111 -2.38924 394.66199 4496.00000
-326.26148 -2.40005 396.65252 4498.00000
-326.46123 -2.41053 398.64310 4500.00000
-326.66050 -2.42081 400.63373 4502.00000
-326.85948 -2.43099 402.62439 4504.00000
-327.05838 -2.44118 404.61509 4506.00000
-327.25729 -2.45142 406.60583 4508.00000
-327.45623 -2.46174 408.59657 4510.00000
-327.65522 -2.47217 410.58729 4512.00000
-327.85426 -2.48278 412.57799 4514.00000
-328.05335 -2.49366 414.56872 4516.00000
-328.25251 -2.50488 416.55941 4518.00000
-328.45171 -2.51641 418.55005 4520.00000
-328.65094 -2.52818 420.54068 4522.00000
-328.85018 -2.53999 422.53134 4524.00000
-329.04941 -2.55166 424.52203 4526.00000
-329.24861 -2.56305 426.51274 4528.00000
-329.44779 -2.57406 428.50344 4530.00000
-329.64693 -2.58476 430.49414 4532.00000
-329.84605 -2.59522 432.48481 4534.00000
-330.04514 -2.60562 434.47540 4536.00000
-330.24422 -2.61609 436.46589 4538.00000
-330.44328 -2.62675 438.45625 4540.00000
-330.64233 -2.63767 440.44650 4542.00000
-330.84135 -2.64882 442.43663 4544.00000
-331.04036 -2.66008 444.42670 4546.00000
-331.23932 -2.67126 446.41677 4548.00000
-331.43825 -2.68215 448.40687 4550.00000
-331.63714 -2.69261 450.39699 4552.00000
-331.83599 -2.70259 452.38709 4554.00000
-332.03482 -2.71223 454.37720 4556.00000
-332.23364 -2.72176 456.36734 4558.00000
-332.43247 -2.73152 458.35751 4560.00000
-332.63133 -2.74177 460.34771 4562.00000
-332.83022 -2.75268 462.33788 4564.00000
-333.02921 -2.76425 464.32802 4566.00000
-333.22840 -2.77630 466.31811 4568.00000
-333.42792 -2.78859 468.30816 4570.00000
-333.62785 -2.80085 470.29818 4572.00000
-333.82820 -2.81288 472.28819 4574.00000
-334.02895 -2.82462 474.27815 4576.00000
-334.22999 -2.83607 476.26804 4578.00000
-334.43129 -2.84730 478.25789 4580.00000
-334.63302 -2.85835 480.24768 4582.00000
-334.83597 -2.86927 482.23733 4584.00000
-335.04195 -2.88006 484.22664 4586.00000
-335.25330 -2.89073 486.21537 4588.00000
-335.47111 -2.90133 488.20341 4590.00000
-335.69389 -2.91195 490.19090 4592.00000
-335.91905 -2.92269 492.17818 4594.00000
-336.14475 -2.93364 494.16547 4596.00000
-336.37030 -2.94483 496.15278 4598.00000
-336.59563 -2.95625 498.14011 4600.00000
-336.82076 -2.96781 500.12748 4602.00000
-337.04551 -2.97942 502.11489 4604.00000
-337.26934 -2.99100 504.10243 4606.00000
-337.49162 -3.00249 506.09013 4608.00000
-337.71194 -3.01385 508.07804 4610.00000
-337.93025 -3.02508 510.06618 4612.00000
-338.14688 -3.03620 512.05450 4614.00000
-338.36250 -3.04720 514.04294 4616.00000
-338.57779 -3.05810 516.03143 4618.00000
-338.79309 -3.06889 518.01995 4620.00000
-339.00849 -3.07959 520.00846 4622.00000
-339.22395 -3.09019 521.99695 4624.00000
-339.43944 -3.10073 523.98542 4626.00000
-339.65493 -3.11121 525.97388 4628.00000
-339.87036 -3.12166 527.96236 4630.00000
-340.08571 -3.13208 529.95080 4632.00000
-340.30112 -3.14247 531.93922 4634.00000
-340.51664 -3.15287 533.92765 4636.00000
-340.73217 -3.16329 535.91611 4638.00000
-340.94760 -3.17375 537.90463 4640.00000
-341.16303 -3.18428 539.89314 4642.00000
-341.37860 -3.19487 541.88159 4644.00000
-341.59425 -3.20554 543.86999 4646.00000
-341.80983 -3.21637 545.85839 4648.00000
-342.02529 -3.22744 547.84680 4650.00000
-342.24075 -3.23885 549.83517 4652.00000
-342.45626 -3.25065 551.82350 4654.00000
-342.67181 -3.26278 553.81185 4656.00000
-342.88740 -3.27508 555.80020 4658.00000
-343.10303 -3.28729 557.78855 4660.00000
-343.31864 -3.29909 559.77688 4662.00000
-343.53421 -3.31026 561.76520 4664.00000
-343.74972 -3.32075 563.75352 4666.00000
-343.96522 -3.33067 565.74186 4668.00000
-344.18072 -3.34034 567.73024 4670.00000
-344.39628 -3.35014 569.71864 4672.00000
-344.61189 -3.36043 571.70702 4674.00000
-344.82755 -3.37142 573.69536 4676.00000
-345.04326 -3.38314 575.68368 4678.00000
-345.25900 -3.39543 577.67198 4680.00000
-345.47474 -3.40798 579.66026 4682.00000
-345.69049 -3.42053 581.64855 4684.00000
-345.90623 -3.43288 583.63688 4686.00000
-346.12195 -3.44495 585.62523 4688.00000
-346.33765 -3.45675 587.61355 4690.00000
-346.55328 -3.46830 589.60186 4692.00000
-346.76889 -3.47961 591.59020 4694.00000
-346.98445 -3.49067 593.57856 4696.00000
-347.19996 -3.50143 595.56694 4698.00000
-347.41539 -3.51191 597.55530 4700.00000
-347.63058 -3.52215 599.54366 4702.00000
-347.84539 -3.53223 601.53209 4704.00000
-348.05975 -3.54225 603.52063 4706.00000
-348.27353 -3.55227 605.50925 4708.00000
-348.48641 -3.56233 607.49796 4710.00000
-348.69773 -3.57244 609.48683 4712.00000
-348.90682 -3.58263 611.47594 4714.00000
-349.11329 -3.59294 613.46533 4716.00000
-349.31702 -3.60343 615.45504 4718.00000
-349.51801 -3.61413 617.44507 4720.00000
-349.71635 -3.62504 619.43543 4722.00000
-349.91235 -3.63611 621.42607 4724.00000
-350.10654 -3.64726 623.41693 4726.00000
-350.29959 -3.65842 625.40794 4728.00000
-350.49188 -3.66950 627.39900 4730.00000
-350.68349 -3.68051 629.39013 4732.00000
-350.87440 -3.69141 631.38132 4734.00000
-351.06460 -3.70221 633.37258 4736.00000
-351.25413 -3.71287 635.36393 4738.00000
-351.44311 -3.72335 637.35537 4740.00000
-351.63178 -3.73358 639.34684 4742.00000
-351.82029 -3.74357 641.33834 4744.00000
-352.00873 -3.75335 643.32985 4746.00000
-352.19720 -3.76301 645.32136 4748.00000
-352.38575 -3.77270 647.31286 4750.00000
-352.57442 -3.78253 649.30438 4752.00000
-352.76313 -3.79260 651.29585 4754.00000
-352.95189 -3.80293 653.28715 4756.00000
-353.14074 -3.81347 655.27811 4758.00000
-353.32989 -3.82417 657.26861 4760.00000
-353.51963 -3.83497 659.25872 4762.00000
-353.71018 -3.84583 661.24862 4764.00000
-353.90185 -3.85674 663.23836 4766.00000
-354.09556 -3.86770 665.22787 4768.00000
-354.29254 -3.87872 667.21704 4770.00000
-354.49268 -3.88980 669.20584 4772.00000
-354.69443 -3.90092 671.19446 4774.00000
-354.89658 -3.91209 673.18303 4776.00000
-355.09869 -3.92328 675.17156 4778.00000
-355.30089 -3.93450 677.16007 4780.00000
-355.50347 -3.94575 679.14856 4782.00000
-355.70650 -3.95703 681.13705 4784.00000
-355.90978 -3.96832 683.12552 4786.00000
-356.11310 -3.97963 685.11395 4788.00000
-356.31642 -3.99095 687.10234 4790.00000
-356.51975 -4.00229 689.09076 4792.00000
-356.72313 -4.01363 691.07918 4794.00000
-356.92659 -4.02497 693.06758 4796.00000
-357.13013 -4.03632 695.05592 4798.00000
-357.33364 -4.04766 697.04428 4800.00000
-357.53710 -4.05901 699.03267 4802.00000
-357.74063 -4.07035 701.02108 4804.00000
-357.94452 -4.08168 703.00945 4806.00000
-358.14922 -4.09302 704.99771 4808.00000
-358.35534 -4.10434 706.98578 4810.00000
-358.56386 -4.11567 708.97358 4812.00000
-358.77580 -4.12699 710.96103 4814.00000
-358.99145 -4.13831 712.94809 4816.00000
-359.21023 -4.14961 714.93484 4818.00000
-359.43098 -4.16090 716.92143 4820.00000
-359.65250 -4.17217 718.90793 4822.00000
-359.87409 -4.18343 720.89439 4824.00000
-360.09554 -4.19468 722.88084 4826.00000
-360.31688 -4.20594 724.86733 4828.00000
-360.53818 -4.21727 726.85389 4830.00000
-360.75951 -4.22867 728.84048 4832.00000
-360.98088 -4.24018 730.82704 4834.00000
-361.20224 -4.25178 732.81357 4836.00000
-361.42340 -4.26340 734.80010 4838.00000
-361.64394 -4.27497 736.78673 4840.00000
-361.86331 -4.28641 738.77353 4842.00000
-362.08141 -4.29763 740.76049 4844.00000
-362.29874 -4.30863 742.74752 4846.00000
-362.51577 -4.31945 744.73458 4848.00000
-362.73270 -4.33019 746.72163 4850.00000
-362.94948 -4.34097 748.70868 4852.00000
-363.16593 -4.35188 750.69577 4854.00000
-363.38187 -4.36300 752.68293 4856.00000
-363.59726 -4.37432 754.67015 4858.00000
-363.81231 -4.38578 756.65742 4860.00000
-364.02722 -4.39725 758.64472 4862.00000
-364.24214 -4.40858 760.63204 4864.00000
-364.45711 -4.41969 762.61935 4866.00000
-364.67217 -4.43057 764.60666 4868.00000
-364.88735 -4.44126 766.59393 4870.00000
-365.10267 -4.45185 768.58119 4872.00000
-365.31801 -4.46242 770.56844 4874.00000
-365.53292 -4.47304 772.55576 4876.00000
-365.74652 -4.48374 774.54327 4878.00000
-365.95774 -4.49452 776.53101 4880.00000
-366.16571 -4.50539 778.51903 4882.00000
-366.37010 -4.51635 780.50739 4884.00000
-366.57135 -4.52744 782.49608 4886.00000
-366.77052 -4.53870 784.48494 4888.00000
-366.96859 -4.55014 786.47389 4890.00000
-367.16611 -4.56176 788.46290 4892.00000
-367.36339 -4.57349 790.45195 4894.00000
-367.56060 -4.58526 792.44101 4896.00000
-367.75779 -4.59699 794.43009 4898.00000
-367.95496 -4.60862 796.41917 4900.00000
-368.15210 -4.62014 798.40821 4902.00000
-368.34921 -4.63155 800.39720 4904.00000
-368.54631 -4.64291 802.38618 4906.00000
-368.74341 -4.65429 804.37517 4908.00000
-368.94051 -4.66573 806.36419 4910.00000
-369.13763 -4.67728 808.35324 4912.00000
-369.33477 -4.68893 810.34228 4914.00000
-369.53192 -4.70065 812.33128 4916.00000
-369.72908 -4.71235 814.32022 4918.00000
-369.92627 -4.72390 816.30913 4920.00000
-370.12349 -4.73523 818.29806 4922.00000
-370.32074 -4.74625 820.28701 4924.00000
-370.51801 -4.75697 822.27598 4926.00000
-370.71528 -4.76742 824.26499 4928.00000
-370.91252 -4.77771 826.25402 4930.00000
-371.10971 -4.78792 828.24300 4932.00000
-371.30683 -4.79813 830.23197 4934.00000
-371.50389 -4.80836 832.22095 4936.00000
-371.70090 -4.81864 834.20993 4938.00000
-371.89787 -4.82899 836.19887 4940.00000
-372.09481 -4.83944 838.18776 4942.00000
-372.29176 -4.85007 840.17666 4944.00000
-372.48873 -4.86096 842.16556 4946.00000
-372.68572 -4.87213 844.15446 4948.00000
-372.88272 -4.88358 846.14335 4950.00000
-373.07974 -4.89523 848.13227 4952.00000
-373.27678 -4.90697 850.12129 4954.00000
-373.47381 -4.91871 852.11052 4956.00000
-373.67081 -4.93036 854.10013 4958.00000
-373.86775 -4.94189 856.09007 4960.00000
-374.06471 -4.95328 858.08019 4962.00000
-374.26211 -4.96456 860.07032 4964.00000
-374.46083 -4.97571 862.06035 4966.00000
-374.66208 -4.98675 864.05015 4968.00000
-374.86743 -4.99768 866.03958 4970.00000
-375.07883 -5.00851 868.02845 4972.00000
-375.29762 -5.01925 870.01663 4974.00000
-375.52308 -5.02994 872.00421 4976.00000
-375.75264 -5.04061 873.99147 4978.00000
-375.98359 -5.05130 875.97865 4980.00000
-376.21437 -5.06207 877.96583 4982.00000
-376.44454 -5.07290 879.95303 4984.00000
-376.67398 -5.08375 881.94031 4986.00000
-376.90223 -5.09456 883.92769 4988.00000
-377.12870 -5.10524 885.91518 4990.00000
-377.35353 -5.11578 887.90283 4992.00000
-377.57735 -5.12614 889.89061 4994.00000
-377.79979 -5.13634 891.87850 4996.00000
-378.01848 -5.14636 893.86670 4998.00000
-378.22952 -5.15617 895.85554 5000.00000
-378.43000 -5.16572 897.84532 5002.00000
-378.62053 -5.17495 899.83602 5004.00000
-378.80509 -5.18387 901.82729 5006.00000
-378.98798 -5.19254 903.81873 5008.00000
-379.17176 -5.20106 905.81010 5010.00000
-379.35786 -5.20958 907.80124 5012.00000
-379.54762 -5.21822 909.79204 5014.00000
-379.74193 -5.22711 911.78242 5016.00000
-379.93990 -5.23622 913.77249 5018.00000
-380.13974 -5.24545 915.76242 5020.00000
-380.34025 -5.25467 917.75230 5022.00000
-380.54079 -5.26375 919.74219 5024.00000
-380.74117 -5.27265 921.73207 5026.00000
-380.94145 -5.28136 923.72193 5028.00000
-381.14157 -5.28988 925.71184 5030.00000
-381.34153 -5.29822 927.70179 5032.00000
-381.54141 -5.30638 929.69173 5034.00000
-381.74141 -5.31432 931.68162 5036.00000
-381.94163 -5.32204 933.67146 5038.00000
-382.14206 -5.32951 935.66126 5040.00000
-382.34253 -5.33670 937.65101 5042.00000
-382.54254 -5.34357 939.64072 5044.00000
-382.74132 -5.35010 941.63049 5046.00000
-382.93813 -5.35635 943.62075 5048.00000
-383.13335 -5.36244 945.61243 5050.00000
-383.32872 -5.36846 947.60668 5052.00000
-383.52572 -5.37438 949.60371 5054.00000
-383.72504 -5.38017 951.60230 5056.00000
-383.92681 -5.38575 953.60128 5058.00000
-384.13082 -5.39107 955.60010 5060.00000
-384.33696 -5.39613 957.59862 5062.00000
-384.54531 -5.40094 959.59683 5064.00000
-384.75616 -5.40550 961.59473 5066.00000
-384.96970 -5.40979 963.59241 5068.00000
-385.18540 -5.41369 965.59010 5070.00000
-385.40111 -5.41706 967.58808 5072.00000
-385.61223 -5.41988 969.58643 5074.00000
-385.81246 -5.42211 971.58430 5076.00000
-385.99725 -5.42377 973.57937 5078.00000
-386.16862 -5.42507 975.56857 5080.00000
-386.33424 -5.42645 977.55163 5082.00000
-386.50042 -5.42820 979.53085 5084.00000
-386.67001 -5.43052 981.50816 5086.00000
-386.84351 -5.43356 983.48453 5088.00000
-387.02028 -5.43735 985.46066 5090.00000
-387.19958 -5.44177 987.43824 5092.00000
-387.38104 -5.44666 989.42089 5094.00000
-387.56452 -5.45187 991.41307 5096.00000
-387.74964 -5.45728 993.41520 5098.00000
-387.93572 -5.46266 995.42286 5100.00000
-388.12211 -5.46777 997.43177 5102.00000
-388.30851 -5.47249 999.43984 5104.00000
-388.49569 -5.47674 1001.44755 5106.00000
-388.68685 -5.48050 1003.45878 5108.00000
-388.88823 -5.48394 1005.48115 5110.00000
-389.10690 -5.48748 1007.52258 5112.00000
-389.34417 -5.49173 1009.58219 5114.00000
-389.59539 -5.49718 1011.65125 5116.00000
-389.85882 -5.50388 1013.72158 5118.00000
-390.13763 -5.51137 1015.78807 5120.00000
-390.43600 -5.51894 1017.84828 5122.00000
-390.75989 -5.52605 1019.90138 5124.00000
-391.11982 -5.53253 1021.94786 5126.00000
-391.52704 -5.53841 1023.98980 5128.00000
-391.98726 -5.54381 1026.02825 5130.00000
-392.49975 -5.54887 1028.06057 5132.00000
-393.06046 -5.55376 1030.08316 5134.00000
-393.66506 -5.55864 1032.09272 5136.00000
-394.31072 -5.56357 1034.08632 5138.00000
-394.99578 -5.56855 1036.06161 5140.00000
-395.71943 -5.57349 1038.01780 5142.00000
-396.48183 -5.57826 1039.95690 5144.00000
-397.28446 -5.58268 1041.88345 5146.00000
-398.12970 -5.58659 1043.80037 5148.00000
-399.02144 -5.58994 1045.70494 5150.00000
-399.96708 -5.59287 1047.58905 5152.00000
-400.97687 -5.59573 1049.44118 5154.00000
-402.05879 -5.59895 1051.25083 5156.00000
-403.21146 -5.60269 1053.01491 5158.00000
-404.42459 -5.60680 1054.74041 5160.00000
-405.69195 -5.61118 1056.43683 5162.00000
-407.01655 -5.61601 1058.10634 5164.00000
-408.39668 -5.62133 1059.74716 5166.00000
-409.82111 -5.62677 1061.36105 5168.00000
-411.27897 -5.63212 1062.94976 5170.00000
-412.76257 -5.63731 1064.51415 5172.00000
-414.26607 -5.64235 1066.05554 5174.00000
-415.78668 -5.64730 1067.57480 5176.00000
-417.32582 -5.65229 1069.07164 5178.00000
-418.88933 -5.65754 1070.54383 5180.00000
-420.48501 -5.66325 1071.98566 5182.00000
-422.11938 -5.66938 1073.38761 5184.00000
-423.79617 -5.67561 1074.73846 5186.00000
-425.51424 -5.68155 1076.03045 5188.00000
-427.26616 -5.68667 1077.26382 5190.00000
-429.04172 -5.69077 1078.44373 5192.00000
-430.83368 -5.69394 1079.57333 5194.00000
