VERSION 0.7
FIELDS x y z time arclength lapdistance
SIZE 4 4 4 4 4 4
TYPE F F F F F F
COUNT 1 1 1 1 1 1
WIDTH 877
HEIGHT 1
VIEWPOINT 0.000 0.000 0.000 1.000 -170.218 0.688 -204.899
POINTS 877
DATA ascii
-442.8968 3.3888 -794.2211 23.3671 1444.5883 1455.6543
-442.1014 3.3920 -795.2075 23.3837 1445.8553 1456.9492
-441.3018 3.3946 -796.1912 23.4004 1447.1232 1458.2461
-440.4977 3.3967 -797.1728 23.4171 1448.3920 1459.5430
-439.6895 3.3983 -798.1516 23.4337 1449.6613 1460.8398
-438.8771 3.3996 -799.1276 23.4504 1450.9313 1462.1387
-438.0603 3.4006 -800.1011 23.4671 1452.2019 1463.4375
-437.2392 3.4014 -801.0719 23.4837 1453.4735 1464.7363
-436.4138 3.4019 -802.0400 23.5004 1454.7457 1466.0371
-435.5842 3.4020 -803.0054 23.5171 1456.0186 1467.3379
-434.7503 3.4018 -803.9683 23.5337 1457.2924 1468.6445
-433.9123 3.4011 -804.9283 23.5504 1458.5667 1469.9590
-433.0700 3.3998 -805.8856 23.5671 1459.8418 1471.2734
-432.2234 3.3982 -806.8402 23.5837 1461.1177 1472.5859
-431.3726 3.3962 -807.7919 23.6004 1462.3943 1473.9004
-430.5174 3.3941 -808.7405 23.6171 1463.6715 1475.2129
-429.6577 3.3923 -809.6862 23.6337 1464.9495 1476.5254
-428.7937 3.3910 -810.6288 23.6504 1466.2281 1477.8379
-427.9252 3.3904 -811.5682 23.6671 1467.5076 1479.1523
-427.0523 3.3905 -812.5043 23.6837 1468.7875 1480.4648
-426.1751 3.3912 -813.4373 23.7004 1470.0681 1481.7793
-425.2934 3.3924 -814.3671 23.7171 1471.3495 1483.0938
-424.4073 3.3938 -815.2936 23.7337 1472.6315 1484.4102
-423.5169 3.3953 -816.2168 23.7504 1473.9142 1485.7246
-422.6221 3.3969 -817.1368 23.7671 1475.1975 1487.0430
-421.7230 3.3986 -818.0534 23.7837 1476.4814 1488.3613
-420.8196 3.4002 -818.9667 23.8004 1477.7661 1489.6816
-419.9120 3.4019 -819.8768 23.8171 1479.0514 1491.0020
-419.0001 3.4035 -820.7836 23.8337 1480.3374 1492.2988
-418.0840 3.4051 -821.6870 23.8504 1481.6240 1493.5918
-417.1638 3.4066 -822.5872 23.8671 1482.9113 1494.8848
-416.2395 3.4082 -823.4840 23.8837 1484.1992 1496.1777
-415.3109 3.4098 -824.3775 23.9004 1485.4878 1497.4707
-414.3782 3.4116 -825.2677 23.9171 1486.7771 1498.7656
-413.4414 3.4136 -826.1545 23.9338 1488.0671 1500.0625
-412.5006 3.4157 -827.0378 23.9504 1489.3577 1501.3594
-411.5556 3.4180 -827.9178 23.9671 1490.6489 1502.6562
-410.6065 3.4202 -828.7943 23.9838 1491.9408 1503.9531
-409.6533 3.4224 -829.6672 24.0004 1493.2333 1505.2539
-408.6961 3.4246 -830.5366 24.0171 1494.5265 1506.5527
-407.7348 3.4268 -831.4025 24.0338 1495.8202 1507.8535
-406.7695 3.4292 -832.2650 24.0504 1497.1147 1509.1562
-405.8002 3.4318 -833.1238 24.0671 1498.4098 1510.4590
-404.8271 3.4347 -833.9794 24.0838 1499.7054 1511.7617
-403.8501 3.4379 -834.8315 24.1004 1501.0020 1513.0664
-402.8693 3.4415 -835.6803 24.1171 1502.2990 1514.3730
-401.8848 3.4456 -836.5256 24.1338 1503.5967 1515.6797
-400.8965 3.4502 -837.3676 24.1504 1504.8949 1516.9863
-399.9045 3.4553 -838.2059 24.1671 1506.1937 1518.2930
-398.9087 3.4606 -839.0408 24.1838 1507.4932 1519.6016
-397.9091 3.4661 -839.8720 24.2004 1508.7932 1520.9082
-396.9058 3.4717 -840.6997 24.2171 1510.0939 1522.2168
-395.8987 3.4775 -841.5237 24.2338 1511.3953 1523.5254
-394.8877 3.4833 -842.3441 24.2504 1512.6971 1524.8359
-393.8731 3.4891 -843.1607 24.2671 1513.9996 1526.1465
-392.8549 3.4946 -843.9736 24.2838 1515.3025 1527.4570
-391.8329 3.4998 -844.7827 24.3004 1516.6061 1528.7676
-390.8073 3.5045 -845.5883 24.3171 1517.9102 1530.0801
-389.7779 3.5088 -846.3900 24.3338 1519.2150 1531.3926
-388.7449 3.5131 -847.1880 24.3504 1520.5204 1532.7051
-387.7083 3.5176 -847.9824 24.3671 1521.8263 1534.0195
-386.6682 3.5225 -848.7731 24.3838 1523.1328 1535.3340
-385.6247 3.5282 -849.5602 24.4004 1524.4399 1536.6504
-384.5779 3.5347 -850.3438 24.4171 1525.7476 1537.9668
-383.5276 3.5421 -851.1240 24.4338 1527.0559 1539.2852
-382.4740 3.5503 -851.9008 24.4504 1528.3649 1540.6094
-381.4171 3.5590 -852.6740 24.4671 1529.6746 1541.9336
-380.3569 3.5681 -853.4438 24.4838 1530.9847 1543.2598
-379.2934 3.5771 -854.2100 24.5004 1532.2955 1544.5840
-378.2266 3.5860 -854.9727 24.5171 1533.6069 1545.9082
-377.1566 3.5944 -855.7319 24.5338 1534.9189 1547.2344
-376.0834 3.6023 -856.4875 24.5504 1536.2316 1548.5586
-375.0070 3.6097 -857.2394 24.5671 1537.5446 1549.8848
-373.9272 3.6167 -857.9878 24.5838 1538.8583 1551.2109
-372.8443 3.6235 -858.7324 24.6004 1540.1726 1552.5352
-371.7580 3.6301 -859.4733 24.6171 1541.4874 1553.8633
-370.6685 3.6366 -860.2103 24.6338 1542.8030 1555.1895
-369.5757 3.6430 -860.9435 24.6505 1544.1189 1556.5176
-368.4797 3.6494 -861.6729 24.6671 1545.4354 1557.8477
-367.3805 3.6557 -862.3983 24.6838 1546.7523 1559.1758
-366.2781 3.6620 -863.1196 24.7005 1548.0698 1560.5059
-365.1723 3.6683 -863.8372 24.7171 1549.3881 1561.8379
-364.0633 3.6747 -864.5507 24.7338 1550.7068 1563.1699
-362.9511 3.6812 -865.2601 24.7505 1552.0260 1564.4941
-361.8357 3.6878 -865.9656 24.7671 1553.3458 1565.8125
-360.7171 3.6944 -866.6672 24.7838 1554.6661 1567.1328
-359.5955 3.7008 -867.3647 24.8005 1555.9871 1568.4531
-358.4707 3.7070 -868.0585 24.8171 1557.3086 1569.7754
-357.3430 3.7129 -868.7483 24.8338 1558.6306 1571.0977
-356.2122 3.7184 -869.4342 24.8505 1559.9531 1572.4199
-355.0785 3.7236 -870.1162 24.8671 1561.2762 1573.7441
-353.9418 3.7286 -870.7943 24.8838 1562.5999 1575.0703
-352.8021 3.7334 -871.4686 24.9005 1563.9241 1576.3965
-351.6595 3.7381 -872.1388 24.9171 1565.2487 1577.7227
-350.5140 3.7429 -872.8051 24.9338 1566.5739 1579.0508
-349.3655 3.7477 -873.4672 24.9505 1567.8997 1580.3789
-348.2141 3.7527 -874.1254 24.9671 1569.2260 1581.7070
-347.0597 3.7580 -874.7794 24.9838 1570.5527 1583.0371
-345.9024 3.7634 -875.4293 25.0005 1571.8800 1584.3691
-344.7422 3.7691 -876.0751 25.0171 1573.2078 1585.7012
-343.5801 3.7750 -876.7162 25.0338 1574.5350 1587.0312
-342.4171 3.7810 -877.3521 25.0505 1575.8605 1588.3555
-341.2519 3.7872 -877.9835 25.0671 1577.1859 1589.6738
-340.0817 3.7936 -878.6120 25.0838 1578.5142 1590.9980
-338.9093 3.8002 -879.2360 25.1005 1579.8423 1592.3203
-337.7345 3.8071 -879.8557 25.1171 1581.1705 1593.6445
-336.5570 3.8142 -880.4712 25.1338 1582.4991 1594.9688
-335.3770 3.8217 -881.0825 25.1505 1583.8281 1596.2949
-334.1944 3.8296 -881.6896 25.1671 1585.1575 1597.6211
-333.0094 3.8379 -882.2926 25.1838 1586.4872 1598.9473
-331.8220 3.8464 -882.8915 25.2005 1587.8171 1600.2734
-330.6321 3.8550 -883.4863 25.2171 1589.1475 1601.6016
-329.4397 3.8637 -884.0771 25.2338 1590.4781 1602.9277
-328.2449 3.8724 -884.6637 25.2505 1591.8092 1604.2559
-327.0478 3.8809 -885.2461 25.2671 1593.1405 1605.5840
-325.8482 3.8890 -885.8243 25.2838 1594.4723 1606.9121
-324.6463 3.8968 -886.3984 25.3005 1595.8042 1608.2402
-323.4420 3.9041 -886.9684 25.3171 1597.1366 1609.5684
-322.2355 3.9114 -887.5342 25.3338 1598.4692 1610.8965
-321.0266 3.9188 -888.0959 25.3505 1599.8022 1612.2344
-319.8154 3.9269 -888.6533 25.3671 1601.1356 1613.5781
-318.6018 3.9361 -889.2064 25.3838 1602.4692 1614.9219
-317.3860 3.9467 -889.7551 25.4005 1603.8032 1616.2637
-316.1678 3.9588 -890.2997 25.4171 1605.1377 1617.6055
-314.9474 3.9724 -890.8400 25.4338 1606.4723 1618.9473
-313.7249 3.9875 -891.3761 25.4505 1607.8074 1620.2891
-312.5001 4.0037 -891.9081 25.4671 1609.1428 1621.6289
-311.2733 4.0207 -892.4360 25.4838 1610.4785 1622.9707
-310.0443 4.0380 -892.9599 25.5005 1611.8146 1624.3125
-308.8133 4.0553 -893.4797 25.5171 1613.1510 1625.6523
-307.5802 4.0721 -893.9955 25.5338 1614.4877 1626.9941
-306.3451 4.0884 -894.5073 25.5505 1615.8247 1628.3359
-305.1080 4.1042 -895.0151 25.5671 1617.1621 1629.6758
-303.8688 4.1198 -895.5187 25.5838 1618.4998 1631.0176
-302.6277 4.1353 -896.0182 25.6005 1619.8378 1632.3594
-301.3845 4.1510 -896.5137 25.6171 1621.1761 1633.7012
-300.1394 4.1667 -897.0051 25.6338 1622.5148 1635.0430
-298.8923 4.1824 -897.4924 25.6505 1623.8538 1636.3887
-297.6433 4.1975 -897.9756 25.6671 1625.1931 1637.7344
-296.3925 4.2117 -898.4548 25.6838 1626.5327 1639.0820
-295.1397 4.2245 -898.9301 25.7005 1627.8726 1640.4297
-293.8851 4.2358 -899.4014 25.7171 1629.2129 1641.7773
-292.6286 4.2454 -899.8687 25.7338 1630.5535 1643.1250
-291.3703 4.2536 -900.3318 25.7505 1631.8944 1644.4707
-290.1100 4.2609 -900.7910 25.7671 1633.2356 1645.8203
-288.8480 4.2676 -901.2457 25.7838 1634.5771 1647.1680
-287.5840 4.2744 -901.6962 25.8005 1635.9191 1648.5156
-286.3181 4.2815 -902.1424 25.8171 1637.2612 1649.8652
-285.0504 4.2894 -902.5842 25.8338 1638.6038 1651.2148
-283.7808 4.2983 -903.0216 25.8505 1639.9467 1652.5664
-282.5094 4.3083 -903.4545 25.8671 1641.2898 1653.9180
-281.2361 4.3195 -903.8831 25.8838 1642.6333 1655.2695
-279.9611 4.3318 -904.3072 25.9005 1643.9771 1656.6230
-278.6843 4.3449 -904.7269 25.9171 1645.3212 1657.9766
-277.4057 4.3586 -905.1423 25.9338 1646.6655 1659.3320
-276.1255 4.3727 -905.5535 25.9505 1648.0103 1660.6895
-274.8436 4.3868 -905.9606 25.9671 1649.3553 1662.0449
-273.5600 4.4008 -906.3636 25.9838 1650.7008 1663.3945
-272.2750 4.4147 -906.7628 26.0005 1652.0465 1664.7461
-270.9883 4.4284 -907.1581 26.0171 1653.3926 1666.0977
-269.7002 4.4421 -907.5498 26.0338 1654.7390 1667.4492
-268.4106 4.4559 -907.9380 26.0505 1656.0858 1668.8008
-267.1197 4.4699 -908.3226 26.0671 1657.4329 1670.1523
-265.8274 4.4841 -908.7039 26.0838 1658.7804 1671.5039
-264.5337 4.4985 -909.0818 26.1005 1660.1282 1672.8555
-263.2386 4.5127 -909.4563 26.1171 1661.4763 1674.2070
-261.9422 4.5266 -909.8275 26.1338 1662.8250 1675.5605
-260.6445 4.5401 -910.1953 26.1505 1664.1738 1676.9121
-259.3456 4.5530 -910.5598 26.1671 1665.5229 1678.2656
-258.0453 4.5655 -910.9208 26.1838 1666.8726 1679.6211
-256.7437 4.5776 -911.2786 26.2005 1668.2225 1680.9746
-255.4407 4.5896 -911.6329 26.2171 1669.5728 1682.3301
-254.1364 4.6017 -911.9836 26.2338 1670.9235 1683.6855
-252.8309 4.6140 -912.3308 26.2505 1672.2744 1685.0410
-251.5241 4.6265 -912.6744 26.2672 1673.6257 1686.3945
-250.2160 4.6392 -913.0146 26.2838 1674.9774 1687.7461
-248.9066 4.6521 -913.3512 26.3005 1676.3293 1689.0977
-247.5961 4.6650 -913.6844 26.3172 1677.6818 1690.4492
-246.2843 4.6778 -914.0143 26.3338 1679.0343 1691.8027
-244.9714 4.6905 -914.3408 26.3505 1680.3873 1693.1543
-243.6573 4.7029 -914.6639 26.3672 1681.7406 1694.5078
-242.3420 4.7150 -914.9836 26.3838 1683.0942 1695.8613
-241.0256 4.7270 -915.2999 26.4005 1684.4482 1697.2148
-239.7079 4.7389 -915.6128 26.4172 1685.8026 1698.5684
-238.3891 4.7508 -915.9221 26.4338 1687.1572 1699.9238
-237.0691 4.7628 -916.2279 26.4505 1688.5122 1701.2793
-235.7479 4.7748 -916.5302 26.4672 1689.8676 1702.6348
-234.4257 4.7866 -916.8289 26.4838 1691.2233 1703.9902
-233.1023 4.7982 -917.1240 26.5005 1692.5792 1705.3457
-231.7777 4.8095 -917.4158 26.5172 1693.9355 1706.7031
-230.4520 4.8207 -917.7042 26.5338 1695.2924 1708.0605
-229.1252 4.8319 -917.9891 26.5505 1696.6494 1709.4180
-227.7974 4.8433 -918.2707 26.5672 1698.0068 1710.7754
-226.4685 4.8549 -918.5489 26.5838 1699.3646 1712.1328
-225.1385 4.8670 -918.8239 26.6005 1700.7228 1713.4883
-223.8075 4.8793 -919.0955 26.6172 1702.0812 1714.8457
-222.4755 4.8919 -919.3638 26.6338 1703.4401 1716.2031
-221.1426 4.9045 -919.6290 26.6505 1704.7992 1717.5605
-219.8086 4.9171 -919.8910 26.6672 1706.1587 1718.9199
-218.4736 4.9296 -920.1498 26.6838 1707.5186 1720.2773
-217.1377 4.9420 -920.4055 26.7005 1708.8788 1721.6367
-215.8010 4.9543 -920.6580 26.7172 1710.2393 1722.9941
-214.4630 4.9666 -920.9074 26.7338 1711.6003 1724.3535
-213.1243 4.9790 -921.1535 26.7505 1712.9615 1725.7129
-211.7848 4.9917 -921.3963 26.7672 1714.3229 1727.0742
-210.4443 5.0045 -921.6357 26.7838 1715.6846 1728.4336
-209.1029 5.0174 -921.8718 26.8005 1717.0468 1729.7930
-207.7606 5.0304 -922.1046 26.8172 1718.4091 1731.1543
-206.4174 5.0432 -922.3342 26.8338 1719.7719 1732.5156
-205.0733 5.0559 -922.5605 26.8505 1721.1350 1733.8770
-203.7283 5.0684 -922.7837 26.8672 1722.4984 1735.2383
-202.3824 5.0810 -923.0038 26.8838 1723.8622 1736.6016
-201.0357 5.0935 -923.2208 26.9005 1725.2263 1737.9629
-199.6882 5.1062 -923.4348 26.9172 1726.5908 1739.3262
-198.3399 5.1189 -923.6458 26.9338 1727.9556 1740.6875
-196.9908 5.1318 -923.8539 26.9505 1729.3207 1742.0508
-195.6409 5.1447 -924.0590 26.9672 1730.6862 1743.4141
-194.2902 5.1574 -924.2613 26.9838 1732.0519 1744.7773
-192.9388 5.1700 -924.4605 27.0005 1733.4181 1746.1406
-191.5866 5.1825 -924.6567 27.0172 1734.7844 1747.5039
-190.2336 5.1949 -924.8499 27.0338 1736.1512 1748.8672
-188.8798 5.2074 -925.0400 27.0505 1737.5183 1750.2324
-187.5253 5.2200 -925.2270 27.0672 1738.8857 1751.5957
-186.1700 5.2329 -925.4109 27.0838 1740.2535 1752.9609
-184.8140 5.2458 -925.5919 27.1005 1741.6217 1754.3262
-183.4572 5.2588 -925.7698 27.1172 1742.9901 1755.6914
-182.0997 5.2716 -925.9450 27.1338 1744.3589 1757.0566
-180.7415 5.2841 -926.1174 27.1505 1745.7280 1758.4238
-179.3826 5.2963 -926.2871 27.1672 1747.0975 1759.7910
-178.0231 5.3082 -926.4543 27.1838 1748.4674 1761.1602
-176.6629 5.3199 -926.6190 27.2005 1749.8376 1762.5293
-175.3020 5.3315 -926.7812 27.2172 1751.2081 1763.9004
-173.9405 5.3430 -926.9411 27.2338 1752.5791 1765.2695
-172.5784 5.3546 -927.0986 27.2505 1753.9503 1766.6406
-171.2156 5.3663 -927.2538 27.2672 1755.3220 1768.0117
-169.8522 5.3780 -927.4066 27.2838 1756.6940 1769.3848
-168.4882 5.3898 -927.5569 27.3005 1758.0663 1770.7559
-167.1236 5.4017 -927.7048 27.3172 1759.4390 1772.1289
-165.7583 5.4136 -927.8503 27.3338 1760.8119 1773.5020
-164.3925 5.4256 -927.9933 27.3505 1762.1853 1774.8750
-163.0260 5.4376 -928.1340 27.3672 1763.5590 1776.2500
-161.6590 5.4496 -928.2724 27.3838 1764.9331 1777.6230
-160.2915 5.4615 -928.4085 27.4005 1766.3075 1778.9980
-158.9233 5.4732 -928.5424 27.4172 1767.6823 1780.3730
-157.5545 5.4847 -928.6742 27.4338 1769.0574 1781.7480
-156.1852 5.4960 -928.8040 27.4505 1770.4329 1783.1250
-154.8154 5.5071 -928.9320 27.4672 1771.8087 1784.5000
-153.4450 5.5179 -929.0583 27.4838 1773.1849 1785.8750
-152.0741 5.5287 -929.1830 27.5005 1774.5615 1787.2520
-150.7028 5.5393 -929.3062 27.5172 1775.9384 1788.6270
-149.3309 5.5498 -929.4280 27.5338 1777.3157 1790.0039
-147.9586 5.5602 -929.5484 27.5505 1778.6934 1791.3809
-146.5857 5.5704 -929.6675 27.5672 1780.0714 1792.7578
-145.2124 5.5805 -929.7852 27.5838 1781.4498 1794.1367
-143.8386 5.5902 -929.9016 27.6005 1782.8285 1795.5137
-142.4644 5.5998 -930.0166 27.6172 1784.2076 1796.8926
-141.0896 5.6091 -930.1302 27.6339 1785.5870 1798.2715
-139.7144 5.6184 -930.2424 27.6505 1786.9669 1799.6504
-138.3387 5.6276 -930.3532 27.6672 1788.3470 1801.0312
-136.9625 5.6369 -930.4625 27.6839 1789.7277 1802.4102
-135.5859 5.6464 -930.5704 27.7005 1791.1085 1803.7910
-134.2088 5.6562 -930.6770 27.7172 1792.4899 1805.1719
-132.8312 5.6662 -930.7821 27.7339 1793.8715 1806.5527
-131.4531 5.6765 -930.8858 27.7505 1795.2534 1807.9336
-130.0746 5.6870 -930.9882 27.7672 1796.6357 1809.3164
-128.6956 5.6976 -931.0892 27.7839 1798.0184 1810.6992
-127.3162 5.7082 -931.1890 27.8005 1799.4016 1812.0820
-125.9363 5.7186 -931.2873 27.8172 1800.7850 1813.4648
-124.5560 5.7289 -931.3843 27.8339 1802.1687 1814.8477
-123.1752 5.7389 -931.4801 27.8505 1803.5529 1816.2324
-121.7940 5.7487 -931.5745 27.8672 1804.9374 1817.6172
-120.4124 5.7582 -931.6675 27.8839 1806.3221 1819.0020
-119.0302 5.7674 -931.7592 27.9005 1807.7073 1820.3867
-117.6477 5.7764 -931.8495 27.9172 1809.0929 1821.7715
-116.2647 5.7852 -931.9385 27.9339 1810.4788 1823.1582
-114.8813 5.7939 -932.0264 27.9505 1811.8650 1824.5430
-113.4974 5.8024 -932.1131 27.9672 1813.2516 1825.9297
-112.1132 5.8109 -932.1987 27.9839 1814.6385 1827.3164
-110.7285 5.8192 -932.2833 28.0005 1816.0258 1828.7031
-109.3434 5.8275 -932.3671 28.0172 1817.4135 1830.0918
-107.9579 5.8356 -932.4501 28.0339 1818.8015 1831.4785
-106.5720 5.8437 -932.5325 28.0505 1820.1898 1832.8672
-105.1857 5.8516 -932.6143 28.0672 1821.5786 1834.2559
-103.7990 5.8593 -932.6957 28.0839 1822.9677 1835.6445
-102.4120 5.8669 -932.7768 28.1005 1824.3571 1837.0332
-101.0245 5.8744 -932.8575 28.1172 1825.7468 1838.4219
-99.6367 5.8817 -932.9377 28.1339 1827.1370 1839.8125
-98.2485 5.8889 -933.0177 28.1505 1828.5276 1841.2012
-96.8600 5.8960 -933.0972 28.1672 1829.9185 1842.5918
-95.4710 5.9031 -933.1763 28.1839 1831.3097 1843.9824
-94.0816 5.9101 -933.2549 28.2005 1832.7013 1845.3730
-92.6919 5.9171 -933.3331 28.2172 1834.0931 1846.7656
-91.3018 5.9240 -933.4109 28.2339 1835.4855 1848.1562
-89.9113 5.9308 -933.4883 28.2505 1836.8782 1849.5488
-88.5204 5.9376 -933.5652 28.2672 1838.2712 1850.9414
-87.1291 5.9445 -933.6417 28.2839 1839.6647 1852.3340
-85.7374 5.9516 -933.7177 28.3005 1841.0583 1853.7266
-84.3453 5.9589 -933.7933 28.3172 1842.4525 1855.1211
-82.9529 5.9664 -933.8685 28.3339 1843.8470 1856.5156
-81.5600 5.9741 -933.9433 28.3505 1845.2419 1857.9082
-80.1669 5.9818 -934.0178 28.3672 1846.6371 1859.3027
-78.7733 5.9892 -934.0920 28.3839 1848.0327 1860.6992
-77.3794 5.9964 -934.1660 28.4005 1849.4286 1862.0938
-75.9851 6.0033 -934.2397 28.4172 1850.8248 1863.4902
-74.5905 6.0100 -934.3133 28.4339 1852.2214 1864.8867
-73.1955 6.0164 -934.3867 28.4505 1853.6183 1866.2812
-71.8001 6.0228 -934.4598 28.4672 1855.0156 1867.6797
-70.4044 6.0291 -934.5327 28.4839 1856.4132 1869.0762
-69.0083 6.0355 -934.6054 28.5005 1857.8113 1870.4727
-67.6119 6.0419 -934.6779 28.5172 1859.2095 1871.8711
-66.2151 6.0484 -934.7502 28.5339 1860.6082 1873.2695
-64.8180 6.0548 -934.8223 28.5505 1862.0072 1874.6680
-63.4205 6.0611 -934.8941 28.5672 1863.4065 1876.0664
-62.0227 6.0674 -934.9658 28.5839 1864.8063 1877.4668
-60.6245 6.0736 -935.0372 28.6005 1866.2063 1878.8652
-59.2260 6.0796 -935.1083 28.6172 1867.6066 1880.2656
-57.8271 6.0855 -935.1793 28.6339 1869.0073 1881.6660
-56.4278 6.0911 -935.2501 28.6505 1870.4083 1883.0664
-55.0282 6.0965 -935.3206 28.6672 1871.8097 1884.4688
-53.6283 6.1016 -935.3909 28.6839 1873.2114 1885.8691
-52.2280 6.1063 -935.4610 28.7005 1874.6135 1887.2715
-50.8273 6.1107 -935.5309 28.7172 1876.0159 1888.6738
-49.4263 6.1148 -935.6005 28.7339 1877.4187 1890.0762
-48.0250 6.1187 -935.6700 28.7505 1878.8217 1891.4785
-46.6233 6.1223 -935.7392 28.7672 1880.2251 1892.8809
-45.2213 6.1257 -935.8082 28.7839 1881.6289 1894.2852
-43.8189 6.1288 -935.8770 28.8005 1883.0330 1895.6875
-42.4161 6.1317 -935.9456 28.8172 1884.4374 1897.0918
-41.0130 6.1342 -936.0140 28.8339 1885.8422 1898.4961
-39.6096 6.1365 -936.0822 28.8505 1887.2472 1899.9023
-38.2058 6.1384 -936.1501 28.8672 1888.6526 1901.3066
-36.8017 6.1401 -936.2178 28.8839 1890.0583 1902.7129
-35.3972 6.1417 -936.2853 28.9005 1891.4645 1904.1172
-33.9924 6.1432 -936.3527 28.9172 1892.8710 1905.5234
-32.5872 6.1447 -936.4199 28.9339 1894.2777 1906.9316
-31.1817 6.1464 -936.4869 28.9505 1895.6848 1908.3379
-29.7759 6.1483 -936.5538 28.9672 1897.0923 1909.7441
-28.3697 6.1503 -936.6204 28.9839 1898.5000 1911.1523
-26.9632 6.1524 -936.6870 29.0005 1899.9081 1912.5605
-25.5563 6.1546 -936.7534 29.0172 1901.3165 1913.9688
-24.1491 6.1568 -936.8196 29.0339 1902.7253 1915.3770
-22.7415 6.1590 -936.8858 29.0505 1904.1344 1916.7852
-21.3337 6.1612 -936.9518 29.0672 1905.5438 1918.1953
-19.9254 6.1633 -937.0177 29.0839 1906.9536 1919.6055
-18.5169 6.1655 -937.0835 29.1005 1908.3638 1921.0137
-17.1080 6.1676 -937.1492 29.1172 1909.7742 1922.4258
-15.6988 6.1698 -937.2147 29.1339 1911.1849 1923.8359
-14.2892 6.1719 -937.2802 29.1505 1912.5959 1925.2461
-12.8793 6.1742 -937.3455 29.1672 1914.0073 1926.6582
-11.4691 6.1764 -937.4108 29.1839 1915.4191 1928.0684
-10.0586 6.1786 -937.4760 29.2006 1916.8312 1929.4805
-8.6477 6.1809 -937.5411 29.2172 1918.2435 1930.8926
-7.2365 6.1831 -937.6063 29.2339 1919.6561 1932.3066
-5.8250 6.1853 -937.6713 29.2506 1921.0692 1933.7188
-4.4132 6.1875 -937.7363 29.2672 1922.4825 1935.1328
-3.0010 6.1897 -937.8013 29.2839 1923.8962 1936.5449
-1.5885 6.1920 -937.8661 29.3006 1925.3102 1937.9590
-0.1757 6.1942 -937.9310 29.3172 1926.7245 1939.3730
1.2374 6.1965 -937.9958 29.3339 1928.1392 1940.7891
2.6509 6.1988 -938.0606 29.3506 1929.5541 1942.2031
4.0647 6.2010 -938.1254 29.3672 1930.9694 1943.6191
5.4787 6.2033 -938.1902 29.3839 1932.3849 1945.0352
6.8932 6.2056 -938.2551 29.4006 1933.8008 1946.4492
8.3079 6.2079 -938.3199 29.4172 1935.2170 1947.8672
9.7229 6.2101 -938.3846 29.4339 1936.6335 1949.2832
11.1383 6.2124 -938.4493 29.4506 1938.0504 1950.6992
12.5540 6.2147 -938.5139 29.4672 1939.4675 1952.1172
13.9700 6.2170 -938.5782 29.4839 1940.8850 1953.5352
15.3863 6.2193 -938.6423 29.5006 1942.3027 1954.9531
16.8030 6.2216 -938.7063 29.5172 1943.7208 1956.3711
18.2199 6.2239 -938.7701 29.5339 1945.1393 1957.7891
19.6372 6.2262 -938.8337 29.5506 1946.5580 1959.2090
21.0548 6.2284 -938.8972 29.5672 1947.9771 1960.6270
22.4728 6.2307 -938.9604 29.5839 1949.3964 1962.0469
23.8910 6.2330 -939.0234 29.6006 1950.8160 1963.4668
25.3096 6.2353 -939.0862 29.6172 1952.2360 1964.8867
26.7285 6.2376 -939.1489 29.6339 1953.6562 1966.3066
28.1477 6.2399 -939.2113 29.6506 1955.0768 1967.7285
29.5672 6.2422 -939.2735 29.6672 1956.4977 1969.1484
30.9870 6.2446 -939.3356 29.6839 1957.9189 1970.5703
32.4072 6.2470 -939.3974 29.7006 1959.3405 1971.9922
33.8276 6.2494 -939.4590 29.7172 1960.7622 1973.4141
35.2484 6.2517 -939.5204 29.7339 1962.1843 1974.8359
36.6695 6.2541 -939.5817 29.7506 1963.6067 1976.2598
38.0909 6.2565 -939.6428 29.7672 1965.0294 1977.6816
39.5126 6.2589 -939.7040 29.7839 1966.4524 1979.1055
40.9345 6.2613 -939.7654 29.8006 1967.8757 1980.5293
42.3545 6.2637 -939.8269 29.8172 1969.2970 1981.9492
43.7683 6.2662 -939.8885 29.8339 1970.7122 1983.3652
45.1756 6.2686 -939.9503 29.8506 1972.1208 1984.7754
46.5765 6.2711 -940.0121 29.8672 1973.5231 1986.1777
47.9710 6.2736 -940.0742 29.8839 1974.9189 1987.5742
49.3590 6.2762 -940.1362 29.9005 1976.3083 1988.9629
50.7406 6.2787 -940.1982 29.9172 1977.6914 1990.3457
52.1159 6.2812 -940.2602 29.9339 1979.0680 1991.7227
53.4847 6.2837 -940.3220 29.9505 1980.4382 1993.0938
54.8473 6.2861 -940.3836 29.9672 1981.8022 1994.4590
56.2035 6.2885 -940.4449 29.9838 1983.1598 1995.8164
57.5533 6.2909 -940.5060 30.0005 1984.5110 1997.1680
58.8969 6.2933 -940.5668 30.0172 1985.8560 1998.5137
60.2343 6.2957 -940.6273 30.0338 1987.1947 1999.8535
61.5653 6.2982 -940.6877 30.0505 1988.5271 2001.1855
62.8901 6.3006 -940.7480 30.0671 1989.8533 2002.5117
64.2087 6.3031 -940.8086 30.0838 1991.1732 2003.8320
65.5210 6.3055 -940.8693 30.1005 1992.4869 2005.1465
66.8271 6.3080 -940.9302 30.1171 1993.7946 2006.4551
68.1270 6.3104 -940.9911 30.1338 1995.0958 2007.7559
69.4207 6.3128 -941.0520 30.1504 1996.3910 2009.0527
70.7083 6.3152 -941.1128 30.1671 1997.6801 2010.3418
71.9897 6.3175 -941.1733 30.1838 1998.9629 2011.6250
73.2651 6.3199 -941.2335 30.2004 2000.2396 2012.9004
74.5343 6.3222 -941.2933 30.2171 2001.5103 2014.1719
75.7974 6.3245 -941.3526 30.2337 2002.7748 2015.4355
77.0546 6.3267 -941.4114 30.2504 2004.0333 2016.6934
78.3056 6.3290 -941.4697 30.2671 2005.2858 2017.9453
79.5507 6.3312 -941.5273 30.2837 2006.5321 2019.1895
80.7897 6.3335 -941.5845 30.3004 2007.7725 2020.4297
82.0228 6.3357 -941.6409 30.3170 2009.0068 2021.6641
83.2499 6.3380 -941.6967 30.3337 2010.2352 2022.8906
84.4710 6.3402 -941.7519 30.3504 2011.4575 2024.1133
85.6862 6.3425 -941.8064 30.3670 2012.6740 2025.3281
86.8954 6.3447 -941.8603 30.3837 2013.8844 2026.5371
88.0987 6.3470 -941.9136 30.4003 2015.0889 2027.7422
89.2966 6.3492 -941.9664 30.4170 2016.2880 2028.9395
90.4889 6.3515 -942.0186 30.4337 2017.4814 2030.1328
91.6755 6.3537 -942.0703 30.4503 2018.6691 2031.3203
92.8563 6.3559 -942.1215 30.4670 2019.8510 2032.5000
94.0312 6.3582 -942.1721 30.4836 2021.0270 2033.6758
95.2004 6.3604 -942.2223 30.5003 2022.1973 2034.8457
96.3638 6.3625 -942.2719 30.5170 2023.3617 2036.0098
97.5214 6.3647 -942.3210 30.5336 2024.5204 2037.1660
98.6732 6.3669 -942.3696 30.5503 2025.6732 2038.3184
99.8194 6.3690 -942.4175 30.5669 2026.8204 2039.4648
100.9598 6.3712 -942.4650 30.5836 2027.9618 2040.6055
102.0945 6.3733 -942.5118 30.6003 2029.0975 2041.7402
103.2235 6.3754 -942.5582 30.6169 2030.2274 2042.8691
104.3468 6.3774 -942.6040 30.6336 2031.3517 2043.9922
105.4645 6.3794 -942.6493 30.6502 2032.4703 2045.1113
106.5765 6.3814 -942.6941 30.6669 2033.5833 2046.2227
107.6829 6.3834 -942.7385 30.6835 2034.6904 2047.3301
108.7836 6.3853 -942.7824 30.7002 2035.7921 2048.4297
109.8787 6.3872 -942.8259 30.7169 2036.8881 2049.5254
110.9683 6.3891 -942.8690 30.7335 2037.9785 2050.6152
112.0522 6.3910 -942.9118 30.7502 2039.0632 2051.6992
113.1306 6.3928 -942.9543 30.7668 2040.1425 2052.7773
114.2035 6.3947 -942.9965 30.7835 2041.2162 2053.8496
115.2708 6.3965 -943.0384 30.8002 2042.2843 2054.9180
116.3326 6.3983 -943.0800 30.8168 2043.3469 2055.9785
117.3890 6.4001 -943.1213 30.8335 2044.4041 2057.0352
118.4398 6.4020 -943.1622 30.8501 2045.4558 2058.0859
119.4852 6.4038 -943.2029 30.8668 2046.5020 2059.1309
120.5251 6.4056 -943.2434 30.8835 2047.5426 2060.1719
121.5596 6.4074 -943.2836 30.9001 2048.5779 2061.2070
122.5886 6.4092 -943.3234 30.9168 2049.6077 2062.2363
123.6128 6.4110 -943.3631 30.9334 2050.6328 2063.2617
124.6322 6.4128 -943.4025 30.9501 2051.6528 2064.2812
125.6463 6.4146 -943.4418 30.9668 2052.6677 2065.2949
126.6551 6.4163 -943.4810 30.9834 2053.6772 2066.3047
127.6586 6.4180 -943.5199 31.0001 2054.6816 2067.3086
128.6568 6.4197 -943.5587 31.0167 2055.6804 2068.3066
129.6498 6.4214 -943.5974 31.0334 2056.6743 2069.3008
130.6375 6.4231 -943.6360 31.0501 2057.6626 2070.2891
131.6200 6.4247 -943.6744 31.0667 2058.6460 2071.2715
132.5972 6.4263 -943.7128 31.0834 2059.6238 2072.2500
133.5692 6.4280 -943.7509 31.1000 2060.5967 2073.2227
134.5360 6.4295 -943.7889 31.1167 2061.5642 2074.1895
135.4976 6.4311 -943.8268 31.1334 2062.5266 2075.1504
136.4541 6.4326 -943.8646 31.1500 2063.4836 2076.1074
137.4053 6.4342 -943.9024 31.1667 2064.4358 2077.0605
138.3515 6.4357 -943.9401 31.1833 2065.3826 2078.0078
139.2925 6.4372 -943.9778 31.2000 2066.3245 2078.9512
140.2284 6.4387 -944.0156 31.2167 2067.2610 2079.8887
141.1592 6.4402 -944.0534 31.2333 2068.1926 2080.8223
142.0851 6.4417 -944.0914 31.2500 2069.1194 2081.7520
143.0058 6.4433 -944.1295 31.2666 2070.0408 2082.6758
143.9217 6.4448 -944.1677 31.2833 2070.9575 2083.5938
144.8326 6.4463 -944.2062 31.2999 2071.8691 2084.5078
145.7386 6.4477 -944.2449 31.3166 2072.7761 2085.4160
146.6397 6.4490 -944.2838 31.3333 2073.6780 2086.3203
147.5360 6.4501 -944.3231 31.3499 2074.5752 2087.2188
148.4274 6.4510 -944.3626 31.3666 2075.4675 2088.1133
149.3142 6.4516 -944.4025 31.3832 2076.3552 2089.0020
150.1951 6.4518 -944.4426 31.3999 2077.2371 2089.8848
151.0673 6.4518 -944.4828 31.4166 2078.1101 2090.7598
151.9302 6.4515 -944.5232 31.4332 2078.9739 2091.6250
152.7838 6.4509 -944.5638 31.4499 2079.8284 2092.4824
153.6285 6.4501 -944.6047 31.4665 2080.6741 2093.3301
154.4643 6.4490 -944.6459 31.4832 2081.5110 2094.1680
155.2912 6.4477 -944.6877 31.4998 2082.3389 2094.9980
156.1092 6.4462 -944.7300 31.5165 2083.1582 2095.8184
156.9186 6.4445 -944.7731 31.5331 2083.9685 2096.6309
157.7195 6.4427 -944.8169 31.5498 2084.7708 2097.4336
158.5118 6.4408 -944.8616 31.5664 2085.5642 2098.2305
159.2955 6.4387 -944.9072 31.5831 2086.3494 2099.0156
160.0712 6.4365 -944.9539 31.5997 2087.1265 2099.7949
160.8387 6.4342 -945.0016 31.6164 2087.8953 2100.5664
161.5979 6.4318 -945.0508 31.6330 2088.6562 2101.3281
162.3488 6.4292 -945.1013 31.6497 2089.4089 2102.0820
163.0916 6.4266 -945.1533 31.6663 2090.1533 2102.8281
163.8262 6.4239 -945.2070 31.6830 2090.8899 2103.5664
164.5527 6.4210 -945.2625 31.6996 2091.6187 2104.2969
165.2724 6.4181 -945.3199 31.7163 2092.3406 2105.0195
165.9856 6.4150 -945.3797 31.7329 2093.0562 2105.7363
166.6928 6.4118 -945.4419 31.7496 2093.7664 2106.4473
167.3942 6.4085 -945.5068 31.7663 2094.4707 2107.1523
168.0898 6.4051 -945.5746 31.7829 2095.1694 2107.8535
168.7795 6.4017 -945.6455 31.7996 2095.8628 2108.5469
169.4634 6.3982 -945.7197 31.8162 2096.5508 2109.2344
170.1414 6.3947 -945.7975 31.8329 2097.2332 2109.9180
170.8136 6.3911 -945.8789 31.8495 2097.9104 2110.5938
171.4799 6.3876 -945.9641 31.8662 2098.5820 2111.2656
172.1406 6.3841 -946.0530 31.8828 2099.2488 2111.9316
172.7957 6.3806 -946.1458 31.8995 2099.9104 2112.5918
173.4450 6.3772 -946.2423 31.9162 2100.5669 2113.2461
174.0888 6.3737 -946.3425 31.9328 2101.2185 2113.8945
174.7271 6.3704 -946.4464 31.9495 2101.8650 2114.5293
175.3597 6.3670 -946.5538 31.9661 2102.5068 2115.1602
175.9868 6.3637 -946.6649 31.9828 2103.1436 2115.7832
176.6081 6.3604 -946.7795 31.9994 2103.7754 2116.4043
177.2236 6.3571 -946.8978 32.0161 2104.4023 2117.0176
177.8333 6.3539 -947.0195 32.0327 2105.0239 2117.6270
178.4371 6.3507 -947.1447 32.0494 2105.6406 2118.2324
179.0352 6.3475 -947.2734 32.0661 2106.2524 2118.8320
179.6273 6.3443 -947.4056 32.0827 2106.8591 2119.4258
180.2135 6.3412 -947.5413 32.0994 2107.4609 2120.0137
180.7939 6.3381 -947.6802 32.1160 2108.0576 2120.5977
181.3683 6.3351 -947.8226 32.1327 2108.6494 2121.1758
181.9366 6.3321 -947.9683 32.1493 2109.2361 2121.7480
182.4990 6.3293 -948.1173 32.1660 2109.8179 2122.3164
183.0553 6.3265 -948.2697 32.1827 2110.3948 2122.8789
183.6055 6.3238 -948.4255 32.1993 2110.9666 2123.4375
184.1497 6.3212 -948.5847 32.2160 2111.5337 2123.9902
184.6876 6.3187 -948.7473 32.2326 2112.0955 2124.5371
185.2194 6.3163 -948.9134 32.2493 2112.6528 2125.0781
185.7453 6.3140 -949.0830 32.2659 2113.2053 2125.6152
186.2654 6.3117 -949.2562 32.2826 2113.7534 2126.1465
186.7798 6.3096 -949.4329 32.2992 2114.2974 2126.6738
187.2886 6.3075 -949.6132 32.3159 2114.8372 2127.1953
187.7921 6.3054 -949.7972 32.3325 2115.3733 2127.7148
188.2903 6.3034 -949.9848 32.3492 2115.9058 2128.2266
188.7847 6.3014 -950.1766 32.3659 2116.4358 2128.7383
189.2753 6.2994 -950.3726 32.3825 2116.9641 2129.2480
189.7623 6.2974 -950.5729 32.3992 2117.4907 2129.7598
190.2458 6.2954 -950.7774 32.4158 2118.0159 2130.2695
190.7258 6.2934 -950.9863 32.4325 2118.5393 2130.7812
191.2023 6.2913 -951.1996 32.4492 2119.0613 2131.2949
191.6754 6.2892 -951.4174 32.4658 2119.5823 2131.8086
192.1452 6.2870 -951.6396 32.4825 2120.1018 2132.3242
192.6117 6.2847 -951.8663 32.4991 2120.6206 2132.8398
193.0745 6.2824 -952.0976 32.5158 2121.1379 2133.3594
193.5335 6.2800 -952.3332 32.5325 2121.6538 2133.8809
193.9877 6.2776 -952.5728 32.5491 2122.1675 2134.4023
194.4375 6.2751 -952.8164 32.5658 2122.6790 2134.9258
194.8831 6.2725 -953.0642 32.5825 2123.1887 2135.4512
195.3245 6.2699 -953.3164 32.5991 2123.6973 2135.9785
195.7621 6.2673 -953.5729 32.6158 2124.2043 2136.5098
196.1957 6.2647 -953.8340 32.6324 2124.7107 2137.0430
196.6257 6.2620 -954.0997 32.6491 2125.2161 2137.5820
197.0519 6.2594 -954.3698 32.6658 2125.7207 2138.1230
197.4743 6.2568 -954.6445 32.6824 2126.2246 2138.6699
197.8930 6.2543 -954.9238 32.6991 2126.7278 2139.2207
198.3084 6.2519 -955.2078 32.7157 2127.2310 2139.7852
198.7203 6.2497 -955.4964 32.7324 2127.7341 2140.3730
199.1290 6.2476 -955.7897 32.7491 2128.2371 2140.9609
199.5343 6.2456 -956.0875 32.7657 2128.7400 2141.5527
199.9365 6.2439 -956.3898 32.7824 2129.2432 2142.1484
200.3355 6.2423 -956.6964 32.7991 2129.7463 2142.7461
200.7314 6.2409 -957.0072 32.8157 2130.2498 2143.3477
201.1245 6.2396 -957.3222 32.8324 2130.7534 2143.9551
201.5146 6.2383 -957.6412 32.8491 2131.2573 2144.5684
201.9018 6.2371 -957.9639 32.8657 2131.7615 2145.1855
202.2861 6.2359 -958.2903 32.8824 2132.2656 2145.8105
202.6675 6.2345 -958.6203 32.8991 2132.7700 2146.4414
203.0465 6.2331 -958.9543 32.9158 2133.2751 2147.0801
203.4229 6.2316 -959.2921 32.9324 2133.7810 2147.7266
203.7959 6.2300 -959.6330 32.9491 2134.2861 2148.4004
204.1651 6.2282 -959.9768 32.9658 2134.7908 2149.1270
204.5307 6.2264 -960.3235 32.9824 2135.2947 2149.8398
204.8925 6.2244 -960.6733 32.9991 2135.7979 2150.5430
205.2508 6.2222 -961.0261 33.0158 2136.3008 2151.2344
205.6055 6.2199 -961.3821 33.0324 2136.8032 2151.9180
205.9563 6.2174 -961.7411 33.0491 2137.3052 2152.5918
206.3032 6.2149 -962.1036 33.0658 2137.8069 2153.2559
206.6458 6.2124 -962.4694 33.0824 2138.3081 2153.9141
206.9840 6.2101 -962.8384 33.0991 2138.8086 2154.5664
207.3179 6.2079 -963.2112 33.1157 2139.3091 2155.2148
207.6473 6.2059 -963.5873 33.1324 2139.8091 2155.8594
207.9727 6.2040 -963.9677 33.1490 2140.3098 2156.5000
208.2945 6.2022 -964.3526 33.1657 2140.8115 2157.0625
208.6124 6.2004 -964.7417 33.1824 2141.3140 2157.5801
208.9263 6.1988 -965.1345 33.1990 2141.8167 2158.0957
209.2361 6.1972 -965.5310 33.2157 2142.3198 2158.6094
209.5424 6.1957 -965.9315 33.2324 2142.8240 2159.1250
209.8456 6.1942 -966.3361 33.2490 2143.3296 2159.6406
210.1458 6.1928 -966.7446 33.2657 2143.8367 2160.1562
210.4433 6.1915 -967.1569 33.2824 2144.3450 2160.6719
210.7383 6.1901 -967.5728 33.2990 2144.8550 2161.1855
211.0310 6.1886 -967.9922 33.3157 2145.3665 2161.6992
211.3218 6.1871 -968.4149 33.3324 2145.8794 2162.2148
211.6108 6.1856 -968.8409 33.3491 2146.3943 2162.7285
211.8982 6.1839 -969.2699 33.3657 2146.9106 2163.2441
212.1842 6.1821 -969.7017 33.3824 2147.4285 2163.7598
212.4692 6.1803 -970.1362 33.3991 2147.9482 2164.2754
212.7537 6.1784 -970.5733 33.4157 2148.4697 2164.7910
213.0379 6.1763 -971.0127 33.4324 2148.9929 2165.2812
213.3221 6.1741 -971.4541 33.4491 2149.5181 2165.7734
213.6069 6.1718 -971.8973 33.4658 2150.0449 2166.2695
213.8927 6.1693 -972.3422 33.4824 2150.5737 2166.7695
214.1797 6.1666 -972.7886 33.4991 2151.1045 2167.2715
214.4684 6.1638 -973.2363 33.5158 2151.6370 2167.7773
214.7588 6.1607 -973.6851 33.5325 2152.1716 2168.2871
215.0514 6.1575 -974.1349 33.5491 2152.7083 2168.7988
215.3463 6.1540 -974.5856 33.5658 2153.2468 2169.3125
215.6437 6.1504 -975.0371 33.5825 2153.7876 2169.8320
215.9437 6.1465 -975.4893 33.5992 2154.3301 2170.3516
216.2465 6.1425 -975.9421 33.6158 2154.8750 2170.8770
216.5523 6.1382 -976.3956 33.6325 2155.4219 2171.4043
216.8613 6.1337 -976.8497 33.6492 2155.9712 2171.9355
217.1735 6.1290 -977.3042 33.6658 2156.5227 2172.4707
217.4892 6.1241 -977.7591 33.6825 2157.0764 2173.0176
217.8084 6.1190 -978.2140 33.6992 2157.6321 2173.5742
218.1315 6.1137 -978.6690 33.7159 2158.1902 2174.1387
218.4585 6.1081 -979.1239 33.7325 2158.7505 2174.7129
218.7898 6.1024 -979.5786 33.7492 2159.3130 2175.2969
219.1254 6.0965 -980.0327 33.7659 2159.8777 2175.8887
219.4656 6.0904 -980.4863 33.7825 2160.4448 2176.4902
219.8105 6.0842 -980.9390 33.7992 2161.0139 2177.1016
220.1601 6.0778 -981.3908 33.8159 2161.5852 2177.7246
220.5147 6.0711 -981.8414 33.8326 2162.1587 2178.3574
220.8743 6.0644 -982.2908 33.8492 2162.7341 2179.0039
221.2391 6.0574 -982.7388 33.8659 2163.3120 2179.6602
221.6092 6.0503 -983.1855 33.8826 2163.8921 2180.3320
221.9846 6.0431 -983.6306 33.8992 2164.4746 2181.0156
222.3654 6.0357 -984.0741 33.9159 2165.0591 2181.7324
222.7516 6.0282 -984.5159 33.9326 2165.6460 2182.4883
223.1433 6.0206 -984.9558 33.9493 2166.2351 2183.2520
223.5405 6.0130 -985.3937 33.9659 2166.8264 2184.0215
223.9434 6.0053 -985.8297 33.9826 2167.4199 2184.7988
224.3519 5.9978 -986.2633 33.9993 2168.0159 2185.5840
224.7661 5.9904 -986.6945 34.0159 2168.6138 2186.3789
225.1863 5.9832 -987.1230 34.0326 2169.2139 2187.1836
225.6126 5.9764 -987.5491 34.0493 2169.8167 2187.9980
226.0449 5.9701 -987.9719 34.0660 2170.4214 2188.8262
226.4827 5.9644 -988.3906 34.0826 2171.0271 2189.6641
226.9257 5.9594 -988.8045 34.0993 2171.6335 2190.4473
227.3737 5.9554 -989.2133 34.1160 2172.2400 2191.1562
227.8262 5.9524 -989.6160 34.1326 2172.8457 2191.8574
228.2826 5.9503 -990.0124 34.1493 2173.4502 2192.5488
228.7437 5.9492 -990.4031 34.1659 2174.0547 2193.2305
229.2092 5.9489 -990.7881 34.1826 2174.6587 2193.9082
229.6792 5.9492 -991.1678 34.1993 2175.2629 2194.5762
230.1541 5.9499 -991.5428 34.2159 2175.8682 2195.2402
230.6336 5.9510 -991.9132 34.2326 2176.4739 2195.8984
231.1179 5.9522 -992.2792 34.2493 2177.0811 2196.5547
231.6069 5.9534 -992.6409 34.2659 2177.6892 2197.2031
232.1006 5.9547 -992.9984 34.2826 2178.2988 2197.8516
232.5989 5.9558 -993.3518 34.2993 2178.9097 2198.4941
233.1016 5.9569 -993.7010 34.3160 2179.5217 2199.1367
233.6089 5.9579 -994.0460 34.3326 2180.1353 2199.7422
234.1206 5.9588 -994.3867 34.3493 2180.7500 2200.3340
234.6367 5.9595 -994.7231 34.3660 2181.3662 2200.9277
235.1573 5.9602 -995.0554 34.3826 2181.9836 2201.5234
235.6822 5.9607 -995.3834 34.3993 2182.6028 2202.1172
236.2115 5.9611 -995.7073 34.4160 2183.2231 2202.7129
236.7452 5.9614 -996.0270 34.4326 2183.8455 2203.3086
237.2832 5.9615 -996.3425 34.4493 2184.4690 2203.9062
237.8255 5.9615 -996.6540 34.4660 2185.0945 2204.5039
238.3721 5.9614 -996.9614 34.4827 2185.7214 2205.1016
238.9229 5.9612 -997.2646 34.4993 2186.3503 2205.7012
239.4779 5.9609 -997.5638 34.5160 2186.9807 2206.3027
240.0370 5.9605 -997.8591 34.5327 2187.6130 2206.9043
240.6002 5.9600 -998.1503 34.5493 2188.2471 2207.5078
241.1674 5.9594 -998.4376 34.5660 2188.8831 2208.1113
241.7388 5.9587 -998.7209 34.5827 2189.5208 2208.7188
242.3141 5.9580 -999.0005 34.5993 2190.1604 2209.3340
242.8934 5.9572 -999.2763 34.6160 2190.8020 2209.9531
243.4766 5.9563 -999.5484 34.6327 2191.4456 2210.5762
244.0639 5.9553 -999.8169 34.6494 2192.0913 2211.2031
244.6551 5.9543 -1000.0818 34.6660 2192.7390 2211.8340
245.2503 5.9532 -1000.3431 34.6827 2193.3892 2212.4688
245.8495 5.9519 -1000.6010 34.6994 2194.0415 2213.1094
246.4526 5.9506 -1000.8552 34.7160 2194.6960 2213.7520
247.0596 5.9491 -1001.1058 34.7327 2195.3528 2214.4004
247.6705 5.9476 -1001.3528 34.7494 2196.0117 2215.0508
248.2853 5.9458 -1001.5961 34.7661 2196.6729 2215.7070
248.9040 5.9440 -1001.8358 34.7827 2197.3364 2216.3652
249.5266 5.9420 -1002.0719 34.7994 2198.0022 2217.0273
250.1531 5.9399 -1002.3043 34.8161 2198.6704 2217.6953
250.7835 5.9376 -1002.5331 34.8327 2199.3411 2218.3652
251.4178 5.9352 -1002.7583 34.8494 2200.0142 2219.0391
252.0559 5.9326 -1002.9800 34.8661 2200.6897 2219.7168
252.6979 5.9299 -1003.1982 34.8828 2201.3677 2220.3965
253.3438 5.9270 -1003.4131 34.8994 2202.0486 2221.0781
253.9935 5.9239 -1003.6245 34.9161 2202.7317 2221.7637
254.6470 5.9206 -1003.8324 34.9328 2203.4175 2222.4531
255.3041 5.9171 -1004.0370 34.9494 2204.1057 2223.1445
255.9649 5.9134 -1004.2384 34.9661 2204.7966 2223.8398
256.6292 5.9095 -1004.4366 34.9828 2205.4897 2224.5391
257.2968 5.9054 -1004.6319 34.9995 2206.1853 2225.2383
257.9678 5.9012 -1004.8243 35.0161 2206.8835 2225.9434
258.6413 5.8968 -1005.0138 35.0328 2207.5833 2226.6484
259.3151 5.8924 -1005.2001 35.0495 2208.2822 2227.3535
259.9902 5.8878 -1005.3835 35.0661 2208.9819 2228.0605
260.6693 5.8832 -1005.5651 35.0828 2209.6848 2228.7695
261.3521 5.8785 -1005.7448 35.0995 2210.3909 2229.4824
262.0379 5.8737 -1005.9225 35.1162 2211.0994 2230.1992
262.7259 5.8691 -1006.0980 35.1328 2211.8093 2230.9160
263.4162 5.8645 -1006.2714 35.1495 2212.5210 2231.6367
264.1090 5.8601 -1006.4429 35.1662 2213.2349 2232.3633
264.8043 5.8558 -1006.6125 35.1828 2213.9504 2233.0918
265.5016 5.8517 -1006.7806 35.1995 2214.6677 2233.8223
266.2004 5.8477 -1006.9471 35.2162 2215.3862 2234.5527
266.9008 5.8437 -1007.1125 35.2329 2216.1060 2235.2852
267.6026 5.8397 -1007.2769 35.2495 2216.8267 2236.0195
268.3056 5.8358 -1007.4406 35.2662 2217.5486 2236.7539
269.0098 5.8318 -1007.6038 35.2829 2218.2715 2237.4902
269.7159 5.8279 -1007.7668 35.2995 2218.9961 2238.2266
270.4238 5.8240 -1007.9299 35.3162 2219.7224 2238.9668
271.1331 5.8202 -1008.0930 35.3329 2220.4502 2239.7070
271.8443 5.8164 -1008.2562 35.3495 2221.1799 2240.4492
272.5571 5.8126 -1008.4195 35.3662 2221.9114 2241.1914
273.2713 5.8089 -1008.5829 35.3829 2222.6440 2241.9375
273.9868 5.8052 -1008.7465 35.3996 2223.3779 2242.6836
274.7043 5.8016 -1008.9105 35.4162 2224.1140 2243.4316
275.4235 5.7982 -1009.0746 35.4329 2224.8516 2244.1738
276.1439 5.7947 -1009.2390 35.4496 2225.5906 2244.9180
276.8664 5.7914 -1009.4036 35.4662 2226.3315 2245.6641
277.5905 5.7880 -1009.5686 35.4829 2227.0742 2246.4121
278.3166 5.7847 -1009.7339 35.4996 2227.8188 2247.1621
279.0445 5.7813 -1009.8995 35.5162 2228.5654 2247.9141
279.7740 5.7780 -1010.0654 35.5329 2229.3135 2248.6660
280.5052 5.7747 -1010.2314 35.5496 2230.0635 2249.4199
281.2386 5.7713 -1010.3978 35.5663 2230.8154 2250.1777
281.9739 5.7680 -1010.5645 35.5829 2231.5696 2250.9355
282.7112 5.7645 -1010.7314 35.5996 2232.3254 2251.6953
283.4503 5.7609 -1010.8986 35.6163 2233.0833 2252.4590
284.1913 5.7572 -1011.0659 35.6329 2233.8428 2253.2227
284.9345 5.7533 -1011.2334 35.6496 2234.6047 2253.9883
285.6799 5.7493 -1011.4012 35.6663 2235.3689 2254.7578
286.4275 5.7453 -1011.5693 35.6829 2236.1350 2255.5273
287.1770 5.7411 -1011.7376 35.6996 2236.9033 2256.3008
287.9287 5.7368 -1011.9063 35.7163 2237.6736 2257.0742
288.6824 5.7323 -1012.0755 35.7329 2238.4460 2257.8516
289.4382 5.7277 -1012.2451 35.7496 2239.2207 2258.6289
290.1960 5.7229 -1012.4153 35.7663 2239.9976 2259.4102
290.9561 5.7179 -1012.5863 35.7830 2240.7766 2260.1914
291.7183 5.7128 -1012.7581 35.7996 2241.5579 2260.9746
292.4828 5.7077 -1012.9308 35.8163 2242.3416 2261.7598
293.2494 5.7025 -1013.1046 35.8330 2243.1277 2262.5469
294.0181 5.6974 -1013.2795 35.8496 2243.9160 2263.3379
294.7890 5.6925 -1013.4557 35.8663 2244.7068 2264.1309
295.5621 5.6876 -1013.6333 35.8830 2245.5000 2264.9258
296.3374 5.6829 -1013.8123 35.8997 2246.2959 2265.7227
297.1147 5.6782 -1013.9927 35.9163 2247.0938 2266.5215
297.8940 5.6736 -1014.1747 35.9330 2247.8940 2267.3242
298.6756 5.6689 -1014.3584 35.9497 2248.6970 2268.1270
299.4594 5.6641 -1014.5437 35.9663 2249.5024 2268.9336
300.2452 5.6591 -1014.7307 35.9830 2250.3101 2269.7441
301.0331 5.6538 -1014.9195 35.9997 2251.1204 2270.5547
301.8232 5.6481 -1015.1102 36.0164 2251.9331 2271.3691
302.6154 5.6420 -1015.3030 36.0330 2252.7485 2272.1855
303.4096 5.6353 -1015.4979 36.0497 2253.5664 2273.0059
304.2058 5.6280 -1015.6952 36.0664 2254.3867 2273.8262
305.0039 5.6200 -1015.8950 36.0830 2255.2095 2274.6504
305.8038 5.6114 -1016.0974 36.0997 2256.0347 2275.4785
306.6057 5.6022 -1016.3026 36.1164 2256.8623 2276.3066
307.4097 5.5924 -1016.5105 36.1331 2257.6929 2277.1387
308.2156 5.5821 -1016.7212 36.1497 2258.5259 2277.9746
309.0235 5.5714 -1016.9347 36.1664 2259.3616 2278.8125
309.8335 5.5605 -1017.1509 36.1831 2260.2000 2279.6523
310.6458 5.5495 -1017.3698 36.1997 2261.0415 2280.4961
311.4601 5.5385 -1017.5914 36.2164 2261.8855 2281.3418
312.2765 5.5278 -1017.8154 36.2331 2262.7319 2282.1895
313.0952 5.5174 -1018.0421 36.2498 2263.5815 2283.0410
313.9159 5.5074 -1018.2711 36.2664 2264.4338 2283.8945
314.7388 5.4979 -1018.5026 36.2831 2265.2886 2284.7520
315.5623 5.4889 -1018.7359 36.2998 2266.1445 2285.6113
316.3846 5.4806 -1018.9705 36.3164 2266.9998 2286.4668
317.2076 5.4727 -1019.2067 36.3331 2267.8560 2287.3223
318.0342 5.4654 -1019.4455 36.3498 2268.7163 2288.1816
318.8638 5.4584 -1019.6866 36.3664 2269.5803 2289.0449
319.6948 5.4518 -1019.9295 36.3831 2270.4463 2289.9102
320.5269 5.4454 -1020.1741 36.3998 2271.3135 2290.7773
321.3600 5.4393 -1020.4203 36.4164 2272.1821 2291.6445
322.1942 5.4333 -1020.6683 36.4331 2273.0525 2292.5137
323.0297 5.4274 -1020.9180 36.4498 2273.9246 2293.3848
323.8662 5.4216 -1021.1693 36.4665 2274.7981 2294.2578
324.7039 5.4158 -1021.4222 36.4831 2275.6731 2295.1328
325.5428 5.4099 -1021.6768 36.4998 2276.5498 2296.0078
326.3830 5.4041 -1021.9329 36.5165 2277.4282 2296.8867
327.2245 5.3983 -1022.1908 36.5331 2278.3083 2297.7656
328.0672 5.3924 -1022.4502 36.5498 2279.1902 2298.6484
328.9113 5.3865 -1022.7112 36.5665 2280.0735 2299.5312
329.7567 5.3806 -1022.9739 36.5831 2280.9590 2300.4160
330.6034 5.3747 -1023.2382 36.5998 2281.8459 2301.3027
331.4516 5.3688 -1023.5040 36.6165 2282.7349 2302.1914
332.3011 5.3630 -1023.7715 36.6331 2283.6255 2303.0820
333.1521 5.3571 -1024.0406 36.6498 2284.5181 2303.9746
334.0046 5.3514 -1024.3113 36.6665 2285.4124 2304.8672
334.8585 5.3457 -1024.5836 36.6832 2286.3088 2305.7637
335.7140 5.3400 -1024.8575 36.6998 2287.2070 2306.6621
336.5709 5.3345 -1025.1331 36.7165 2288.1072 2307.5625
337.4295 5.3289 -1025.4103 36.7332 2289.0095 2308.4648
338.2897 5.3235 -1025.6890 36.7498 2289.9136 2309.3691
339.1516 5.3180 -1025.9692 36.7665 2290.8201 2310.2734
340.0152 5.3127 -1026.2511 36.7832 2291.7285 2311.1836
340.8804 5.3074 -1026.5344 36.7998 2292.6389 2312.0938
341.7474 5.3021 -1026.8192 36.8165 2293.5515 2313.0059
342.6162 5.2969 -1027.1055 36.8332 2294.4663 2313.9199
343.4868 5.2917 -1027.3933 36.8499 2295.3833 2314.8379
344.3593 5.2865 -1027.6825 36.8665 2296.3025 2315.7559
345.2338 5.2814 -1027.9731 36.8832 2297.2239 2316.6777
346.1102 5.2764 -1028.2651 36.8999 2298.1477 2317.6016
346.9885 5.2713 -1028.5585 36.9165 2299.0737 2318.5273
347.8689 5.2663 -1028.8531 36.9332 2300.0022 2319.4570
348.7514 5.2614 -1029.1490 36.9499 2300.9329 2320.3867
349.6358 5.2565 -1029.4463 36.9665 2301.8660 2321.3203
350.5224 5.2517 -1029.7446 36.9832 2302.8013 2322.2559
351.4109 5.2469 -1030.0442 36.9999 2303.7390 2323.1934
352.3015 5.2422 -1030.3450 37.0166 2304.6792 2324.1328
353.1942 5.2375 -1030.6469 37.0332 2305.6213 2325.0762
354.0887 5.2329 -1030.9500 37.0499 2306.5659 2326.0195
354.9854 5.2283 -1031.2543 37.0666 2307.5129 2326.9668
355.8839 5.2237 -1031.5598 37.0832 2308.4619 2327.9160
356.7843 5.2191 -1031.8667 37.0999 2309.4133 2328.8672
357.6867 5.2144 -1032.1748 37.1166 2310.3667 2329.8203
358.5910 5.2098 -1032.4843 37.1332 2311.3225 2330.7773
359.4972 5.2051 -1032.7950 37.1499 2312.2805 2331.7344
360.4052 5.2004 -1033.1071 37.1666 2313.2407 2332.6953
361.3151 5.1956 -1033.4205 37.1833 2314.2031 2333.6582
362.2269 5.1908 -1033.7352 37.1999 2315.1677 2334.6211
363.1405 5.1861 -1034.0511 37.2166 2316.1345 2335.5898
364.0559 5.1812 -1034.3684 37.2333 2317.1033 2336.5586
364.9732 5.1763 -1034.6870 37.2499 2318.0742 2337.5293
365.8923 5.1713 -1035.0068 37.2666 2319.0476 2338.5020
366.8133 5.1662 -1035.3279 37.2833 2320.0227 2339.4766
367.7360 5.1608 -1035.6501 37.2999 2321.0002 2340.4551
368.6605 5.1552 -1035.9735 37.3166 2321.9797 2341.4336
369.5869 5.1494 -1036.2981 37.3333 2322.9612 2342.4160
370.5150 5.1432 -1036.6239 37.3499 2323.9448 2343.4004
371.4450 5.1367 -1036.9507 37.3666 2324.9307 2344.3867
372.3767 5.1298 -1037.2787 37.3833 2325.9185 2345.3750
373.3103 5.1227 -1037.6077 37.4000 2326.9084 2346.3652
374.2457 5.1153 -1037.9377 37.4166 2327.9004 2347.3574
375.1829 5.1078 -1038.2689 37.4333 2328.8943 2348.3535
376.1218 5.1001 -1038.6012 37.4500 2329.8904 2349.3496
377.0626 5.0924 -1038.9344 37.4666 2330.8884 2350.3477
378.0050 5.0848 -1039.2689 37.4833 2331.8884 2351.3496
378.9493 5.0773 -1039.6044 37.5000 2332.8906 2352.3516
379.8953 5.0701 -1039.9408 37.5166 2333.8948 2353.3574
380.8431 5.0631 -1040.2784 37.5333 2334.9009 2354.3633
381.7925 5.0564 -1040.6171 37.5500 2335.9089 2355.3730
382.7437 5.0501 -1040.9568 37.5667 2336.9189 2356.3828
383.6954 5.0441 -1041.2971 37.5833 2337.9297 2357.3945
384.6460 5.0382 -1041.6375 37.6000 2338.9392 2358.4062
385.5973 5.0324 -1041.9783 37.6167 2339.9497 2359.4180
386.5522 5.0265 -1042.3208 37.6333 2340.9644 2360.4336
387.5100 5.0206 -1042.6648 37.6500 2341.9822 2361.4512
388.4683 5.0147 -1043.0090 37.6667 2343.0005 2362.4707
389.4275 5.0086 -1043.3539 37.6833 2344.0198 2363.4922
390.3877 5.0026 -1043.6993 37.7000 2345.0400 2364.5117
391.3489 4.9966 -1044.0452 37.7167 2346.0618 2365.5352
392.3114 4.9907 -1044.3916 37.7333 2347.0847 2366.5586
393.2750 4.9849 -1044.7384 37.7500 2348.1086 2367.5840
394.2398 4.9792 -1045.0856 37.7667 2349.1340 2368.6113
395.2058 4.9735 -1045.4332 37.7833 2350.1609 2369.6387
396.1731 4.9678 -1045.7811 37.8000 2351.1887 2370.6641
397.1417 4.9621 -1046.1295 37.8167 2352.2183 2371.6914
398.1116 4.9562 -1046.4783 37.8334 2353.2488 2372.7207
399.0828 4.9503 -1046.8275 37.8500 2354.2810 2373.7500
400.0553 4.9443 -1047.1771 37.8667 2355.3145 2374.7812
401.0292 4.9382 -1047.5273 37.8834 2356.3494 2375.8125
402.0045 4.9321 -1047.8779 37.9000 2357.3857 2376.8477
402.9811 4.9259 -1048.2290 37.9167 2358.4236 2377.8828
403.9592 4.9197 -1048.5807 37.9334 2359.4631 2378.9199
404.9388 4.9135 -1048.9329 37.9500 2360.5042 2379.9570
405.9198 4.9073 -1049.2855 37.9667 2361.5466 2380.9980
