VERSION 0.7
FIELDS x y z time arclength
SIZE 4 4 4 4 4
TYPE F F F F F
COUNT 1 1 1 1 1
WIDTH 1074
HEIGHT 1
VIEWPOINT 0.000 0.000 0.000 1.000 -170.934 0.684 -203.206
POINTS 1074
DATA ascii
262.4442 5.8705 -1006.0277 35.1124 2211.5103
263.2372 5.8641 -1006.2288 35.1474 2212.3284
264.8047 5.8550 -1006.6147 35.1824 2213.9426
266.2756 5.8480 -1006.9646 35.2174 2215.4546
267.8879 5.8387 -1007.3414 35.2524 2217.1104
269.6211 5.8280 -1007.7433 35.2874 2218.8896
270.6771 5.8227 -1007.9872 35.3224 2219.9734
272.5831 5.8127 -1008.4251 35.3574 2221.9292
273.9055 5.8051 -1008.7280 35.3924 2223.2859
275.7039 5.7966 -1009.1382 35.4274 2225.1304
276.8708 5.7919 -1009.4045 35.4624 2226.3274
278.3657 5.7845 -1009.7451 35.4975 2227.8606
280.1678 5.7756 -1010.1547 35.5325 2229.7085
281.1756 5.7709 -1010.3834 35.5675 2230.7419
283.0768 5.7639 -1010.8146 35.6025 2232.6917
284.2812 5.7571 -1011.0867 35.6375 2233.9263
285.9661 5.7469 -1011.4659 35.6725 2235.6533
287.8485 5.7375 -1011.8888 35.7075 2237.5828
289.4385 5.7286 -1012.2454 35.7425 2239.2124
291.0878 5.7174 -1012.6160 35.7775 2240.9026
292.4760 5.7074 -1012.9291 35.8125 2242.3259
293.9062 5.6975 -1013.2537 35.8475 2243.7925
295.5621 5.6869 -1013.6331 35.8825 2245.4912
297.2068 5.6772 -1014.0140 35.9175 2247.1797
299.0909 5.6663 -1014.4567 35.9525 2249.1150
300.9740 5.6546 -1014.9062 35.9876 2251.0510
302.2937 5.6446 -1015.2251 36.0226 2252.4087
304.2798 5.6285 -1015.7127 36.0576 2254.4539
305.3648 5.6171 -1015.9843 36.0926 2255.5725
307.4099 5.5930 -1016.5099 36.1276 2257.6841
308.9937 5.5722 -1016.9266 36.1626 2259.3220
310.7350 5.5479 -1017.3940 36.1976 2261.1250
312.8475 5.5197 -1017.9731 36.2326 2263.3157
313.9081 5.5067 -1018.2689 36.2676 2264.4167
316.2228 5.4815 -1018.9247 36.3026 2266.8228
317.5447 5.4695 -1019.3046 36.3376 2268.1982
319.6939 5.4518 -1019.9291 36.3726 2270.4363
321.2496 5.4404 -1020.3877 36.4076 2272.0583
323.0448 5.4275 -1020.9225 36.4426 2273.9316
324.7795 5.4155 -1021.4451 36.4777 2275.7434
326.3816 5.4042 -1021.9326 36.5127 2277.4180
327.9763 5.3932 -1022.4222 36.5477 2279.0862
329.7329 5.3807 -1022.9665 36.5827 2280.9253
331.5426 5.3681 -1023.5327 36.6177 2282.8215
333.8474 5.3524 -1024.2614 36.6527 2285.2388
335.5948 5.3408 -1024.8193 36.6877 2287.0730
336.9193 5.3322 -1025.2454 36.7227 2288.4644
339.1631 5.3180 -1025.9730 36.7577 2290.8235
340.8647 5.3075 -1026.5293 36.7927 2292.6135
342.8006 5.2958 -1027.1664 36.8277 2294.6516
344.2922 5.2870 -1027.6600 36.8627 2296.2229
346.1094 5.2764 -1028.2649 36.8977 2298.1382
347.8414 5.2665 -1028.8441 36.9328 2299.9644
350.0228 5.2544 -1029.5767 36.9678 2302.2656
351.8855 5.2444 -1030.2046 37.0028 2304.2312
354.0452 5.2331 -1030.9352 37.0378 2306.5112
355.5689 5.2253 -1031.4526 37.0728 2308.1206
357.7726 5.2141 -1032.2040 37.1078 2310.4487
359.0162 5.2076 -1032.6299 37.1428 2311.7632
361.2679 5.1958 -1033.4041 37.1778 2314.1443
363.1161 5.1860 -1034.0427 37.2128 2316.0999
365.2788 5.1746 -1034.7933 37.2478 2318.3892
367.4026 5.1628 -1035.5337 37.2828 2320.6382
368.5828 5.1560 -1035.9463 37.3178 2321.8884
370.9621 5.1403 -1036.7810 37.3528 2324.4099
372.5081 5.1291 -1037.3250 37.3879 2326.0491
374.6441 5.1123 -1038.0786 37.4229 2328.3142
377.0152 5.0928 -1038.9177 37.4579 2330.8293
378.9328 5.0772 -1039.5984 37.4929 2332.8643
381.0822 5.0607 -1040.3636 37.5279 2335.1460
382.6633 5.0501 -1040.9279 37.5629 2336.8247
384.6304 5.0385 -1041.6317 37.5979 2338.9138
386.5215 5.0273 -1042.3098 37.6329 2340.9229
389.3629 5.0091 -1043.3306 37.6679 2343.9421
391.1182 4.9977 -1043.9623 37.7029 2345.8079
393.3151 4.9843 -1044.7531 37.7379 2348.1426
395.0293 4.9745 -1045.3699 37.7729 2349.9646
397.2342 4.9617 -1046.1628 37.8079 2352.3076
398.5895 4.9536 -1046.6501 37.8429 2353.7480
401.0292 4.9383 -1047.5272 37.8780 2356.3406
403.5958 4.9220 -1048.4500 37.9130 2359.0681
405.3947 4.9106 -1049.0968 37.9480 2360.9797
406.8708 4.9012 -1049.6273 37.9830 2362.5483
408.9694 4.8885 -1050.3817 38.0180 2364.7783
411.3939 4.8741 -1051.2527 38.0530 2367.3547
413.8061 4.8604 -1052.1187 38.0880 2369.9175
415.6357 4.8504 -1052.7749 38.1230 2371.8616
417.9080 4.8380 -1053.5890 38.1580 2374.2751
419.3342 4.8306 -1054.0995 38.1930 2375.7900
421.7810 4.8183 -1054.9740 38.2280 2378.3884
423.8360 4.8086 -1055.7074 38.2630 2380.5703
425.7941 4.7996 -1056.4055 38.2980 2382.6492
428.6982 4.7868 -1057.4393 38.3330 2385.7319
429.9803 4.7813 -1057.8950 38.3681 2387.0925
432.7520 4.7697 -1058.8793 38.4031 2390.0337
434.1960 4.7640 -1059.3915 38.4381 2391.5659
437.1358 4.7524 -1060.4327 38.4731 2394.6848
439.2547 4.7441 -1061.1819 38.5081 2396.9324
441.2606 4.7355 -1061.8900 38.5431 2399.0596
443.8456 4.7237 -1062.8010 38.5781 2401.8003
445.4300 4.7160 -1063.3579 38.6131 2403.4797
447.6390 4.7049 -1064.1335 38.6481 2405.8210
450.3092 4.6916 -1065.0681 38.6831 2408.6501
451.7532 4.6843 -1065.5728 38.7181 2410.1797
454.7269 4.6691 -1066.6090 38.7531 2413.3289
456.1632 4.6616 -1067.1082 38.7881 2414.8494
458.7424 4.6480 -1068.0034 38.8232 2417.5796
461.2726 4.6351 -1068.8787 38.8582 2420.2568
463.4247 4.6248 -1069.6193 38.8932 2422.5330
465.9941 4.6134 -1070.5004 38.9282 2425.2493
467.7530 4.6059 -1071.1008 38.9632 2427.1079
469.9980 4.5965 -1071.8636 38.9982 2429.4788
472.0634 4.5881 -1072.5615 39.0332 2431.6589
475.3102 4.5749 -1073.6519 39.0682 2435.0840
477.3019 4.5672 -1074.3126 39.1032 2437.1826
479.7513 4.5576 -1075.1127 39.1382 2439.7593
481.8002 4.5488 -1075.7688 39.1732 2441.9106
483.9178 4.5380 -1076.4352 39.2082 2444.1306
486.1884 4.5240 -1077.1362 39.2432 2446.5071
488.4608 4.5078 -1077.8181 39.2782 2448.8796
490.3459 4.4920 -1078.3660 39.3133 2450.8428
492.8730 4.4681 -1079.0709 39.3483 2453.4666
495.2170 4.4428 -1079.6929 39.3833 2455.8918
496.4581 4.4279 -1080.0081 39.4183 2457.1724
499.2036 4.3914 -1080.6666 39.4533 2459.9961
500.5576 4.3708 -1080.9723 39.4883 2461.3843
503.2806 4.3263 -1081.5402 39.5233 2464.1663
505.2261 4.2960 -1081.9048 39.5583 2466.1460
507.0615 4.2711 -1082.2155 39.5933 2468.0076
508.8936 4.2494 -1082.4940 39.6283 2469.8608
510.7774 4.2299 -1082.7468 39.6633 2471.7617
512.8557 4.2118 -1082.9871 39.6983 2473.8540
515.1528 4.1942 -1083.2081 39.7333 2476.1619
516.2953 4.1856 -1083.2997 39.7683 2477.3081
518.7338 4.1656 -1083.4594 39.8034 2479.7517
519.9678 4.1523 -1083.5245 39.8384 2480.9875
522.4366 4.1183 -1083.6167 39.8734 2483.4585
524.1757 4.0877 -1083.6531 39.9084 2485.1982
525.8567 4.0549 -1083.6611 39.9434 2486.8796
527.4445 4.0222 -1083.6400 39.9784 2488.4678
529.1924 3.9874 -1083.5798 40.0134 2490.2173
531.0152 3.9512 -1083.4766 40.0484 2492.0432
533.0701 3.9188 -1083.3020 40.0834 2494.1060
534.1603 3.9033 -1083.1859 40.1184 2495.2024
536.4482 3.8765 -1082.8929 40.1534 2497.5093
537.5449 3.8651 -1082.7306 40.1884 2498.6179
539.5118 3.8453 -1082.4050 40.2234 2500.6118
541.3619 3.8277 -1082.0596 40.2585 2502.4939
542.9044 3.8118 -1081.7424 40.2935 2504.0688
544.8077 3.7932 -1081.3115 40.3285 2506.0205
546.0364 3.7805 -1081.0118 40.3635 2507.2852
547.7808 3.7625 -1080.5548 40.3985 2509.0886
549.6117 3.7437 -1080.0370 40.4335 2510.9915
550.6108 3.7325 -1079.7371 40.4685 2512.0347
552.7925 3.7098 -1079.0333 40.5035 2514.3274
553.8691 3.6992 -1078.6643 40.5385 2515.4653
555.9460 3.6752 -1077.9083 40.5735 2517.6758
557.4454 3.6577 -1077.3241 40.6085 2519.2849
558.8975 3.6415 -1076.7263 40.6435 2520.8555
560.2741 3.6263 -1076.1311 40.6785 2522.3555
561.7788 3.6085 -1075.4503 40.7135 2524.0071
563.3704 3.5902 -1074.6912 40.7486 2525.7705
565.1664 3.5718 -1073.7871 40.7836 2527.7815
566.0737 3.5622 -1073.3116 40.8186 2528.8057
568.0235 3.5415 -1072.2522 40.8536 2531.0249
568.9519 3.5322 -1071.7275 40.8886 2532.0913
570.7416 3.5140 -1070.6746 40.9236 2534.1680
572.3307 3.4937 -1069.7001 40.9586 2536.0322
573.6543 3.4763 -1068.8530 40.9936 2537.6038
575.1642 3.4643 -1067.8375 41.0286 2539.4233
576.2852 3.4589 -1067.0508 41.0636 2540.7930
577.6108 3.4535 -1066.0844 41.0986 2542.4336
578.8699 3.4523 -1065.1274 41.1336 2544.0151
580.3192 3.4521 -1063.9812 41.1686 2545.8628
581.7403 3.4474 -1062.8198 41.2037 2547.6982
583.2526 3.4366 -1061.5388 41.2387 2549.6802
584.2896 3.4304 -1060.6212 41.2737 2551.0649
585.8243 3.4244 -1059.2061 41.3087 2553.1526
586.9037 3.4199 -1058.1686 41.3437 2554.6497
588.3190 3.4124 -1056.7554 41.3787 2556.6499
588.9112 3.4086 -1056.1470 41.4137 2557.4988
590.3192 3.4007 -1054.6486 41.4487 2559.5549
591.3796 3.3959 -1053.4722 41.4837 2561.1389
592.6212 3.3910 -1052.0415 41.5187 2563.0332
593.9391 3.3867 -1050.4581 41.5537 2565.0933
595.1232 3.3826 -1048.9738 41.5887 2566.9922
596.1230 3.3795 -1047.6730 41.6237 2568.6328
597.0992 3.3763 -1046.3582 41.6587 2570.2705
598.1028 3.3739 -1044.9564 41.6938 2571.9944
599.1862 3.3709 -1043.3850 41.7288 2573.9031
599.9866 3.3701 -1042.1802 41.7638 2575.3496
600.9407 3.3687 -1040.6959 41.7988 2577.1140
601.8095 3.3670 -1039.2930 41.8338 2578.7644
602.8847 3.3672 -1037.4751 41.8688 2580.8765
603.8208 3.3683 -1035.8177 41.9038 2582.7798
604.8018 3.3712 -1033.9967 41.9388 2584.8484
605.5124 3.3732 -1032.6193 41.9738 2586.3984
606.4089 3.3783 -1030.8003 42.0088 2588.4263
606.9611 3.3814 -1029.6339 42.0438 2589.7168
607.8464 3.3881 -1027.6722 42.0788 2591.8689
608.5368 3.3946 -1026.0603 42.1138 2593.6226
609.1663 3.4010 -1024.5239 42.1488 2595.2830
609.8564 3.4095 -1022.7688 42.1839 2597.1689
610.5923 3.4181 -1020.7904 42.2189 2599.2798
611.2531 3.4263 -1018.9042 42.2539 2601.2786
611.9457 3.4358 -1016.8043 42.2889 2603.4897
612.4245 3.4412 -1015.2709 42.3239 2605.0962
613.0392 3.4476 -1013.1938 42.3589 2607.2622
613.4056 3.4509 -1011.8896 42.3939 2608.6169
613.9912 3.4564 -1009.6702 42.4289 2610.9124
614.4150 3.4599 -1007.9547 42.4639 2612.6794
614.8368 3.4612 -1006.1456 42.4989 2614.5371
615.2353 3.4607 -1004.3271 42.5339 2616.3987
615.6840 3.4585 -1002.1211 42.5689 2618.6499
616.0696 3.4538 -1000.0718 42.6039 2620.7354
616.4597 3.4463 -997.8226 42.6390 2623.0181
616.7291 3.4388 -996.1454 42.6740 2624.7168
617.0560 3.4320 -993.9515 42.7090 2626.9348
617.3120 3.4261 -992.0972 42.7440 2628.8069
617.5613 3.4201 -990.1682 42.7790 2630.7520
617.7816 3.4136 -988.3300 42.8140 2632.6033
618.0002 3.4052 -986.3544 42.8490 2634.5911
618.2006 3.3962 -984.3905 42.8840 2636.5652
618.4159 3.3848 -982.1042 42.9190 2638.8616
618.6270 3.3714 -979.6816 42.9540 2641.2935
618.8033 3.3605 -977.4948 42.9890 2643.4873
618.9520 3.3494 -975.5170 43.0240 2645.4707
619.0845 3.3403 -973.6330 43.0590 2647.3594
619.2190 3.3321 -971.6143 43.0940 2649.3826
619.3475 3.3193 -969.5762 43.1291 2651.4248
619.5079 3.3033 -966.8430 43.1641 2654.1628
619.5764 3.2968 -965.6045 43.1991 2655.4031
619.6819 3.2885 -963.6071 43.2341 2657.4033
619.8025 3.2782 -961.1838 43.2691 2659.8296
619.8832 3.2698 -959.4858 43.3041 2661.5295
620.0184 3.2552 -956.4896 43.3391 2664.5288
620.0945 3.2473 -954.7992 43.3741 2666.2209
620.2095 3.2347 -952.2600 43.4091 2668.7627
620.3073 3.2239 -950.1049 43.4441 2670.9202
620.3951 3.2150 -948.1682 43.4791 2672.8589
620.4870 3.2076 -946.1465 43.5141 2674.8826
620.5952 3.2000 -943.7754 43.5491 2677.2563
620.7182 3.1917 -941.0826 43.5842 2679.9519
620.7834 3.1882 -939.6707 43.6192 2681.3652
620.9290 3.1810 -936.6082 43.6542 2684.4314
621.0322 3.1759 -934.5247 43.6892 2686.5173
621.1298 3.1711 -932.6157 43.7242 2688.4287
621.2574 3.1656 -930.2225 43.7592 2690.8254
621.3774 3.1612 -928.0872 43.7942 2692.9641
621.5328 3.1562 -925.4877 43.8292 2695.5684
621.6356 3.1533 -923.8636 43.8642 2697.1956
621.7962 3.1493 -921.4568 43.8992 2699.6077
621.9828 3.1454 -918.8178 43.9342 2702.2534
622.0873 3.1435 -917.4027 43.9692 2703.6724
622.3193 3.1396 -914.3862 44.0042 2706.6978
622.4630 3.1375 -912.5925 44.0392 2708.4971
622.7087 3.1344 -909.6339 44.0743 2711.4661
622.8837 3.1324 -907.5989 44.1093 2713.5085
623.0817 3.1304 -905.3491 44.1443 2715.7671
623.3066 3.1283 -902.8458 44.1793 2718.2803
623.5616 3.1260 -900.0679 44.2143 2721.0698
623.6848 3.1249 -898.7463 44.2493 2722.3972
623.8939 3.1231 -896.5310 44.2843 2724.6223
624.1636 3.1210 -893.7196 44.3193 2727.4468
624.4001 3.1193 -891.2879 44.3543 2729.8899
624.6627 3.1173 -888.6232 44.3893 2732.5674
624.8729 3.1157 -886.5137 44.4243 2734.6875
625.1215 3.1138 -884.0433 44.4593 2737.1702
625.2905 3.1125 -882.3774 44.4943 2738.8447
625.5756 3.1114 -879.5897 44.5294 2741.6470
625.8026 3.1116 -877.3901 44.5644 2743.8584
626.0770 3.1124 -874.7555 44.5994 2746.5071
626.3809 3.1134 -871.8579 44.6344 2749.4207
626.5450 3.1145 -870.2948 44.6694 2750.9924
626.8878 3.1171 -867.0345 44.7044 2754.2705
627.0454 3.1187 -865.5338 44.7394 2755.7795
627.3243 3.1217 -862.8738 44.7744 2758.4541
627.6148 3.1254 -860.0952 44.8094 2761.2480
627.8652 3.1286 -857.6937 44.8444 2763.6624
628.1561 3.1318 -854.8959 44.8794 2766.4753
628.3307 3.1334 -853.2084 44.9144 2768.1719
628.5988 3.1352 -850.6069 44.9494 2770.7871
628.8160 3.1367 -848.4829 44.9844 2772.9221
629.0947 3.1385 -845.7355 45.0195 2775.6836
629.3803 3.1410 -842.8886 45.0545 2778.5449
629.6344 3.1438 -840.3171 45.0895 2781.1289
629.8492 3.1462 -838.1107 45.1245 2783.3457
630.0786 3.1489 -835.7175 45.1595 2785.7500
630.2423 3.1506 -833.9859 45.1945 2787.4893
630.4875 3.1526 -831.3447 45.2295 2790.1418
630.6855 3.1546 -829.1577 45.2645 2792.3376
630.9255 3.1567 -826.4462 45.2995 2795.0598
631.1227 3.1588 -824.1334 45.3345 2797.3811
631.2647 3.1604 -822.3884 45.3695 2799.1318
631.4434 3.1618 -820.0526 45.4045 2801.4744
631.6120 3.1628 -817.6697 45.4395 2803.8633
631.7255 3.1642 -815.9454 45.4745 2805.5913
631.8726 3.1657 -813.4612 45.5096 2808.0798
631.9310 3.1655 -812.3407 45.5446 2809.2019
632.0314 3.1630 -809.9886 45.5796 2811.5562
632.0858 3.1595 -808.1506 45.6146 2813.3950
632.1198 3.1538 -806.0386 45.6496 2815.5073
632.1188 3.1453 -803.8036 45.6846 2817.7422
632.0999 3.1394 -802.5931 45.7196 2818.9529
632.0211 3.1248 -800.1331 45.7546 2821.4143
631.9308 3.1130 -798.4053 45.7896 2823.1445
631.8338 3.1014 -796.9768 45.8246 2824.5764
631.6658 3.0822 -794.9791 45.8596 2826.5813
631.4983 3.0657 -793.3716 45.8946 2828.1975
631.2647 3.0437 -791.4866 45.9296 2830.0972
631.0757 3.0262 -790.1622 45.9646 2831.4351
630.8110 3.0032 -788.5228 45.9997 2833.0959
630.5339 2.9794 -786.9932 46.0347 2834.6506
630.1071 2.9434 -784.9099 46.0697 2836.7776
629.7422 2.9119 -783.3093 46.1047 2838.4194
629.3010 2.8737 -781.5437 46.1397 2840.2397
628.9316 2.8440 -780.1924 46.1747 2841.6411
628.4283 2.8064 -778.4947 46.2097 2843.4124
628.0749 2.7833 -777.3864 46.2447 2844.5759
627.4650 2.7476 -775.6009 46.2797 2846.4631
626.9437 2.7218 -774.1841 46.3147 2847.9729
626.2827 2.6962 -772.5053 46.3497 2849.7773
625.5288 2.6723 -770.7054 46.3847 2851.7290
625.0917 2.6587 -769.7082 46.4197 2852.8179
624.1841 2.6380 -767.7415 46.4548 2854.9841
623.5289 2.6311 -766.4052 46.4898 2856.4724
622.8884 2.6260 -765.1475 46.5248 2857.8838
622.0869 2.6225 -763.6390 46.5598 2859.5920
621.3036 2.6181 -762.2271 46.5948 2861.2068
620.3611 2.6094 -760.5953 46.6298 2863.0913
619.8104 2.6039 -759.6740 46.6648 2864.1646
618.7908 2.5989 -758.0416 46.6998 2866.0894
617.8073 2.6082 -756.5567 46.7348 2867.8704
617.1916 2.6184 -755.6638 46.7698 2868.9551
615.8948 2.6441 -753.8519 46.8048 2871.1833
615.0895 2.6577 -752.7667 46.8398 2872.5349
613.9280 2.6771 -751.2587 46.8748 2874.4385
613.0466 2.6944 -750.1609 46.9098 2875.8464
612.0630 2.7173 -748.9805 46.9449 2877.3831
611.0296 2.7436 -747.7816 46.9799 2878.9661
609.9464 2.7715 -746.5648 47.0149 2880.5955
608.6596 2.8032 -745.1693 47.0499 2882.4941
607.3702 2.8334 -743.8235 47.0849 2884.3582
606.5746 2.8500 -743.0189 47.1199 2885.4897
605.0019 2.8792 -741.4783 47.1549 2887.6914
603.8682 2.8963 -740.4095 47.1899 2889.2498
602.7151 2.9109 -739.3565 47.2249 2890.8113
601.4753 2.9233 -738.2593 47.2599 2892.4670
600.4923 2.9300 -737.4133 47.2949 2893.7639
599.0452 2.9387 -736.2095 47.3299 2895.6465
597.8125 2.9436 -735.2209 47.3649 2897.2266
596.2985 2.9473 -734.0501 47.4000 2899.1404
594.6772 2.9477 -732.8417 47.4350 2901.1626
593.7736 2.9462 -732.1884 47.4700 2902.2776
591.9073 2.9385 -730.8741 47.5050 2904.5603
591.0202 2.9323 -730.2656 47.5400 2905.6360
589.3212 2.9182 -729.1306 47.5750 2907.6792
587.7734 2.9043 -728.1260 47.6100 2909.5247
586.3096 2.8898 -727.1998 47.6450 2911.2571
584.5429 2.8694 -726.1074 47.6800 2913.3342
583.5526 2.8594 -725.5083 47.7150 2914.4917
581.7352 2.8506 -724.4345 47.7500 2916.6025
580.0716 2.8410 -723.4716 47.7850 2918.5247
579.0775 2.8336 -722.9052 47.8200 2919.6689
576.9634 2.8163 -721.7201 47.8550 2922.0925
575.6395 2.8058 -720.9903 47.8901 2923.6042
574.1010 2.7944 -720.1510 47.9251 2925.3569
572.2350 2.7791 -719.1442 47.9601 2927.4773
570.6971 2.7650 -718.3230 47.9951 2929.2207
569.1573 2.7502 -717.5089 48.0301 2930.9626
567.5964 2.7368 -716.6910 48.0651 2932.7249
565.9667 2.7223 -715.8441 48.1001 2934.5615
563.7509 2.7019 -714.7040 48.1351 2937.0537
562.7038 2.6899 -714.1702 48.1701 2938.2290
560.3828 2.6632 -712.9977 48.2051 2940.8293
559.0100 2.6526 -712.3116 48.2401 2942.3640
557.0064 2.6388 -711.3183 48.2751 2944.6006
555.3806 2.6224 -710.5181 48.3101 2946.4126
553.5642 2.6034 -709.6311 48.3451 2948.4341
551.5189 2.5845 -708.6412 48.3802 2950.7065
550.5874 2.5772 -708.1923 48.4152 2951.7405
548.0582 2.5553 -706.9767 48.4502 2954.5469
546.1262 2.5385 -706.0486 48.4852 2956.6902
544.8887 2.5289 -705.4539 48.5202 2958.0632
542.6027 2.5129 -704.3544 48.5552 2960.5999
541.1928 2.5036 -703.6751 48.5902 2962.1650
538.9865 2.4892 -702.6108 48.6252 2964.6145
538.0213 2.4832 -702.1447 48.6602 2965.6865
535.6438 2.4691 -700.9944 48.6952 2968.3276
533.8412 2.4585 -700.1205 48.7302 2970.3311
532.1001 2.4483 -699.2732 48.7652 2972.2673
530.0949 2.4366 -698.2880 48.8002 2974.5015
528.4407 2.4274 -697.4675 48.8353 2976.3479
526.3636 2.4162 -696.4288 48.8703 2978.6704
524.2166 2.4055 -695.3474 48.9053 2981.0745
522.2388 2.3963 -694.3444 48.9403 2983.2920
520.5311 2.3891 -693.4739 48.9753 2985.2087
518.6646 2.3818 -692.5182 49.0103 2987.3057
516.8578 2.3753 -691.5897 49.0453 2989.3372
515.0742 2.3694 -690.6694 49.0803 2991.3442
513.0745 2.3632 -689.6332 49.1153 2993.5964
511.0104 2.3580 -688.5596 49.1503 2995.9231
509.5107 2.3547 -687.7770 49.1853 2997.6145
507.3892 2.3507 -686.6666 49.2203 3000.0093
505.2043 2.3469 -685.5197 49.2553 3002.4768
503.1754 2.3434 -684.4519 49.2903 3004.7695
501.4656 2.3405 -683.5503 49.3254 3006.7026
499.5052 2.3370 -682.5142 49.3604 3008.9199
497.6565 2.3339 -681.5349 49.3954 3011.0120
495.3987 2.3302 -680.3358 49.4304 3013.5684
493.8045 2.3277 -679.4871 49.4654 3015.3745
491.5577 2.3240 -678.2885 49.5004 3017.9209
489.4398 2.3200 -677.1563 49.5354 3020.3225
488.2325 2.3174 -676.5099 49.5704 3021.6919
485.5879 2.3120 -675.0920 49.6054 3024.6926
483.6209 2.3091 -674.0358 49.6404 3026.9253
481.7253 2.3087 -673.0169 49.6754 3029.0774
479.8440 2.3104 -672.0046 49.7104 3031.2139
477.8934 2.3144 -670.9537 49.7454 3033.4294
476.0478 2.3195 -669.9586 49.7805 3035.5261
473.9892 2.3254 -668.8472 49.8155 3037.8657
471.7121 2.3311 -667.6167 49.8505 3040.4541
469.4977 2.3355 -666.4188 49.8855 3042.9717
467.8057 2.3389 -665.5027 49.9205 3044.8958
465.5304 2.3437 -664.2698 49.9555 3047.4836
463.4418 2.3480 -663.1371 49.9905 3049.8596
461.4130 2.3513 -662.0362 50.0255 3052.1680
459.5982 2.3534 -661.0508 50.0605 3054.2329
457.5611 2.3551 -659.9437 50.0955 3056.5515
455.6409 2.3562 -658.8997 50.1305 3058.7371
452.8202 2.3573 -657.3644 50.1655 3061.9485
451.0696 2.3577 -656.4108 50.2005 3063.9419
448.7351 2.3578 -655.1378 50.2355 3066.6011
447.4331 2.3576 -654.4274 50.2706 3068.0842
444.7979 2.3568 -652.9890 50.3056 3071.0864
443.1940 2.3562 -652.1128 50.3406 3072.9141
440.5859 2.3553 -650.6876 50.3756 3075.8862
438.6927 2.3550 -649.6526 50.4106 3078.0437
436.9753 2.3547 -648.7133 50.4456 3080.0012
434.6661 2.3545 -647.4498 50.4806 3082.6335
432.7016 2.3543 -646.3746 50.5156 3084.8730
430.6434 2.3543 -645.2478 50.5506 3087.2195
428.4971 2.3546 -644.0723 50.5856 3089.6667
426.1101 2.3552 -642.7651 50.6206 3092.3882
423.7027 2.3561 -641.4464 50.6556 3095.1331
421.4441 2.3568 -640.2087 50.6906 3097.7085
419.5949 2.3571 -639.1953 50.7257 3099.8171
417.3596 2.3571 -637.9699 50.7607 3102.3662
415.1795 2.3570 -636.7739 50.7957 3104.8530
412.6942 2.3568 -635.4092 50.8307 3107.6882
411.2830 2.3567 -634.6337 50.8657 3109.2986
408.9029 2.3565 -633.3246 50.9007 3112.0149
407.0819 2.3562 -632.3223 50.9357 3114.0935
404.3618 2.3557 -630.8237 50.9707 3117.1992
401.7640 2.3556 -629.3911 51.0057 3120.1658
400.4060 2.3558 -628.6416 51.0407 3121.7168
397.6232 2.3569 -627.1043 51.0757 3124.8960
395.5710 2.3583 -625.9692 51.1107 3127.2412
393.5372 2.3600 -624.8427 51.1457 3129.5662
391.4353 2.3617 -623.6767 51.1807 3131.9697
389.2012 2.3637 -622.4354 51.2158 3134.5256
386.8133 2.3660 -621.1068 51.2508 3137.2583
384.2253 2.3687 -619.6644 51.2858 3140.2209
382.8296 2.3702 -618.8852 51.3208 3141.8196
379.8911 2.3733 -617.2415 51.3558 3145.1865
377.7092 2.3755 -616.0172 51.3908 3147.6885
375.5139 2.3776 -614.7817 51.4258 3150.2075
373.4433 2.3796 -613.6124 51.4608 3152.5854
371.0597 2.3817 -612.2610 51.4958 3155.3257
368.6219 2.3838 -610.8735 51.5308 3158.1306
367.2195 2.3848 -610.0729 51.5658 3159.7454
364.7007 2.3866 -608.6302 51.6008 3162.6482
362.8582 2.3877 -607.5713 51.6358 3164.7732
359.9020 2.3895 -605.8652 51.6708 3168.1863
358.5429 2.3903 -605.0780 51.7059 3169.7568
355.3827 2.3918 -603.2393 51.7409 3173.4133
353.4667 2.3925 -602.1188 51.7759 3175.6328
351.1553 2.3938 -600.7611 51.8109 3178.3135
348.9552 2.3958 -599.4628 51.8459 3180.8682
346.3162 2.3994 -597.8981 51.8809 3183.9360
344.8304 2.4016 -597.0137 51.9159 3185.6653
342.3134 2.4056 -595.5096 51.9509 3188.5972
340.4222 2.4093 -594.3745 51.9859 3190.8030
337.5439 2.4171 -592.6384 52.0209 3194.1643
334.9991 2.4248 -591.0955 52.0559 3197.1404
333.0741 2.4310 -589.9233 52.0909 3199.3943
330.4515 2.4387 -588.3194 52.1259 3202.4683
328.6326 2.4432 -587.2024 52.1610 3204.6030
326.5270 2.4472 -585.9044 52.1960 3207.0764
324.3863 2.4505 -584.5790 52.2310 3209.5942
321.9655 2.4540 -583.0727 52.2660 3212.4453
320.1024 2.4574 -581.9081 52.3010 3214.6426
317.7773 2.4627 -580.4473 52.3360 3217.3884
314.7197 2.4716 -578.5133 52.3710 3221.0063
312.7410 2.4777 -577.2541 52.4060 3223.3518
310.9796 2.4833 -576.1279 52.4410 3225.4424
308.3835 2.4920 -574.4594 52.4760 3228.5286
306.1109 2.5006 -572.9904 52.5110 3231.2346
303.9828 2.5089 -571.6077 52.5460 3233.7725
301.8719 2.5169 -570.2296 52.5810 3236.2932
299.5519 2.5245 -568.7070 52.6160 3239.0684
296.8749 2.5320 -566.9404 52.6511 3242.2756
295.2383 2.5365 -565.8550 52.6861 3244.2395
292.4266 2.5444 -563.9807 52.7211 3247.6187
289.9769 2.5494 -562.3375 52.7561 3250.5686
288.3104 2.5516 -561.2136 52.7911 3252.5786
285.6159 2.5539 -559.3875 52.8261 3255.8335
283.5872 2.5554 -558.0046 52.8611 3258.2888
281.7935 2.5569 -556.7759 52.8961 3260.4629
278.5546 2.5576 -554.5440 52.9311 3264.3965
277.3909 2.5571 -553.7381 52.9661 3265.8120
274.6913 2.5555 -551.8604 53.0011 3269.1003
272.9476 2.5549 -550.6417 53.0361 3271.2278
270.1873 2.5543 -548.7022 53.0711 3274.6013
267.5136 2.5549 -546.8112 53.1062 3277.8760
265.5537 2.5566 -545.4167 53.1412 3280.2815
262.9530 2.5570 -543.5562 53.1762 3283.4790
261.8068 2.5559 -542.7327 53.2112 3284.8904
259.2321 2.5510 -540.8752 53.2462 3288.0652
256.9492 2.5464 -539.2184 53.2812 3290.8860
254.8096 2.5412 -537.6575 53.3162 3293.5344
251.9659 2.5305 -535.5710 53.3512 3297.0615
250.4630 2.5233 -534.4628 53.3862 3298.9290
247.9386 2.5079 -532.5923 53.4212 3302.0708
245.3961 2.4922 -530.6976 53.4562 3305.2417
243.1437 2.4773 -529.0096 53.4912 3308.0564
241.1683 2.4614 -527.5223 53.5262 3310.5291
238.9431 2.4418 -525.8384 53.5612 3313.3198
236.8514 2.4223 -524.2471 53.5963 3315.9480
234.7757 2.4003 -522.6604 53.6313 3318.5608
232.2822 2.3681 -520.7444 53.6663 3321.7056
229.9743 2.3340 -518.9622 53.7013 3324.6218
228.2644 2.3080 -517.6360 53.7363 3326.7859
225.3056 2.2610 -515.3305 53.7713 3330.5371
223.2912 2.2276 -513.7538 53.8063 3333.0955
221.1156 2.1900 -512.0436 53.8413 3335.8630
218.9971 2.1508 -510.3713 53.8763 3338.5623
216.9690 2.1098 -508.7640 53.9113 3341.1504
214.6409 2.0593 -506.9108 53.9463 3344.1265
212.2086 2.0057 -504.9653 53.9813 3347.2415
210.7894 1.9718 -503.8261 54.0163 3349.0618
208.1758 1.9070 -501.7192 54.0513 3352.4194
206.4644 1.8640 -500.3333 54.0864 3354.6221
203.8274 1.7962 -498.1876 54.1214 3358.0225
201.2688 1.7274 -496.0948 54.1564 3361.3286
199.3291 1.6736 -494.5011 54.1914 3363.8396
196.8110 1.6026 -492.4234 54.2264 3367.1050
195.0956 1.5533 -491.0029 54.2614 3369.3328
192.6765 1.4804 -488.9931 54.2964 3372.4788
190.2127 1.4027 -486.9381 54.3314 3375.6880
189.0893 1.3667 -485.9983 54.3664 3377.1531
186.3942 1.2787 -483.7357 54.4014 3380.6731
184.7221 1.2231 -482.3266 54.4364 3382.8604
181.8902 1.1284 -479.9306 54.4714 3386.5710
180.6106 1.0862 -478.8443 54.5064 3388.2502
178.1502 1.0058 -476.7500 54.5415 3391.4822
175.6656 0.9234 -474.6291 54.5765 3394.7500
173.4987 0.8496 -472.7756 54.6115 3397.6023
171.4388 0.7780 -471.0103 54.6465 3400.3162
168.8641 0.6874 -468.7993 54.6815 3403.7112
167.0926 0.6250 -467.2747 54.7165 3406.0493
164.5911 0.5373 -465.1179 54.7515 3409.3533
162.2866 0.4571 -463.1271 54.7865 3412.3997
160.8239 0.4064 -461.8621 54.8215 3414.3342
158.0735 0.3112 -459.4815 54.8565 3417.9729
156.2724 0.2490 -457.9220 54.8915 3420.3562
153.6144 0.1579 -455.6197 54.9265 3423.8738
152.5009 0.1199 -454.6549 54.9615 3425.3477
150.0116 0.0350 -452.4971 54.9965 3428.6431
147.8936 -0.0369 -450.6602 55.0316 3431.4478
145.7451 -0.1095 -448.7959 55.0666 3434.2932
143.0417 -0.2005 -446.4494 55.1016 3437.8740
141.4537 -0.2536 -445.0709 55.1366 3439.9775
138.4858 -0.3517 -442.4948 55.1716 3443.9089
136.5358 -0.4154 -440.8022 55.2066 3446.4917
134.8246 -0.4711 -439.3170 55.2416 3448.7583
132.3652 -0.5506 -437.1825 55.2766 3452.0156
130.2152 -0.6191 -435.3164 55.3116 3454.8635
128.0286 -0.6875 -433.4185 55.3466 3457.7598
125.4090 -0.7679 -431.1449 55.3816 3461.2292
124.0401 -0.8099 -429.9567 55.4166 3463.0422
121.0875 -0.9023 -427.3935 55.4516 3466.9534
118.7625 -0.9774 -425.3752 55.4866 3470.0332
117.0996 -1.0316 -423.9316 55.5217 3472.2358
114.4950 -1.1158 -421.6705 55.5567 3475.6860
113.0910 -1.1603 -420.4516 55.5917 3477.5459
110.5304 -1.2390 -418.2283 55.6267 3480.9380
108.3241 -1.3054 -416.3124 55.6617 3483.8606
106.2190 -1.3689 -414.4843 55.6967 3486.6494
104.1719 -1.4324 -412.7064 55.7317 3489.3616
101.8883 -1.5033 -410.7226 55.7667 3492.3875
99.3040 -1.5831 -408.4777 55.8017 3495.8115
96.8275 -1.6582 -406.3259 55.8367 3499.0933
95.1236 -1.7091 -404.8450 55.8717 3501.3513
92.5644 -1.7843 -402.6208 55.9067 3504.7427
90.6765 -1.8391 -400.9798 55.9417 3507.2446
88.1286 -1.9120 -398.7649 55.9768 3510.6216
86.3345 -1.9627 -397.2051 56.0118 3512.9995
83.7930 -2.0338 -394.9951 56.0468 3516.3682
81.2675 -2.1023 -392.7984 56.0818 3519.7161
80.0824 -2.1326 -391.7675 56.1168 3521.2871
77.3961 -2.1956 -389.4298 56.1518 3524.8486
75.6532 -2.2325 -387.9126 56.1868 3527.1597
72.7326 -2.2906 -385.3695 56.2218 3531.0327
71.5000 -2.3143 -384.2959 56.2568 3532.6675
68.3833 -2.3720 -381.5812 56.2918 3536.8013
66.2620 -2.4085 -379.7334 56.3268 3539.6145
64.1869 -2.4412 -377.9258 56.3618 3542.3669
62.0812 -2.4710 -376.0913 56.3968 3545.1597
60.0421 -2.4965 -374.3147 56.4318 3547.8643
57.5031 -2.5242 -372.1024 56.4669 3551.2319
55.0901 -2.5485 -370.0000 56.5019 3554.4326
52.6548 -2.5721 -367.8774 56.5369 3557.6631
51.1007 -2.5868 -366.5226 56.5719 3559.7249
48.3080 -2.6110 -364.0880 56.6069 3563.4299
46.4484 -2.6245 -362.4666 56.6419 3565.8972
44.0464 -2.6387 -360.3718 56.6769 3569.0845
41.9835 -2.6483 -358.5725 56.7119 3571.8218
39.5214 -2.6574 -356.4250 56.7469 3575.0889
37.7411 -2.6625 -354.8723 56.7819 3577.4509
35.1581 -2.6667 -352.6192 56.8169 3580.8787
32.9621 -2.6666 -350.7036 56.8519 3583.7927
30.3658 -2.6625 -348.4389 56.8869 3587.2380
28.7460 -2.6581 -347.0261 56.9220 3589.3872
25.9785 -2.6487 -344.6122 56.9570 3593.0596
23.8873 -2.6399 -342.7879 56.9920 3595.8347
21.5222 -2.6270 -340.7249 57.0270 3598.9731
19.6107 -2.6142 -339.0577 57.0620 3601.5098
17.0676 -2.5941 -336.8393 57.0970 3604.8845
14.6700 -2.5725 -334.7477 57.1320 3608.0662
13.2979 -2.5589 -333.5507 57.1670 3609.8872
10.3181 -2.5265 -330.9515 57.2020 3613.8413
7.9561 -2.4979 -328.8912 57.2370 3616.9758
6.1069 -2.4737 -327.2779 57.2720 3619.4299
3.6062 -2.4387 -325.0964 57.3070 3622.7485
1.4348 -2.4059 -323.2025 57.3420 3625.6301
-0.7618 -2.3703 -321.2867 57.3770 3628.5449
-2.8211 -2.3345 -319.4909 57.4121 3631.2776
-5.2983 -2.2886 -317.3306 57.4471 3634.5647
-7.7796 -2.2398 -315.1672 57.4821 3637.8569
-9.1785 -2.2109 -313.9477 57.5171 3639.7131
-12.2089 -2.1445 -311.3062 57.5521 3643.7336
-14.6504 -2.0903 -309.1784 57.5871 3646.9729
-16.3711 -2.0532 -307.6792 57.6221 3649.2554
-19.0073 -1.9975 -305.3828 57.6571 3652.7520
-20.8203 -1.9590 -303.8037 57.6921 3655.1565
-23.4597 -1.9019 -301.5052 57.7271 3658.6570
-25.4153 -1.8592 -299.8024 57.7621 3661.2502
-27.9432 -1.8042 -297.6011 57.7971 3664.6028
-30.4003 -1.7507 -295.4614 57.8321 3667.8613
-31.7659 -1.7209 -294.2719 57.8671 3669.6726
-34.8106 -1.6539 -291.6183 57.9022 3673.7119
-37.2585 -1.5996 -289.4810 57.9372 3676.9619
-39.1816 -1.5566 -287.8003 57.9722 3679.5164
-41.6598 -1.5005 -285.6330 58.0072 3682.8091
-43.1842 -1.4655 -284.2991 58.0422 3684.8350
-45.8035 -1.4045 -282.0041 58.0772 3688.3181
-47.9978 -1.3528 -280.0789 58.1122 3691.2375
-50.2056 -1.3000 -278.1409 58.1472 3694.1758
-52.2448 -1.2503 -276.3506 58.1822 3696.8899
-54.8413 -1.1858 -274.0714 58.2172 3700.3455
-57.2902 -1.1248 -271.9223 58.2522 3703.6042
-59.7833 -1.0633 -269.7357 58.2872 3706.9209
-61.5222 -1.0208 -268.2114 58.3222 3709.2336
-64.2359 -0.9544 -265.8344 58.3573 3712.8418
-66.2437 -0.9051 -264.0769 58.3923 3715.5105
-68.9209 -0.8390 -261.7343 58.4273 3719.0686
-70.1042 -0.8096 -260.6992 58.4623 3720.6411
-72.7629 -0.7438 -258.3743 58.4973 3724.1736
-74.9516 -0.6905 -256.4609 58.5323 3727.0811
-77.3619 -0.6333 -254.3549 58.5673 3730.2822
-79.3184 -0.5880 -252.6464 58.6023 3732.8804
-81.6961 -0.5342 -250.5713 58.6373 3736.0366
-84.7381 -0.4671 -247.9186 58.6723 3740.0732
-86.9117 -0.4209 -246.0244 58.7073 3742.9568
-89.0790 -0.3761 -244.1369 58.7423 3745.8311
-91.2790 -0.3319 -242.2220 58.7773 3748.7483
-93.3687 -0.2910 -240.4042 58.8123 3751.5181
-95.7245 -0.2464 -238.3558 58.8474 3754.6404
-98.4042 -0.1978 -236.0266 58.8824 3758.1912
-99.8592 -0.1721 -234.7622 58.9174 3760.1189
-102.9748 -0.1170 -232.0552 58.9524 3764.2466
-104.3841 -0.0918 -230.8313 58.9874 3766.1133
-107.3044 -0.0402 -228.2963 59.0224 3769.9807
-109.7811 0.0020 -226.1475 59.0574 3773.2600
-111.8896 0.0361 -224.3191 59.0924 3776.0510
-114.4828 0.0759 -222.0718 59.1274 3779.4827
-116.2568 0.1024 -220.5349 59.1624 3781.8301
-119.0121 0.1428 -218.1486 59.1974 3785.4753
-121.6122 0.1799 -215.8969 59.2324 3788.9150
-122.8465 0.1971 -214.8279 59.2674 3790.5481
-125.7754 0.2371 -212.2916 59.3025 3794.4226
-127.4524 0.2598 -210.8395 59.3375 3796.6411
-130.3810 0.2996 -208.3037 59.3725 3800.5151
-132.3559 0.3259 -206.5942 59.4075 3803.1274
-134.6147 0.3551 -204.6389 59.4425 3806.1150
-136.7137 0.3815 -202.8219 59.4775 3808.8914
-138.6701 0.4062 -201.1284 59.5125 3811.4790
-140.7638 0.4323 -199.3162 59.5475 3814.2480
-142.7181 0.4552 -197.6245 59.5825 3816.8330
-144.9496 0.4789 -195.6925 59.6175 3819.7849
-147.4237 0.5029 -193.5505 59.6525 3823.0574
-149.6530 0.5224 -191.6202 59.6875 3826.0063
-151.2364 0.5356 -190.2488 59.7225 3828.1011
-153.5804 0.5548 -188.2184 59.7575 3831.2021
-155.4573 0.5698 -186.5920 59.7926 3833.6858
-157.3639 0.5843 -184.9395 59.8276 3836.2090
-159.1739 0.5974 -183.3699 59.8626 3838.6047
-161.3139 0.6130 -181.5126 59.8976 3841.4385
-162.8876 0.6249 -180.1455 59.9326 3843.5229
-165.1884 0.6427 -178.1451 59.9676 3846.5718
-167.0424 0.6567 -176.5329 60.0026 3849.0288
-169.0569 0.6715 -174.7806 60.0376 3851.6990
-170.3225 0.6809 -173.6793 60.0726 3853.3765
-172.6530 0.6984 -171.6495 60.1076 3856.4670
-174.2399 0.7102 -170.2647 60.1426 3858.5732
-176.4409 0.7257 -168.3407 60.1776 3861.4968
-177.3534 0.7317 -167.5418 60.2126 3862.7095
-179.3542 0.7432 -165.7859 60.2477 3865.3716
-181.0387 0.7513 -164.3004 60.2827 3867.6177
-182.7757 0.7584 -162.7595 60.3177 3869.9397
-184.2807 0.7636 -161.4184 60.3527 3871.9556
-186.0359 0.7685 -159.8440 60.3877 3874.3132
-187.8621 0.7717 -158.1849 60.4227 3876.7805
-189.5797 0.7729 -156.5985 60.4577 3879.1187
-191.0520 0.7724 -155.2153 60.4927 3881.1389
-192.6193 0.7709 -153.7159 60.5277 3883.3079
-193.8149 0.7694 -152.5473 60.5627 3884.9797
-195.4488 0.7686 -150.9075 60.5977 3887.2947
-196.9889 0.7671 -149.3153 60.6327 3889.5098
-198.0538 0.7652 -148.1858 60.6677 3891.0623
-199.4524 0.7620 -146.6588 60.7027 3893.1328
-200.7666 0.7585 -145.1712 60.7378 3895.1179
-201.8060 0.7551 -143.9569 60.7728 3896.7163
-203.0688 0.7500 -142.4320 60.8078 3898.6963
-204.1157 0.7450 -141.1229 60.8428 3900.3726
-205.3680 0.7385 -139.4993 60.8778 3902.4229
-205.9203 0.7353 -138.7618 60.9128 3903.3442
-207.4088 0.7253 -136.7012 60.9478 3905.8865
-208.0451 0.7200 -135.7857 60.9828 3907.0015
-209.0875 0.7103 -134.2308 61.0178 3908.8733
-210.3424 0.6971 -132.2695 61.0528 3911.2019
-210.9004 0.6904 -131.3634 61.0878 3912.2661
-211.9067 0.6775 -129.6678 61.1228 3914.2378
-212.8567 0.6629 -127.9980 61.1578 3916.1589
-213.6397 0.6492 -126.5618 61.1928 3917.7949
-214.4123 0.6348 -125.0862 61.2279 3919.4607
-215.1082 0.6219 -123.6991 61.2629 3921.0127
-215.9248 0.6070 -121.9942 61.2979 3922.9031
-216.7424 0.5945 -120.1878 61.3329 3924.8860
-217.1268 0.5887 -119.3032 61.3679 3925.8506
-217.9569 0.5796 -117.2924 61.4029 3928.0259
-218.4060 0.5759 -116.1460 61.4379 3929.2573
-219.1545 0.5710 -114.1326 61.4729 3931.4053
-219.7269 0.5679 -112.4938 61.5079 3933.1411
-220.2169 0.5645 -111.0143 61.5429 3934.6997
-220.7894 0.5595 -109.1821 61.5779 3936.6194
-221.1294 0.5544 -108.0374 61.6129 3937.8135
-221.5674 0.5478 -106.4775 61.6479 3939.4338
-221.9500 0.5419 -105.0273 61.6829 3940.9336
-222.4084 0.5372 -103.1423 61.7180 3942.8735
-222.7818 0.5365 -101.4678 61.7530 3944.5891
-223.0628 0.5380 -100.1074 61.7880 3945.9783
-223.4185 0.5420 -98.2236 61.8230 3947.8955
-223.7291 0.5468 -96.4038 61.8580 3949.7417
-223.9715 0.5515 -94.8286 61.8930 3951.3354
-224.1969 0.5568 -93.1988 61.9280 3952.9807
-224.3818 0.5613 -91.6940 61.9630 3954.4968
-224.5591 0.5664 -90.0517 61.9980 3956.1487
-224.7537 0.5705 -87.9417 62.0330 3958.2678
-224.8610 0.5718 -86.5509 62.0680 3959.6626
-224.9887 0.5712 -84.5941 62.1030 3961.6235
-225.0802 0.5672 -82.7866 62.1380 3963.4333
-225.1324 0.5624 -81.4144 62.1731 3964.8066
-225.1858 0.5524 -79.4762 62.2081 3966.7456
-225.2133 0.5426 -77.8940 62.2431 3968.3281
-225.2319 0.5298 -76.2149 62.2781 3970.0073
-225.2396 0.5170 -74.6092 62.3131 3971.6130
-225.2377 0.5012 -72.9151 62.3481 3973.3074
-225.2289 0.4837 -71.2582 62.3831 3974.9644
-225.2192 0.4619 -69.3486 62.4181 3976.8740
-225.2164 0.4368 -67.2669 62.4531 3978.9561
-225.2228 0.4145 -65.3544 62.4881 3980.8687
-225.2347 0.3989 -63.9117 62.5231 3982.3113
-225.2598 0.3784 -61.8901 62.5581 3984.3333
-225.2936 0.3629 -60.2514 62.5931 3985.9724
-225.3588 0.3440 -58.1950 62.6282 3988.0300
-225.4182 0.3323 -56.8237 62.6632 3989.4026
-225.5433 0.3144 -54.5960 62.6982 3991.6338
-225.6959 0.3000 -52.5114 62.7332 3993.7241
-225.7842 0.2937 -51.4885 62.7682 3994.7510
-226.0297 0.2817 -49.0836 62.8032 3997.1682
-226.1936 0.2760 -47.7050 62.8382 3998.5566
-226.5113 0.2667 -45.3480 62.8732 4000.9351
-226.7582 0.2594 -43.7230 62.9082 4002.5786
-227.0697 0.2487 -41.8487 62.9432 4004.4788
-227.3988 0.2363 -40.0359 62.9782 4006.3213
-227.7315 0.2230 -38.3449 63.0132 4008.0447
-228.1650 0.2078 -36.3235 63.0482 4010.1121
-228.5214 0.1918 -34.7461 63.0832 4011.7295
-229.0056 0.1656 -32.7032 63.1183 4013.8291
-229.5684 0.1511 -30.5261 63.1533 4016.0779
-230.1355 0.1454 -28.5075 63.1883 4018.1748
-230.5811 0.1331 -26.9867 63.2233 4019.7595
-231.2347 0.1099 -24.8688 63.2583 4021.9761
-231.8270 0.0918 -23.0864 63.2933 4023.8545
-232.5839 0.0758 -20.9753 63.3283 4026.0972
-232.9253 0.0699 -20.0716 63.3633 4027.0632
-233.7520 0.0563 -17.9819 63.3983 4029.3105
-234.4711 0.0447 -16.2624 63.4333 4031.1746
-235.3405 0.0326 -14.2935 63.4683 4033.3269
-236.4333 0.0192 -11.9562 63.5033 4035.9072
-236.9683 0.0129 -10.8619 63.5383 4037.1252
-238.0227 0.0006 -8.7926 63.5733 4039.4478
-239.0425 -0.0107 -6.8843 63.6084 4041.6116
-239.8332 -0.0189 -5.4630 63.6434 4043.2380
-240.9595 -0.0300 -3.5112 63.6784 4045.4915
-241.9118 -0.0395 -1.9196 63.7134 4047.3462
-243.0470 -0.0515 -0.0838 63.7484 4049.5049
-244.3443 -0.0664 1.9426 63.7834 4051.9109
-245.2747 -0.0777 3.3500 63.8184 4053.5981
-246.6060 -0.0943 5.3055 63.8534 4055.9639
-247.8701 -0.1097 7.0967 63.8884 4058.1565
-248.9518 -0.1220 8.5832 63.9234 4059.9949
-250.2558 -0.1356 10.3221 63.9584 4062.1685
-251.5217 -0.1481 11.9585 63.9934 4064.2373
-252.9386 -0.1621 13.7342 64.0284 4066.5090
-253.8930 -0.1710 14.8980 64.0635 4068.0142
-255.5497 -0.1856 16.8662 64.0985 4070.5869
-257.0331 -0.1964 18.5884 64.1335 4072.8599
-257.8206 -0.2016 19.4930 64.1685 4074.0593
-259.7200 -0.2125 21.6553 64.2035 4076.9375
-261.2282 -0.2208 23.3525 64.2385 4079.2080
-262.5147 -0.2277 24.7954 64.2735 4081.1411
-263.9491 -0.2355 26.4123 64.3085 4083.3025
-265.3017 -0.2421 27.9557 64.3435 4085.3547
-266.9240 -0.2499 29.8433 64.3785 4087.8438
-267.6747 -0.2536 30.7317 64.4135 4089.0068
-269.6713 -0.2642 33.1436 64.4485 4092.1379
-270.4887 -0.2690 34.1526 64.4835 4093.4365
-271.9630 -0.2787 36.0124 64.5185 4095.8098
-273.7033 -0.2911 38.2755 64.5536 4098.6650
-274.6814 -0.2981 39.5842 64.5886 4100.2983
-276.3135 -0.3095 41.8296 64.6236 4103.0747
-277.4360 -0.3172 43.4225 64.6586 4105.0234
-278.6601 -0.3264 45.2056 64.6936 4107.1860
-279.8639 -0.3369 47.0055 64.7286 4109.3516
-280.9641 -0.3394 48.7038 64.7636 4111.3750
-282.1279 -0.3399 50.5489 64.7986 4113.5566
-283.2448 -0.3445 52.3638 64.8336 4115.6875
-284.7078 -0.3600 54.8069 64.8686 4118.5352
-285.7864 -0.3630 56.6844 64.9036 4120.7007
-286.9431 -0.3607 58.7844 64.9386 4123.0981
-287.8606 -0.3627 60.5090 64.9736 4125.0518
-288.9678 -0.3689 62.6670 65.0087 4127.4771
-289.9062 -0.3751 64.5758 65.0437 4129.6040
-290.8456 -0.3805 66.5688 65.0787 4131.8076
-291.7161 -0.3861 68.4931 65.1137 4133.9194
-292.7585 -0.3946 70.8949 65.1487 4136.5376
-293.7367 -0.4034 73.2492 65.1837 4139.0874
-294.2473 -0.4078 74.5192 65.2187 4140.4561
-295.3424 -0.4171 77.3388 65.2537 4143.4810
-295.9384 -0.4221 78.9307 65.2887 4145.1807
-296.9154 -0.4304 81.6385 65.3237 4148.0596
-297.6581 -0.4363 83.7907 65.3587 4150.3364
-298.3600 -0.4414 85.9131 65.3937 4152.5718
-299.1555 -0.4473 88.4333 65.4287 4155.2144
-299.6491 -0.4516 90.0667 65.4637 4156.9209
-300.3214 -0.4585 92.3927 65.4987 4159.3423
-300.8484 -0.4645 94.3032 65.5338 4161.3242
-301.4876 -0.4719 96.7491 65.5688 4163.8521
-302.1831 -0.4798 99.5897 65.6038 4166.7769
-302.5442 -0.4833 101.1508 65.6388 4168.3789
-303.1533 -0.4875 103.9432 65.6738 4171.2373
-303.6512 -0.4902 106.3918 65.7088 4173.7358
-304.0698 -0.4952 108.5872 65.7438 4175.9707
-304.4747 -0.5042 110.8517 65.7788 4178.2710
-304.8423 -0.5190 113.0449 65.8138 4180.4951
-305.2616 -0.5449 115.7292 65.8488 4183.2119
-305.5378 -0.5652 117.6308 65.8838 4185.1338
-305.8822 -0.5906 120.2052 65.9188 4187.7310
-306.2128 -0.6129 122.9194 65.9538 4190.4653
-306.4933 -0.6226 125.4676 65.9889 4193.0293
-306.7026 -0.6222 127.5244 66.0239 4195.0967
-306.9521 -0.6262 130.0833 66.0589 4197.6675
-307.1648 -0.6347 132.3553 66.0939 4199.9497
-307.3768 -0.6487 134.6862 66.1289 4202.2900
-307.5823 -0.6629 137.0215 66.1639 4204.6348
-307.8270 -0.6793 139.8752 66.1989 4207.4990
-308.0628 -0.6960 142.6648 66.2339 4210.2983
-308.1751 -0.7015 143.9908 66.2689 4211.6289
-308.4481 -0.7215 147.2332 66.3039 4214.8833
-308.6561 -0.7457 149.7229 66.3389 4217.3813
-308.8410 -0.7666 151.9220 66.3739 4219.5884
-309.0561 -0.7854 154.4245 66.4089 4222.1001
-309.2627 -0.7989 156.7867 66.4439 4224.4717
-309.5239 -0.8148 159.7452 66.4790 4227.4414
-309.7028 -0.8261 161.7615 66.5140 4229.4658
-309.9427 -0.8413 164.4623 66.5490 4232.1772
-310.1898 -0.8577 167.2495 66.5840 4234.9756
-310.3174 -0.8667 168.6939 66.6190 4236.4258
-310.5986 -0.8887 171.8928 66.6540 4239.6367
-310.7698 -0.9022 173.8533 66.6890 4241.6050
-311.0435 -0.9235 176.9994 66.7240 4244.7627
-311.1598 -0.9321 178.3396 66.7590 4246.1084
-311.4099 -0.9500 181.2235 66.7940 4249.0029
-311.6482 -0.9668 183.9749 66.8290 4251.7646
-311.8337 -0.9803 186.1183 66.8640 4253.9160
-312.0802 -0.9979 188.9702 66.8990 4256.7788
-312.2682 -1.0118 191.1510 66.9341 4258.9678
-312.5309 -1.0334 194.1996 66.9691 4262.0278
-312.6918 -1.0472 196.0676 67.0041 4263.9028
-312.9569 -1.0689 199.1464 67.0391 4266.9932
-313.2151 -1.0880 202.1478 67.0741 4270.0054
-313.4251 -1.1023 204.5936 67.1091 4272.4604
-313.5891 -1.1131 206.5054 67.1441 4274.3789
-313.8369 -1.1293 209.3929 67.1791 4277.2773
-314.0414 -1.1430 211.7808 67.2141 4279.6738
-314.2556 -1.1574 214.2843 67.2491 4282.1865
-314.4686 -1.1717 216.7729 67.2841 4284.6846
-314.7401 -1.1899 219.9512 67.3191 4287.8745
-314.8924 -1.2003 221.7323 67.3541 4289.6621
-315.1711 -1.2199 224.9904 67.3892 4292.9321
-315.4299 -1.2386 228.0171 67.4242 4295.9697
-315.6211 -1.2525 230.2539 67.4592 4298.2148
-315.8352 -1.2684 232.7557 67.4942 4300.7261
-316.0521 -1.2854 235.2892 67.5292 4303.2686
-316.2567 -1.3027 237.6805 67.5642 4305.6689
-316.5069 -1.3253 240.6033 67.5992 4308.6025
-316.6894 -1.3423 242.7339 67.6342 4310.7407
-316.9659 -1.3673 245.9567 67.6692 4313.9756
-317.1190 -1.3804 247.7436 67.7042 4315.7690
-317.3672 -1.3997 250.6452 67.7392 4318.6812
-317.6310 -1.4200 253.7340 67.7742 4321.7812
-317.8724 -1.4394 256.5580 67.8092 4324.6157
-318.0820 -1.4565 259.0110 67.8442 4327.0776
-318.3039 -1.4741 261.6070 67.8792 4329.6831
-318.5125 -1.4907 264.0460 67.9143 4332.1313
-318.7336 -1.5081 266.6314 67.9493 4334.7261
-319.0247 -1.5315 270.0346 67.9843 4338.1421
-319.1646 -1.5430 271.6691 68.0193 4339.7822
-319.4774 -1.5686 275.3263 68.0543 4343.4531
-319.7122 -1.5877 278.0690 68.0893 4346.2061
-319.9211 -1.6044 280.5097 68.1243 4348.6558
-320.1513 -1.6226 283.2007 68.1593 4351.3564
-320.3763 -1.6402 285.8276 68.1943 4353.9932
-320.6567 -1.6631 289.1030 68.2293 4357.2803
-320.7723 -1.6731 290.4534 68.2643 4358.6357
-321.0909 -1.7023 294.1763 68.2993 4362.3726
-321.3352 -1.7258 297.0283 68.3344 4365.2349
-321.4675 -1.7384 298.5742 68.3694 4366.7866
-321.7798 -1.7651 302.2245 68.4044 4370.4502
-322.0198 -1.7825 305.0293 68.4394 4373.2656
-322.2238 -1.7963 307.4112 68.4744 4375.6562
-322.4654 -1.8133 310.2346 68.5094 4378.4897
-322.6997 -1.8317 312.9711 68.5444 4381.2363
-322.9728 -1.8557 316.1614 68.5794 4384.4385
-323.0952 -1.8672 317.5908 68.6144 4385.8730
-323.3698 -1.8933 320.7986 68.6494 4389.0928
-323.5705 -1.9122 323.1423 68.6844 4391.4453
-323.8596 -1.9387 326.5233 68.7194 4394.8384
-324.0280 -1.9539 328.4917 68.7544 4396.8145
-324.3260 -1.9807 331.9750 68.7894 4400.3105
-324.5992 -2.0050 335.1696 68.8244 4403.5166
-324.7201 -2.0155 336.5837 68.8595 4404.9360
-325.0643 -2.0446 340.6058 68.8945 4408.9731
-325.2581 -2.0606 342.8702 68.9295 4411.2456
-325.4753 -2.0783 345.4115 68.9645 4413.7964
-325.7054 -2.0964 348.1028 68.9995 4416.4976
-325.9360 -2.1138 350.8018 69.0345 4419.2065
-326.1978 -2.1327 353.8673 69.0695 4422.2832
-326.4712 -2.1530 357.0649 69.1045 4425.4922
-326.7236 -2.1733 360.0207 69.1395 4428.4590
-326.9277 -2.1905 362.4106 69.1745 4430.8579
-327.1745 -2.2116 365.2979 69.2095 4433.7554
-327.4198 -2.2314 368.1637 69.2445 4436.6318
-327.6954 -2.2513 371.3875 69.2795 4439.8677
-327.8865 -2.2637 373.6203 69.3146 4442.1084
-328.1485 -2.2795 376.6785 69.3496 4445.1782
-328.4111 -2.2955 379.7429 69.3846 4448.2539
-328.5757 -2.3060 381.6642 69.4196 4450.1821
-328.8821 -2.3266 385.2366 69.4546 4453.7676
-329.0739 -2.3399 387.4710 69.4896 4456.0103
-329.3552 -2.3592 390.7471 69.5246 4459.2983
-329.4790 -2.3674 392.1893 69.5596 4460.7461
-329.8300 -2.3899 396.2741 69.5946 4464.8462
-330.0215 -2.4016 398.4992 69.6296 4467.0791
-330.2256 -2.4139 400.8745 69.6646 4469.4634
-330.5025 -2.4308 404.0992 69.6996 4472.7002
-330.7033 -2.4436 406.4350 69.7346 4475.0444
-330.9936 -2.4629 409.8114 69.7696 4478.4336
-331.2927 -2.4831 413.2927 69.8047 4481.9277
-331.4907 -2.4963 415.5962 69.8397 4484.2397
-331.7779 -2.5157 418.9334 69.8747 4487.5894
-331.9635 -2.5284 421.0889 69.9097 4489.7524
-332.2387 -2.5472 424.2803 69.9447 4492.9561
-332.5216 -2.5657 427.5572 69.9797 4496.2451
-332.6506 -2.5737 429.0494 70.0147 4497.7432
-332.9903 -2.5938 432.9745 70.0497 4501.6826
-333.2571 -2.6094 436.0506 70.0847 4504.7705
-333.4560 -2.6214 438.3393 70.1197 4507.0679
-333.7200 -2.6377 441.3689 70.1547 4510.1089
-333.9692 -2.6536 444.2206 70.1897 4512.9717
-334.2035 -2.6687 446.8953 70.2247 4515.6567
-334.4440 -2.6836 449.6326 70.2598 4518.4043
-334.7031 -2.6987 452.5742 70.2948 4521.3574
-334.9936 -2.7144 455.8622 70.3298 4524.6582
-335.1551 -2.7230 457.6848 70.3648 4526.4878
-335.4460 -2.7397 460.9620 70.3998 4529.7783
-335.6522 -2.7528 463.2805 70.4348 4532.1060
-335.9836 -2.7755 466.9980 70.4698 4535.8384
-336.2218 -2.7923 469.6625 70.5048 4538.5132
-336.4966 -2.8111 472.7309 70.5398 4541.5942
-336.7277 -2.8263 475.3089 70.5748 4544.1826
-336.9837 -2.8429 478.1570 70.6098 4547.0420
-337.2403 -2.8596 481.0048 70.6448 4549.9014
-337.5341 -2.8783 484.2597 70.6798 4553.1694
-337.7089 -2.8889 486.1919 70.7148 4555.1099
-337.9836 -2.9048 489.2208 70.7499 4558.1514
-338.2106 -2.9178 491.7179 70.7849 4560.6587
-338.5323 -2.9371 495.2464 70.8199 4564.2017
-338.7180 -2.9489 497.2793 70.8549 4566.2432
-339.0100 -2.9678 500.4670 70.8899 4569.4443
-339.3163 -2.9876 503.7989 70.9249 4572.7900
-339.5996 -3.0053 506.8695 70.9599 4575.8740
-339.8460 -3.0204 509.5311 70.9949 4578.5469
-340.1033 -3.0358 512.3010 71.0299 4581.3291
-340.3650 -3.0513 515.1095 71.0649 4584.1494
-340.6134 -3.0658 517.7663 71.0999 4586.8179
-340.9033 -3.0825 520.8560 71.1349 4589.9214
-341.2308 -3.1011 524.3391 71.1699 4593.4199
-341.4826 -3.1152 527.0111 71.2049 4596.1035
-341.7851 -3.1323 530.2152 71.2400 4599.3223
-342.0222 -3.1457 532.7209 71.2750 4601.8389
-342.3077 -3.1617 535.7324 71.3100 4604.8643
-342.5795 -3.1770 538.5919 71.3450 4607.7363
-342.8904 -3.1947 541.8528 71.3800 4611.0122
-343.1143 -3.2076 544.1960 71.4150 4613.3662
-343.4362 -3.2262 547.5557 71.4500 4616.7412
-343.7501 -3.2448 550.8229 71.4850 4620.0234
-343.9262 -3.2556 552.6514 71.5200 4621.8604
-344.2880 -3.2789 556.4016 71.5550 4625.6284
-344.5066 -3.2931 558.6630 71.5900 4627.9004
-344.8478 -3.3140 562.1870 71.6250 4631.4409
-344.9970 -3.3221 563.7254 71.6600 4632.9863
-345.4111 -3.3424 567.9861 71.6951 4637.2671
-345.6381 -3.3533 570.3166 71.7301 4639.6089
-345.8997 -3.3672 572.9982 71.7651 4642.3032
-346.1771 -3.3840 575.8343 71.8001 4645.1528
-346.4621 -3.4030 578.7416 71.8351 4648.0742
-346.7826 -3.4245 582.0041 71.8701 4651.3525
-347.1167 -3.4453 585.3973 71.9051 4654.7622
-347.4084 -3.4619 588.3524 71.9401 4657.7314
-347.6856 -3.4774 591.1552 71.9751 4660.5479
-347.9608 -3.4929 593.9318 72.0101 4663.3384
-348.2562 -3.5090 596.9075 72.0451 4666.3286
-348.5882 -3.5261 600.2432 72.0801 4669.6812
-348.7891 -3.5360 602.2606 72.1151 4671.7085
-349.1197 -3.5525 605.5746 72.1501 4675.0391
-349.3400 -3.5638 607.7791 72.1852 4677.2544
-349.6903 -3.5820 611.2793 72.2202 4680.7720
-350.0576 -3.6010 614.9465 72.2552 4684.4575
-350.3019 -3.6139 617.3825 72.2902 4686.9058
-350.6492 -3.6330 620.8397 72.3252 4690.3804
-350.8033 -3.6418 622.3721 72.3602 4691.9209
-351.1473 -3.6613 625.7958 72.3952 4695.3618
-351.4587 -3.6785 628.8903 72.4302 4698.4717
-351.7428 -3.6939 631.7090 72.4652 4701.3047
-352.0237 -3.7089 634.4943 72.5002 4704.1045
-352.4181 -3.7299 638.4037 72.5352 4708.0337
-352.6076 -3.7396 640.2792 72.5702 4709.9189
-353.0035 -3.7592 644.1954 72.6052 4713.8550
-353.3014 -3.7734 647.1431 72.6403 4716.8179
-353.5792 -3.7871 649.8879 72.6753 4719.5767
