VERSION 0.7
FIELDS x y z i j k w r ib_distance ob_distance
SIZE 4 4 4 4 4 4 4 4 4 4
TYPE F F F F F F F F F F
COUNT 1 1 1 1 1 1 1 1 1 1
WIDTH 580
HEIGHT 1
VIEWPOINT 0.525 -0.474 -0.478 -0.521 -622.177 -3.287 601.922
POINTS 580
DATA ascii
629.6018 2.9868 -799.2434 -0.5189 -0.4796 -0.4763 0.5233 2842.5000 -4.2697 4.2694
629.8173 2.9846 -796.7546 -0.5188 -0.4796 -0.4764 0.5233 2845.0000 -4.2708 4.2698
630.0302 2.9820 -794.2651 -0.5183 -0.4800 -0.4769 0.5229 2847.5000 -4.2704 4.2690
630.2370 2.9785 -791.7737 -0.5174 -0.4808 -0.4779 0.5222 2850.0000 -4.2677 4.2666
630.4338 2.9738 -789.2791 -0.5161 -0.4819 -0.4793 0.5212 2852.5000 -4.2620 4.2623
630.6157 2.9672 -786.7803 -0.5139 -0.4839 -0.4817 0.5194 2855.0000 -4.2536 4.2563
630.7630 2.9590 -784.2788 -0.5090 -0.4889 -0.4869 0.5147 2857.5000 -4.2503 4.2536
630.8460 2.9497 -781.7781 -0.5011 -0.4969 -0.4949 0.5070 2860.0000 -4.2599 4.2609
630.8348 2.9398 -779.2817 -0.4901 -0.5078 -0.5058 0.4961 2862.5000 -4.2874 4.2838
630.6995 2.9299 -776.7930 -0.4758 -0.5215 -0.5193 0.4816 2865.0000 -4.3356 4.3270
630.4133 2.9205 -774.3161 -0.4592 -0.5366 -0.5340 0.4648 2867.5000 -4.4031 4.3916
629.9709 2.9117 -771.8589 -0.4423 -0.5509 -0.5481 0.4477 2870.0000 -4.4818 4.4697
629.3763 2.9031 -769.4307 -0.4253 -0.5644 -0.5615 0.4305 2872.5000 -4.5627 4.5521
628.6331 2.8948 -767.0410 -0.4080 -0.5773 -0.5742 0.4130 2875.0000 -4.6370 4.6294
627.7451 2.8865 -764.6993 -0.3903 -0.5895 -0.5864 0.3953 2877.5000 -4.6960 4.6921
626.7154 2.8781 -762.4158 -0.3720 -0.6014 -0.5982 0.3768 2880.0000 -4.7337 4.7333
625.5449 2.8699 -760.2033 -0.3527 -0.6132 -0.6099 0.3572 2882.5000 -4.7502 4.7524
624.2339 2.8621 -758.0754 -0.3322 -0.6247 -0.6214 0.3364 2885.0000 -4.7463 4.7495
622.7831 2.8549 -756.0456 -0.3104 -0.6361 -0.6327 0.3142 2887.5000 -4.7218 4.7238
621.1929 2.8488 -754.1270 -0.2875 -0.6470 -0.6436 0.2908 2890.0000 -4.6761 4.6737
619.4712 2.8436 -752.3241 -0.2660 -0.6563 -0.6528 0.2689 2892.5000 -4.6119 4.6046
617.6365 2.8395 -750.6292 -0.2470 -0.6638 -0.6604 0.2494 2895.0000 -4.5394 4.5302
615.7080 2.8364 -749.0334 -0.2303 -0.6699 -0.6665 0.2323 2897.5000 -4.4700 4.4629
613.7048 2.8341 -747.5281 -0.2161 -0.6747 -0.6713 0.2177 2900.0000 -4.4153 4.4129
611.6458 2.8327 -746.1041 -0.2041 -0.6784 -0.6752 0.2055 2902.5000 -4.3862 4.3885
609.5446 2.8316 -744.7492 -0.1944 -0.6813 -0.6781 0.1957 2905.0000 -4.3846 4.3892
607.4107 2.8300 -743.4485 -0.1869 -0.6833 -0.6802 0.1883 2907.5000 -4.4045 4.4084
605.2532 2.8273 -742.1867 -0.1817 -0.6845 -0.6817 0.1835 2910.0000 -4.4382 4.4390
603.0814 2.8225 -740.9489 -0.1788 -0.6851 -0.6825 0.1812 2912.5000 -4.4771 4.4738
600.9038 2.8150 -739.7209 -0.1776 -0.6852 -0.6828 0.1808 2915.0000 -4.5125 4.5065
598.7238 2.8048 -738.4973 -0.1766 -0.6853 -0.6831 0.1805 2917.5000 -4.5426 4.5357
596.5418 2.7924 -737.2771 -0.1759 -0.6854 -0.6832 0.1804 2920.0000 -4.5684 4.5617
594.3585 2.7781 -736.0593 -0.1754 -0.6854 -0.6834 0.1803 2922.5000 -4.5909 4.5852
592.1745 2.7623 -734.8428 -0.1751 -0.6854 -0.6835 0.1803 2925.0000 -4.6112 4.6065
589.9902 2.7456 -733.6268 -0.1749 -0.6854 -0.6835 0.1804 2927.5000 -4.6302 4.6260
587.8057 2.7286 -732.4111 -0.1749 -0.6854 -0.6835 0.1803 2930.0000 -4.6483 4.6443
585.6213 2.7118 -731.1954 -0.1750 -0.6854 -0.6835 0.1803 2932.5000 -4.6656 4.6617
583.4368 2.6959 -729.9798 -0.1752 -0.6854 -0.6834 0.1801 2935.0000 -4.6824 4.6783
581.2524 2.6817 -728.7639 -0.1755 -0.6855 -0.6834 0.1799 2937.5000 -4.6988 4.6946
579.0682 2.6693 -727.5478 -0.1757 -0.6855 -0.6833 0.1797 2940.0000 -4.7151 4.7108
576.8841 2.6583 -726.3315 -0.1759 -0.6856 -0.6832 0.1796 2942.5000 -4.7310 4.7268
574.7000 2.6480 -725.1151 -0.1759 -0.6856 -0.6832 0.1795 2945.0000 -4.7467 4.7426
572.5159 2.6378 -723.8986 -0.1759 -0.6856 -0.6832 0.1796 2947.5000 -4.7621 4.7582
570.3318 2.6269 -722.6823 -0.1758 -0.6855 -0.6833 0.1797 2950.0000 -4.7772 4.7734
568.1476 2.6151 -721.4661 -0.1756 -0.6855 -0.6833 0.1798 2952.5000 -4.7918 4.7883
565.9634 2.6025 -720.2499 -0.1755 -0.6855 -0.6833 0.1799 2955.0000 -4.8062 4.8028
563.7792 2.5894 -719.0336 -0.1755 -0.6855 -0.6833 0.1799 2957.5000 -4.8203 4.8170
561.5952 2.5761 -717.8172 -0.1755 -0.6855 -0.6833 0.1800 2960.0000 -4.8341 4.8308
559.4112 2.5627 -716.6006 -0.1755 -0.6855 -0.6833 0.1800 2962.5000 -4.8477 4.8445
557.2269 2.5495 -715.3846 -0.1754 -0.6855 -0.6834 0.1798 2965.0000 -4.8603 4.8574
555.0418 2.5364 -714.1700 -0.1751 -0.6856 -0.6835 0.1794 2967.5000 -4.8707 4.8685
552.8552 2.5238 -712.9583 -0.1746 -0.6857 -0.6836 0.1788 2970.0000 -4.8776 4.8764
550.6664 2.5115 -711.7504 -0.1740 -0.6859 -0.6837 0.1781 2972.5000 -4.8799 4.8800
548.4749 2.4998 -710.5474 -0.1733 -0.6862 -0.6839 0.1772 2975.0000 -4.8764 4.8778
546.2812 2.4886 -709.3483 -0.1729 -0.6863 -0.6840 0.1767 2977.5000 -4.8674 4.8699
544.0865 2.4778 -708.1511 -0.1728 -0.6863 -0.6840 0.1765 2980.0000 -4.8543 4.8577
541.8918 2.4672 -706.9540 -0.1730 -0.6863 -0.6840 0.1766 2982.5000 -4.8383 4.8423
539.6981 2.4569 -705.7549 -0.1735 -0.6862 -0.6839 0.1771 2985.0000 -4.8206 4.8250
537.5062 2.4466 -704.5527 -0.1739 -0.6861 -0.6838 0.1775 2987.5000 -4.8022 4.8071
535.3152 2.4365 -703.3488 -0.1740 -0.6861 -0.6837 0.1775 2990.0000 -4.7816 4.7875
533.1238 2.4267 -702.1455 -0.1738 -0.6862 -0.6838 0.1772 2992.5000 -4.7563 4.7638
530.9308 2.4171 -700.9454 -0.1731 -0.6863 -0.6840 0.1765 2995.0000 -4.7241 4.7335
528.7347 2.4078 -699.7508 -0.1721 -0.6866 -0.6842 0.1754 2997.5000 -4.6827 4.6942
526.5349 2.3990 -698.5632 -0.1712 -0.6869 -0.6845 0.1743 3000.0000 -4.6308 4.6440
524.3320 2.3907 -697.3811 -0.1705 -0.6871 -0.6846 0.1735 3002.5000 -4.5702 4.5843
522.1270 2.3831 -696.2030 -0.1702 -0.6872 -0.6847 0.1729 3005.0000 -4.5033 4.5179
519.9208 2.3761 -695.0272 -0.1700 -0.6873 -0.6848 0.1726 3007.5000 -4.4327 4.4471
517.7143 2.3699 -693.8518 -0.1702 -0.6873 -0.6847 0.1725 3010.0000 -4.3606 4.3745
515.5081 2.3646 -692.6759 -0.1704 -0.6873 -0.6847 0.1725 3012.5000 -4.2894 4.3024
513.3022 2.3599 -691.4995 -0.1706 -0.6873 -0.6846 0.1725 3015.0000 -4.2210 4.2327
511.0966 2.3558 -690.3225 -0.1707 -0.6873 -0.6846 0.1725 3017.5000 -4.1572 4.1673
508.8912 2.3521 -689.1451 -0.1708 -0.6873 -0.6846 0.1725 3020.0000 -4.0995 4.1079
506.6861 2.3488 -687.9672 -0.1709 -0.6873 -0.6845 0.1726 3022.5000 -4.0498 4.0564
504.4813 2.3457 -686.7887 -0.1711 -0.6873 -0.6845 0.1727 3025.0000 -4.0078 4.0130
502.2772 2.3427 -685.6088 -0.1714 -0.6872 -0.6844 0.1729 3027.5000 -3.9723 3.9766
500.0741 2.3397 -684.4271 -0.1717 -0.6871 -0.6843 0.1733 3030.0000 -3.9420 3.9456
497.8724 2.3365 -683.2430 -0.1721 -0.6870 -0.6842 0.1737 3032.5000 -3.9157 3.9188
495.6722 2.3331 -682.0558 -0.1725 -0.6869 -0.6841 0.1742 3035.0000 -3.8921 3.8949
493.4735 2.3296 -680.8660 -0.1729 -0.6868 -0.6840 0.1746 3037.5000 -3.8706 3.8732
491.2761 2.3263 -679.6739 -0.1732 -0.6867 -0.6839 0.1749 3040.0000 -3.8508 3.8531
489.0795 2.3233 -678.4802 -0.1735 -0.6867 -0.6839 0.1750 3042.5000 -3.8322 3.8344
486.8835 2.3209 -677.2853 -0.1738 -0.6867 -0.6838 0.1751 3045.0000 -3.8144 3.8164
484.6879 2.3193 -676.0898 -0.1740 -0.6867 -0.6838 0.1751 3047.5000 -3.7970 3.7989
482.4927 2.3187 -674.8934 -0.1743 -0.6867 -0.6837 0.1751 3050.0000 -3.7800 3.7818
480.2984 2.3189 -673.6956 -0.1747 -0.6867 -0.6836 0.1752 3052.5000 -3.7636 3.7654
478.1049 2.3202 -672.4960 -0.1751 -0.6866 -0.6835 0.1754 3055.0000 -3.7480 3.7497
475.9127 2.3224 -671.2943 -0.1756 -0.6866 -0.6833 0.1756 3057.5000 -3.7334 3.7350
473.7218 2.3257 -670.0901 -0.1761 -0.6865 -0.6832 0.1759 3060.0000 -3.7198 3.7213
471.5323 2.3295 -668.8835 -0.1766 -0.6864 -0.6831 0.1762 3062.5000 -3.7071 3.7085
469.3441 2.3337 -667.6746 -0.1769 -0.6863 -0.6830 0.1766 3065.0000 -3.6950 3.6964
467.1572 2.3378 -666.4631 -0.1773 -0.6862 -0.6829 0.1770 3067.5000 -3.6831 3.6845
464.9716 2.3414 -665.2493 -0.1776 -0.6861 -0.6828 0.1774 3070.0000 -3.6714 3.6728
462.7873 2.3445 -664.0334 -0.1778 -0.6860 -0.6827 0.1779 3072.5000 -3.6595 3.6609
460.6040 2.3469 -662.8154 -0.1780 -0.6859 -0.6827 0.1782 3075.0000 -3.6473 3.6489
458.4218 2.3488 -661.5956 -0.1782 -0.6858 -0.6826 0.1786 3077.5000 -3.6348 3.6364
456.2404 2.3501 -660.3743 -0.1784 -0.6858 -0.6826 0.1789 3080.0000 -3.6217 3.6235
454.0598 2.3509 -659.1517 -0.1785 -0.6857 -0.6826 0.1791 3082.5000 -3.6081 3.6099
451.8796 2.3513 -657.9282 -0.1785 -0.6856 -0.6826 0.1793 3085.0000 -3.5940 3.5958
449.6997 2.3513 -656.7043 -0.1785 -0.6856 -0.6826 0.1793 3087.5000 -3.5798 3.5816
447.5197 2.3510 -655.4805 -0.1784 -0.6856 -0.6826 0.1793 3090.0000 -3.5658 3.5676
445.3393 2.3506 -654.2574 -0.1782 -0.6857 -0.6826 0.1792 3092.5000 -3.5524 3.5540
443.1584 2.3500 -653.0354 -0.1780 -0.6857 -0.6827 0.1790 3095.0000 -3.5399 3.5413
440.9766 2.3494 -651.8148 -0.1778 -0.6858 -0.6827 0.1788 3097.5000 -3.5284 3.5295
438.7941 2.3488 -650.5955 -0.1776 -0.6858 -0.6828 0.1785 3100.0000 -3.5180 3.5190
436.6108 2.3483 -649.3776 -0.1774 -0.6859 -0.6829 0.1783 3102.5000 -3.5089 3.5097
434.4266 2.3480 -648.1613 -0.1772 -0.6860 -0.6829 0.1780 3105.0000 -3.5012 3.5018
432.2417 2.3480 -646.9464 -0.1770 -0.6860 -0.6830 0.1778 3107.5000 -3.4951 3.4954
430.0563 2.3481 -645.7322 -0.1770 -0.6860 -0.6830 0.1777 3110.0000 -3.4905 3.4907
427.8710 2.3484 -644.5179 -0.1771 -0.6860 -0.6829 0.1778 3112.5000 -3.4875 3.4876
425.6862 2.3488 -643.3027 -0.1773 -0.6860 -0.6829 0.1780 3115.0000 -3.4863 3.4863
423.5025 2.3491 -642.0857 -0.1777 -0.6859 -0.6828 0.1784 3117.5000 -3.4870 3.4868
421.3200 2.3494 -640.8664 -0.1780 -0.6858 -0.6827 0.1787 3120.0000 -3.4897 3.4893
419.1386 2.3497 -639.6451 -0.1782 -0.6857 -0.6826 0.1790 3122.5000 -3.4944 3.4938
416.9580 2.3498 -638.4224 -0.1784 -0.6857 -0.6826 0.1792 3125.0000 -3.5012 3.5005
414.7780 2.3498 -637.1986 -0.1785 -0.6856 -0.6826 0.1794 3127.5000 -3.5102 3.5093
412.5983 2.3496 -635.9743 -0.1785 -0.6856 -0.6825 0.1794 3130.0000 -3.5215 3.5204
410.4187 2.3494 -634.7499 -0.1785 -0.6856 -0.6825 0.1794 3132.5000 -3.5347 3.5336
408.2390 2.3491 -633.5256 -0.1785 -0.6856 -0.6826 0.1794 3135.0000 -3.5494 3.5482
406.0591 2.3490 -632.3017 -0.1785 -0.6856 -0.6826 0.1793 3137.5000 -3.5648 3.5637
403.8788 2.3491 -631.0784 -0.1784 -0.6857 -0.6826 0.1791 3140.0000 -3.5806 3.5795
401.6981 2.3496 -629.8559 -0.1783 -0.6857 -0.6826 0.1789 3142.5000 -3.5960 3.5950
399.5168 2.3506 -628.6345 -0.1782 -0.6858 -0.6826 0.1787 3145.0000 -3.6108 3.6097
397.3348 2.3519 -627.4141 -0.1781 -0.6859 -0.6827 0.1785 3147.5000 -3.6246 3.6236
395.1523 2.3536 -626.1949 -0.1779 -0.6859 -0.6827 0.1782 3150.0000 -3.6372 3.6362
392.9691 2.3556 -624.9770 -0.1778 -0.6860 -0.6828 0.1780 3152.5000 -3.6484 3.6475
390.7851 2.3577 -623.7603 -0.1776 -0.6860 -0.6828 0.1778 3155.0000 -3.6581 3.6573
388.6006 2.3601 -622.5444 -0.1775 -0.6861 -0.6828 0.1776 3157.5000 -3.6663 3.6657
386.4159 2.3627 -621.3292 -0.1775 -0.6861 -0.6828 0.1776 3160.0000 -3.6735 3.6730
384.2312 2.3654 -620.1139 -0.1776 -0.6861 -0.6828 0.1776 3162.5000 -3.6800 3.6796
382.0467 2.3682 -618.8981 -0.1777 -0.6860 -0.6828 0.1777 3165.0000 -3.6862 3.6858
379.8627 2.3710 -617.6815 -0.1778 -0.6860 -0.6827 0.1779 3167.5000 -3.6923 3.6919
377.6793 2.3738 -616.4638 -0.1780 -0.6860 -0.6827 0.1780 3170.0000 -3.6981 3.6977
375.4966 2.3766 -615.2449 -0.1782 -0.6859 -0.6826 0.1783 3172.5000 -3.7032 3.7028
373.3147 2.3793 -614.0245 -0.1784 -0.6858 -0.6826 0.1785 3175.0000 -3.7074 3.7070
371.1337 2.3819 -612.8026 -0.1787 -0.6858 -0.6825 0.1788 3177.5000 -3.7101 3.7098
368.9536 2.3843 -611.5790 -0.1789 -0.6857 -0.6825 0.1790 3180.0000 -3.7113 3.7112
366.7741 2.3865 -610.3542 -0.1790 -0.6857 -0.6824 0.1792 3182.5000 -3.7111 3.7111
364.5951 2.3886 -609.1288 -0.1791 -0.6856 -0.6824 0.1793 3185.0000 -3.7096 3.7098
362.4162 2.3907 -607.9031 -0.1791 -0.6856 -0.6824 0.1793 3187.5000 -3.7071 3.7074
360.2372 2.3927 -606.6775 -0.1790 -0.6857 -0.6824 0.1793 3190.0000 -3.7037 3.7042
358.0580 2.3947 -605.4524 -0.1790 -0.6857 -0.6824 0.1792 3192.5000 -3.6995 3.7001
355.8786 2.3969 -604.2276 -0.1789 -0.6857 -0.6824 0.1791 3195.0000 -3.6944 3.6951
353.6990 2.3994 -603.0031 -0.1790 -0.6857 -0.6824 0.1790 3197.5000 -3.6882 3.6890
351.5193 2.4022 -601.7787 -0.1790 -0.6857 -0.6824 0.1789 3200.0000 -3.6809 3.6818
349.3396 2.4056 -600.5544 -0.1791 -0.6858 -0.6824 0.1789 3202.5000 -3.6724 3.6734
347.1599 2.4096 -599.3301 -0.1792 -0.6858 -0.6824 0.1788 3205.0000 -3.6629 3.6639
344.9803 2.4143 -598.1057 -0.1793 -0.6858 -0.6824 0.1787 3207.5000 -3.6526 3.6536
342.8007 2.4198 -596.8812 -0.1794 -0.6858 -0.6823 0.1786 3210.0000 -3.6418 3.6428
340.6212 2.4260 -595.6565 -0.1796 -0.6858 -0.6823 0.1786 3212.5000 -3.6310 3.6319
338.4420 2.4331 -594.4315 -0.1797 -0.6858 -0.6822 0.1785 3215.0000 -3.6202 3.6211
336.2630 2.4409 -593.2059 -0.1799 -0.6858 -0.6822 0.1785 3217.5000 -3.6091 3.6101
334.0845 2.4491 -591.9796 -0.1801 -0.6858 -0.6821 0.1786 3220.0000 -3.5970 3.5982
331.9065 2.4574 -590.7522 -0.1803 -0.6858 -0.6821 0.1788 3222.5000 -3.5833 3.5847
329.7293 2.4655 -589.5235 -0.1805 -0.6857 -0.6820 0.1791 3225.0000 -3.5673 3.5689
327.5531 2.4733 -588.2929 -0.1808 -0.6856 -0.6819 0.1796 3227.5000 -3.5485 3.5503
325.3791 2.4808 -587.0585 -0.1816 -0.6854 -0.6817 0.1804 3230.0000 -3.5280 3.5298
323.2085 2.4882 -585.8182 -0.1827 -0.6851 -0.6814 0.1815 3232.5000 -3.5069 3.5088
321.0427 2.4955 -584.5696 -0.1842 -0.6847 -0.6810 0.1830 3235.0000 -3.4867 3.4886
318.8829 2.5030 -583.3105 -0.1860 -0.6842 -0.6805 0.1848 3237.5000 -3.4687 3.4704
316.7303 2.5108 -582.0392 -0.1880 -0.6837 -0.6799 0.1867 3240.0000 -3.4540 3.4554
314.5852 2.5189 -580.7553 -0.1901 -0.6832 -0.6794 0.1887 3242.5000 -3.4435 3.4446
312.4477 2.5273 -579.4588 -0.1921 -0.6826 -0.6788 0.1907 3245.0000 -3.4379 3.4384
310.3181 2.5360 -578.1494 -0.1942 -0.6821 -0.6782 0.1927 3247.5000 -3.4379 3.4376
308.1965 2.5450 -576.8270 -0.1963 -0.6815 -0.6775 0.1948 3250.0000 -3.4441 3.4428
306.0828 2.5542 -575.4920 -0.1982 -0.6810 -0.6770 0.1967 3252.5000 -3.4568 3.4543
303.9762 2.5633 -574.1459 -0.1999 -0.6805 -0.6765 0.1984 3255.0000 -3.4750 3.4715
301.8758 2.5720 -572.7900 -0.2013 -0.6800 -0.6760 0.2000 3257.5000 -3.4980 3.4934
299.7808 2.5801 -571.4258 -0.2024 -0.6797 -0.6757 0.2013 3260.0000 -3.5247 3.5192
297.6904 2.5872 -570.0546 -0.2033 -0.6793 -0.6754 0.2025 3262.5000 -3.5543 3.5482
295.6034 2.5934 -568.6782 -0.2039 -0.6791 -0.6753 0.2033 3265.0000 -3.5862 3.5795
293.5189 2.5987 -567.2980 -0.2042 -0.6789 -0.6751 0.2039 3267.5000 -3.6195 3.6125
291.4357 2.6032 -565.9158 -0.2043 -0.6788 -0.6751 0.2042 3270.0000 -3.6537 3.6467
289.3528 2.6070 -564.5334 -0.2041 -0.6788 -0.6752 0.2042 3272.5000 -3.6880 3.6814
287.2691 2.6103 -563.1521 -0.2039 -0.6789 -0.6752 0.2040 3275.0000 -3.7220 3.7158
285.1852 2.6131 -561.7712 -0.2039 -0.6788 -0.6752 0.2042 3277.5000 -3.7562 3.7505
283.1022 2.6156 -560.3888 -0.2042 -0.6787 -0.6751 0.2046 3280.0000 -3.7923 3.7869
281.0214 2.6178 -559.0031 -0.2049 -0.6785 -0.6749 0.2053 3282.5000 -3.8319 3.8267
278.9438 2.6199 -557.6124 -0.2058 -0.6782 -0.6746 0.2063 3285.0000 -3.8764 3.8714
276.8709 2.6218 -556.2143 -0.2072 -0.6778 -0.6742 0.2078 3287.5000 -3.9263 3.9217
274.8053 2.6236 -554.8056 -0.2092 -0.6771 -0.6736 0.2099 3290.0000 -3.9780 3.9739
272.7498 2.6250 -553.3825 -0.2119 -0.6763 -0.6727 0.2126 3292.5000 -4.0269 4.0233
270.7074 2.6261 -551.9413 -0.2151 -0.6752 -0.6717 0.2160 3295.0000 -4.0684 4.0654
268.6807 2.6266 -550.4781 -0.2190 -0.6739 -0.6704 0.2201 3297.5000 -4.0975 4.0953
266.6714 2.6265 -548.9912 -0.2226 -0.6727 -0.6692 0.2239 3300.0000 -4.1112 4.1103
264.6772 2.6255 -547.4838 -0.2256 -0.6716 -0.6682 0.2272 3302.5000 -4.1105 4.1110
262.6954 2.6234 -545.9596 -0.2279 -0.6707 -0.6674 0.2298 3305.0000 -4.0967 4.0985
260.7233 2.6200 -544.4227 -0.2295 -0.6700 -0.6668 0.2318 3307.5000 -4.0711 4.0739
258.7583 2.6151 -542.8768 -0.2305 -0.6696 -0.6664 0.2333 3310.0000 -4.0349 4.0384
256.7984 2.6086 -541.3246 -0.2313 -0.6691 -0.6662 0.2345 3312.5000 -3.9899 3.9937
254.8428 2.6005 -539.7672 -0.2319 -0.6688 -0.6659 0.2356 3315.0000 -3.9394 3.9432
252.8909 2.5907 -538.2053 -0.2324 -0.6685 -0.6658 0.2365 3317.5000 -3.8869 3.8904
250.9419 2.5794 -536.6397 -0.2327 -0.6682 -0.6656 0.2373 3320.0000 -3.8359 3.8387
248.9953 2.5665 -535.0711 -0.2330 -0.6679 -0.6655 0.2380 3322.5000 -3.7894 3.7916
247.0516 2.5520 -533.4989 -0.2335 -0.6676 -0.6654 0.2390 3325.0000 -3.7492 3.7510
245.1122 2.5356 -531.9213 -0.2344 -0.6671 -0.6650 0.2403 3327.5000 -3.7155 3.7171
243.1788 2.5174 -530.3365 -0.2355 -0.6665 -0.6646 0.2420 3330.0000 -3.6887 3.6902
241.2530 2.4971 -528.7426 -0.2369 -0.6658 -0.6641 0.2440 3332.5000 -3.6692 3.6704
239.3360 2.4746 -527.1382 -0.2385 -0.6650 -0.6636 0.2461 3335.0000 -3.6570 3.6579
237.4269 2.4500 -525.5243 -0.2397 -0.6644 -0.6631 0.2478 3337.5000 -3.6508 3.6514
235.5239 2.4234 -523.9033 -0.2404 -0.6639 -0.6628 0.2491 3340.0000 -3.6481 3.6484
233.6247 2.3951 -522.2776 -0.2408 -0.6636 -0.6627 0.2499 3342.5000 -3.6465 3.6468
231.7275 2.3652 -520.6498 -0.2408 -0.6635 -0.6627 0.2503 3345.0000 -3.6435 3.6440
229.8303 2.3339 -519.0219 -0.2405 -0.6634 -0.6628 0.2504 3347.5000 -3.6373 3.6379
227.9330 2.3011 -517.3943 -0.2403 -0.6634 -0.6629 0.2506 3350.0000 -3.6280 3.6287
226.0355 2.2667 -515.7670 -0.2400 -0.6633 -0.6630 0.2508 3352.5000 -3.6167 3.6174
224.1379 2.2306 -514.1397 -0.2398 -0.6632 -0.6631 0.2510 3355.0000 -3.6043 3.6050
222.2404 2.1927 -512.5125 -0.2395 -0.6631 -0.6632 0.2512 3357.5000 -3.5918 3.5923
220.3429 2.1530 -510.8853 -0.2393 -0.6630 -0.6632 0.2515 3360.0000 -3.5798 3.5802
218.4454 2.1114 -509.2581 -0.2391 -0.6629 -0.6633 0.2517 3362.5000 -3.5683 3.5686
216.5479 2.0682 -507.6310 -0.2388 -0.6629 -0.6634 0.2519 3365.0000 -3.5572 3.5574
214.6503 2.0234 -506.0040 -0.2386 -0.6628 -0.6635 0.2521 3367.5000 -3.5463 3.5463
212.7525 1.9770 -504.3772 -0.2383 -0.6627 -0.6636 0.2522 3370.0000 -3.5354 3.5354
210.8546 1.9291 -502.7506 -0.2381 -0.6627 -0.6637 0.2524 3372.5000 -3.5245 3.5244
208.9567 1.8800 -501.1241 -0.2380 -0.6626 -0.6637 0.2526 3375.0000 -3.5136 3.5134
207.0591 1.8297 -499.4974 -0.2379 -0.6625 -0.6638 0.2528 3377.5000 -3.5027 3.5023
205.1617 1.7782 -497.8703 -0.2378 -0.6624 -0.6638 0.2530 3380.0000 -3.4916 3.4912
203.2648 1.7258 -496.2427 -0.2378 -0.6624 -0.6638 0.2532 3382.5000 -3.4806 3.4800
201.3684 1.6724 -494.6146 -0.2377 -0.6623 -0.6638 0.2535 3385.0000 -3.4695 3.4689
199.4724 1.6178 -492.9860 -0.2376 -0.6622 -0.6638 0.2537 3387.5000 -3.4586 3.4579
197.5767 1.5619 -491.3572 -0.2375 -0.6621 -0.6639 0.2539 3390.0000 -3.4478 3.4471
195.6811 1.5046 -489.7282 -0.2373 -0.6620 -0.6640 0.2541 3392.5000 -3.4373 3.4367
193.7857 1.4457 -488.0991 -0.2372 -0.6619 -0.6640 0.2544 3395.0000 -3.4272 3.4268
191.8908 1.3854 -486.4694 -0.2372 -0.6618 -0.6640 0.2547 3397.5000 -3.4181 3.4179
189.9971 1.3242 -484.8385 -0.2373 -0.6617 -0.6639 0.2551 3400.0000 -3.4108 3.4107
188.1050 1.2625 -483.2056 -0.2377 -0.6615 -0.6638 0.2555 3402.5000 -3.4060 3.4060
186.2153 1.2005 -481.5700 -0.2383 -0.6613 -0.6636 0.2561 3405.0000 -3.4045 3.4045
184.3284 1.1388 -479.9312 -0.2388 -0.6611 -0.6634 0.2566 3407.5000 -3.4068 3.4065
182.4438 1.0771 -478.2897 -0.2392 -0.6609 -0.6633 0.2570 3410.0000 -3.4124 3.4118
180.5610 1.0151 -476.6461 -0.2395 -0.6608 -0.6632 0.2574 3412.5000 -3.4204 3.4194
178.6794 0.9527 -475.0013 -0.2396 -0.6607 -0.6631 0.2576 3415.0000 -3.4300 3.4286
176.7983 0.8896 -473.3559 -0.2395 -0.6606 -0.6632 0.2577 3417.5000 -3.4403 3.4387
174.9172 0.8256 -471.7104 -0.2394 -0.6606 -0.6632 0.2578 3420.0000 -3.4506 3.4487
173.0361 0.7610 -470.0650 -0.2393 -0.6606 -0.6632 0.2579 3422.5000 -3.4609 3.4588
171.1551 0.6961 -468.4195 -0.2393 -0.6606 -0.6632 0.2579 3425.0000 -3.4712 3.4689
169.2742 0.6311 -466.7740 -0.2393 -0.6606 -0.6632 0.2580 3427.5000 -3.4815 3.4791
167.3933 0.5662 -465.1283 -0.2394 -0.6606 -0.6632 0.2579 3430.0000 -3.4919 3.4893
165.5125 0.5018 -463.4826 -0.2394 -0.6606 -0.6632 0.2579 3432.5000 -3.5023 3.4997
163.6318 0.4376 -461.8368 -0.2395 -0.6606 -0.6632 0.2579 3435.0000 -3.5124 3.5099
161.7510 0.3736 -460.1910 -0.2395 -0.6606 -0.6632 0.2578 3437.5000 -3.5221 3.5197
159.8701 0.3097 -458.5453 -0.2395 -0.6606 -0.6632 0.2578 3440.0000 -3.5311 3.5289
157.9891 0.2458 -456.8998 -0.2394 -0.6606 -0.6632 0.2578 3442.5000 -3.5393 3.5373
156.1078 0.1819 -455.2546 -0.2393 -0.6607 -0.6632 0.2577 3445.0000 -3.5467 3.5449
154.2259 0.1181 -453.6101 -0.2392 -0.6607 -0.6633 0.2575 3447.5000 -3.5537 3.5520
152.3432 0.0544 -451.9666 -0.2391 -0.6608 -0.6633 0.2573 3450.0000 -3.5606 3.5589
150.4595 -0.0091 -450.3241 -0.2388 -0.6609 -0.6634 0.2571 3452.5000 -3.5679 3.5661
148.5744 -0.0725 -448.6832 -0.2386 -0.6610 -0.6635 0.2568 3455.0000 -3.5756 3.5738
146.6880 -0.1355 -447.0439 -0.2383 -0.6611 -0.6636 0.2564 3457.5000 -3.5833 3.5816
144.8000 -0.1982 -445.4064 -0.2381 -0.6613 -0.6637 0.2561 3460.0000 -3.5903 3.5889
142.9104 -0.2605 -443.7707 -0.2378 -0.6614 -0.6638 0.2557 3462.5000 -3.5959 3.5949
141.0191 -0.3224 -442.1369 -0.2375 -0.6616 -0.6639 0.2553 3465.0000 -3.5994 3.5989
139.1261 -0.3838 -440.5051 -0.2373 -0.6617 -0.6640 0.2549 3467.5000 -3.6003 3.6003
137.2318 -0.4447 -438.8748 -0.2371 -0.6618 -0.6640 0.2546 3470.0000 -3.5990 3.5993
135.3366 -0.5051 -437.2455 -0.2370 -0.6619 -0.6641 0.2544 3472.5000 -3.5963 3.5967
133.4409 -0.5650 -435.6168 -0.2371 -0.6620 -0.6640 0.2543 3475.0000 -3.5927 3.5932
131.5453 -0.6244 -433.9879 -0.2372 -0.6620 -0.6640 0.2543 3477.5000 -3.5891 3.5896
129.6501 -0.6834 -432.3586 -0.2373 -0.6619 -0.6640 0.2543 3480.0000 -3.5859 3.5862
127.7552 -0.7423 -430.7289 -0.2374 -0.6619 -0.6639 0.2544 3482.5000 -3.5830 3.5833
125.8606 -0.8014 -429.0989 -0.2374 -0.6619 -0.6639 0.2545 3485.0000 -3.5802 3.5804
123.9661 -0.8609 -427.4687 -0.2373 -0.6618 -0.6640 0.2546 3487.5000 -3.5774 3.5776
122.0718 -0.9211 -425.8383 -0.2372 -0.6618 -0.6640 0.2547 3490.0000 -3.5742 3.5744
120.1776 -0.9821 -424.2079 -0.2372 -0.6618 -0.6640 0.2548 3492.5000 -3.5708 3.5710
118.2835 -1.0434 -422.5775 -0.2372 -0.6617 -0.6640 0.2548 3495.0000 -3.5672 3.5674
116.3895 -1.1046 -420.9469 -0.2372 -0.6618 -0.6640 0.2548 3497.5000 -3.5637 3.5638
114.4955 -1.1651 -419.3161 -0.2374 -0.6618 -0.6639 0.2547 3500.0000 -3.5605 3.5605
112.6017 -1.2245 -417.6852 -0.2376 -0.6618 -0.6639 0.2546 3502.5000 -3.5576 3.5576
110.7081 -1.2828 -416.0540 -0.2378 -0.6619 -0.6638 0.2545 3505.0000 -3.5551 3.5550
108.8147 -1.3403 -414.4224 -0.2379 -0.6619 -0.6637 0.2545 3507.5000 -3.5523 3.5522
106.9217 -1.3972 -412.7905 -0.2380 -0.6619 -0.6637 0.2545 3510.0000 -3.5490 3.5488
105.0291 -1.4539 -411.1581 -0.2381 -0.6618 -0.6637 0.2546 3512.5000 -3.5446 3.5444
103.1370 -1.5107 -409.5250 -0.2382 -0.6618 -0.6636 0.2547 3515.0000 -3.5388 3.5386
101.2455 -1.5677 -407.8913 -0.2384 -0.6617 -0.6636 0.2549 3517.5000 -3.5319 3.5317
99.3547 -1.6246 -406.2569 -0.2385 -0.6617 -0.6635 0.2550 3520.0000 -3.5246 3.5245
97.4646 -1.6813 -404.6215 -0.2387 -0.6616 -0.6635 0.2551 3522.5000 -3.5176 3.5176
95.5754 -1.7378 -402.9852 -0.2389 -0.6616 -0.6634 0.2553 3525.0000 -3.5116 3.5116
93.6871 -1.7939 -401.3477 -0.2393 -0.6615 -0.6632 0.2555 3527.5000 -3.5072 3.5072
91.8006 -1.8494 -399.7081 -0.2398 -0.6614 -0.6630 0.2558 3530.0000 -3.5038 3.5039
89.9168 -1.9039 -398.0654 -0.2406 -0.6612 -0.6628 0.2563 3532.5000 -3.5010 3.5012
88.0366 -1.9574 -396.4186 -0.2415 -0.6609 -0.6624 0.2570 3535.0000 -3.4981 3.4983
86.1609 -2.0096 -394.7667 -0.2427 -0.6606 -0.6620 0.2578 3537.5000 -3.4945 3.4948
84.2901 -2.0602 -393.1092 -0.2439 -0.6604 -0.6615 0.2585 3540.0000 -3.4898 3.4902
82.4232 -2.1089 -391.4471 -0.2448 -0.6602 -0.6612 0.2589 3542.5000 -3.4843 3.4849
80.5592 -2.1555 -389.7818 -0.2456 -0.6602 -0.6609 0.2590 3545.0000 -3.4784 3.4791
78.6969 -2.1996 -388.1145 -0.2461 -0.6602 -0.6607 0.2589 3547.5000 -3.4725 3.4732
76.8351 -2.2410 -386.4465 -0.2465 -0.6603 -0.6605 0.2586 3550.0000 -3.4669 3.4675
74.9732 -2.2796 -384.7787 -0.2469 -0.6605 -0.6604 0.2582 3552.5000 -3.4616 3.4622
73.1112 -2.3156 -383.1109 -0.2472 -0.6606 -0.6603 0.2578 3555.0000 -3.4567 3.4572
71.2490 -2.3493 -381.4432 -0.2474 -0.6607 -0.6602 0.2575 3557.5000 -3.4518 3.4524
69.3867 -2.3810 -379.7756 -0.2477 -0.6608 -0.6601 0.2573 3560.0000 -3.4471 3.4476
67.5244 -2.4109 -378.1080 -0.2479 -0.6609 -0.6600 0.2571 3562.5000 -3.4422 3.4428
65.6621 -2.4391 -376.4404 -0.2481 -0.6610 -0.6600 0.2568 3565.0000 -3.4372 3.4379
63.7996 -2.4658 -374.7729 -0.2483 -0.6611 -0.6599 0.2566 3567.5000 -3.4321 3.4328
61.9371 -2.4907 -373.1054 -0.2485 -0.6612 -0.6598 0.2564 3570.0000 -3.4269 3.4277
60.0745 -2.5140 -371.4381 -0.2487 -0.6613 -0.6597 0.2561 3572.5000 -3.4216 3.4224
58.2117 -2.5356 -369.7709 -0.2489 -0.6614 -0.6596 0.2559 3575.0000 -3.4162 3.4170
56.3488 -2.5554 -368.1038 -0.2491 -0.6615 -0.6596 0.2556 3577.5000 -3.4106 3.4114
54.4859 -2.5737 -366.4366 -0.2494 -0.6616 -0.6595 0.2554 3580.0000 -3.4047 3.4056
52.6231 -2.5903 -364.7694 -0.2496 -0.6616 -0.6594 0.2552 3582.5000 -3.3986 3.3995
50.7603 -2.6053 -363.1021 -0.2498 -0.6617 -0.6593 0.2551 3585.0000 -3.3921 3.3930
48.8976 -2.6188 -361.4347 -0.2500 -0.6618 -0.6592 0.2548 3587.5000 -3.3855 3.3863
47.0342 -2.6306 -359.7681 -0.2500 -0.6620 -0.6593 0.2543 3590.0000 -3.3801 3.3806
45.1690 -2.6408 -358.1035 -0.2498 -0.6622 -0.6593 0.2537 3592.5000 -3.3773 3.3774
43.3011 -2.6492 -356.4419 -0.2494 -0.6626 -0.6595 0.2528 3595.0000 -3.3787 3.3784
41.4295 -2.6558 -354.7845 -0.2488 -0.6630 -0.6597 0.2517 3597.5000 -3.3856 3.3849
39.5537 -2.6605 -353.1319 -0.2482 -0.6634 -0.6599 0.2507 3600.0000 -3.3987 3.3978
37.6744 -2.6633 -351.4832 -0.2479 -0.6637 -0.6601 0.2498 3602.5000 -3.4168 3.4158
35.7927 -2.6643 -349.8373 -0.2477 -0.6639 -0.6601 0.2492 3605.0000 -3.4384 3.4375
33.9094 -2.6635 -348.1931 -0.2478 -0.6641 -0.6601 0.2487 3607.5000 -3.4620 3.4613
32.0256 -2.6609 -346.5495 -0.2480 -0.6642 -0.6600 0.2485 3610.0000 -3.4862 3.4856
30.1418 -2.6565 -344.9059 -0.2482 -0.6643 -0.6599 0.2482 3612.5000 -3.5099 3.5095
28.2580 -2.6502 -343.2624 -0.2485 -0.6644 -0.6598 0.2480 3615.0000 -3.5331 3.5330
26.3742 -2.6422 -341.6189 -0.2487 -0.6644 -0.6598 0.2477 3617.5000 -3.5560 3.5560
24.4902 -2.6323 -339.9756 -0.2489 -0.6646 -0.6597 0.2475 3620.0000 -3.5783 3.5786
22.6060 -2.6207 -338.3326 -0.2491 -0.6647 -0.6596 0.2472 3622.5000 -3.6003 3.6007
20.7215 -2.6072 -336.6898 -0.2493 -0.6648 -0.6595 0.2469 3625.0000 -3.6218 3.6225
18.8369 -2.5918 -335.0472 -0.2495 -0.6649 -0.6595 0.2466 3627.5000 -3.6432 3.6440
16.9522 -2.5747 -333.4048 -0.2497 -0.6650 -0.6594 0.2463 3630.0000 -3.6644 3.6653
15.0673 -2.5557 -331.7626 -0.2499 -0.6651 -0.6593 0.2461 3632.5000 -3.6856 3.6867
13.1825 -2.5349 -330.1203 -0.2502 -0.6651 -0.6592 0.2459 3635.0000 -3.7068 3.7079
11.2984 -2.5125 -328.4771 -0.2507 -0.6651 -0.6590 0.2460 3637.5000 -3.7270 3.7280
9.4163 -2.4885 -326.8318 -0.2514 -0.6650 -0.6587 0.2463 3640.0000 -3.7443 3.7451
7.5373 -2.4631 -325.1830 -0.2523 -0.6648 -0.6584 0.2468 3642.5000 -3.7571 3.7575
5.6625 -2.4365 -323.5294 -0.2534 -0.6645 -0.6580 0.2477 3645.0000 -3.7635 3.7635
3.7928 -2.4088 -321.8701 -0.2545 -0.6642 -0.6575 0.2485 3647.5000 -3.7620 3.7618
1.9276 -2.3796 -320.2058 -0.2555 -0.6640 -0.6571 0.2491 3650.0000 -3.7537 3.7532
0.0657 -2.3487 -318.5377 -0.2563 -0.6639 -0.6568 0.2494 3652.5000 -3.7401 3.7396
-1.7939 -2.3157 -316.8671 -0.2570 -0.6638 -0.6565 0.2494 3655.0000 -3.7230 3.7225
-3.6521 -2.2802 -315.1950 -0.2575 -0.6639 -0.6564 0.2492 3657.5000 -3.7040 3.7035
-5.5101 -2.2422 -313.5228 -0.2577 -0.6641 -0.6562 0.2489 3660.0000 -3.6846 3.6842
-7.3686 -2.2022 -311.8511 -0.2578 -0.6642 -0.6562 0.2485 3662.5000 -3.6661 3.6656
-9.2284 -2.1612 -310.1809 -0.2575 -0.6643 -0.6563 0.2481 3665.0000 -3.6494 3.6490
-11.0902 -2.1199 -308.5131 -0.2570 -0.6645 -0.6565 0.2476 3667.5000 -3.6357 3.6354
-12.9549 -2.0791 -306.8483 -0.2563 -0.6647 -0.6568 0.2471 3670.0000 -3.6261 3.6258
-14.8225 -2.0392 -305.1869 -0.2557 -0.6649 -0.6570 0.2467 3672.5000 -3.6207 3.6205
-16.6921 -1.9996 -303.5276 -0.2554 -0.6650 -0.6572 0.2464 3675.0000 -3.6182 3.6181
-18.5627 -1.9600 -301.8696 -0.2553 -0.6650 -0.6572 0.2463 3677.5000 -3.6172 3.6172
-20.4335 -1.9199 -300.2117 -0.2555 -0.6650 -0.6571 0.2462 3680.0000 -3.6164 3.6164
-22.3034 -1.8789 -298.5528 -0.2559 -0.6650 -0.6570 0.2463 3682.5000 -3.6143 3.6143
-24.1723 -1.8369 -296.8929 -0.2561 -0.6650 -0.6569 0.2464 3685.0000 -3.6105 3.6105
-26.0406 -1.7944 -295.2322 -0.2562 -0.6650 -0.6568 0.2464 3687.5000 -3.6057 3.6057
-27.9087 -1.7515 -293.5714 -0.2562 -0.6650 -0.6568 0.2464 3690.0000 -3.6004 3.6004
-29.7771 -1.7088 -291.9109 -0.2561 -0.6650 -0.6569 0.2463 3692.5000 -3.5952 3.5953
-31.6463 -1.6665 -290.2513 -0.2559 -0.6650 -0.6570 0.2462 3695.0000 -3.5909 3.5909
-33.5164 -1.6245 -288.5927 -0.2556 -0.6651 -0.6571 0.2461 3697.5000 -3.5875 3.5875
-35.3873 -1.5829 -286.9350 -0.2555 -0.6651 -0.6572 0.2459 3700.0000 -3.5851 3.5851
-37.2591 -1.5414 -285.2783 -0.2553 -0.6652 -0.6572 0.2458 3702.5000 -3.5840 3.5839
-39.1317 -1.4999 -283.6225 -0.2551 -0.6653 -0.6573 0.2456 3705.0000 -3.5840 3.5840
-41.0051 -1.4582 -281.9676 -0.2550 -0.6653 -0.6573 0.2454 3707.5000 -3.5854 3.5853
-42.8792 -1.4162 -280.3135 -0.2549 -0.6654 -0.6574 0.2452 3710.0000 -3.5876 3.5876
-44.7537 -1.3739 -278.6600 -0.2549 -0.6654 -0.6574 0.2451 3712.5000 -3.5903 3.5903
-46.6287 -1.3311 -277.0069 -0.2549 -0.6655 -0.6574 0.2450 3715.0000 -3.5931 3.5931
-48.5038 -1.2878 -275.3540 -0.2550 -0.6655 -0.6573 0.2449 3717.5000 -3.5956 3.5956
-50.3790 -1.2439 -273.7012 -0.2550 -0.6656 -0.6573 0.2448 3720.0000 -3.5974 3.5974
-52.2544 -1.1996 -272.0486 -0.2550 -0.6656 -0.6573 0.2447 3722.5000 -3.5983 3.5983
-54.1302 -1.1553 -270.3965 -0.2549 -0.6656 -0.6574 0.2446 3725.0000 -3.5982 3.5982
-56.0064 -1.1111 -268.7449 -0.2547 -0.6656 -0.6574 0.2446 3727.5000 -3.5971 3.5970
-57.8832 -1.0675 -267.0939 -0.2545 -0.6657 -0.6575 0.2445 3730.0000 -3.5946 3.5947
-59.7606 -1.0243 -265.4436 -0.2544 -0.6657 -0.6576 0.2445 3732.5000 -3.5910 3.5911
-61.6384 -0.9815 -263.7938 -0.2543 -0.6657 -0.6576 0.2444 3735.0000 -3.5864 3.5865
-63.5165 -0.9389 -262.1443 -0.2543 -0.6657 -0.6576 0.2444 3737.5000 -3.5811 3.5813
-65.3946 -0.8961 -260.4948 -0.2543 -0.6657 -0.6576 0.2444 3740.0000 -3.5755 3.5757
-67.2726 -0.8531 -258.8451 -0.2544 -0.6657 -0.6576 0.2444 3742.5000 -3.5696 3.5699
-69.1503 -0.8099 -257.1952 -0.2544 -0.6657 -0.6576 0.2444 3745.0000 -3.5637 3.5640
-71.0277 -0.7667 -255.5448 -0.2545 -0.6656 -0.6575 0.2445 3747.5000 -3.5575 3.5579
-72.9046 -0.7237 -253.8940 -0.2545 -0.6656 -0.6575 0.2447 3750.0000 -3.5509 3.5514
-74.7811 -0.6813 -252.2426 -0.2546 -0.6655 -0.6575 0.2449 3752.5000 -3.5438 3.5444
-76.6571 -0.6397 -250.5907 -0.2545 -0.6655 -0.6575 0.2451 3755.0000 -3.5361 3.5367
-78.5331 -0.5990 -248.9387 -0.2543 -0.6654 -0.6576 0.2451 3757.5000 -3.5286 3.5293
-80.4099 -0.5591 -247.2876 -0.2540 -0.6655 -0.6577 0.2450 3760.0000 -3.5226 3.5231
-82.2881 -0.5202 -245.6382 -0.2535 -0.6656 -0.6579 0.2447 3762.5000 -3.5192 3.5194
-84.1686 -0.4823 -243.9913 -0.2528 -0.6657 -0.6582 0.2443 3765.0000 -3.5195 3.5192
-86.0520 -0.4454 -242.3476 -0.2521 -0.6659 -0.6585 0.2439 3767.5000 -3.5244 3.5237
-87.9379 -0.4093 -240.7069 -0.2516 -0.6660 -0.6587 0.2435 3770.0000 -3.5333 3.5322
-89.8258 -0.3741 -239.0685 -0.2511 -0.6661 -0.6589 0.2433 3772.5000 -3.5455 3.5440
-91.7153 -0.3396 -237.4318 -0.2508 -0.6661 -0.6590 0.2431 3775.0000 -3.5601 3.5583
-93.6057 -0.3057 -235.7962 -0.2505 -0.6662 -0.6591 0.2430 3777.5000 -3.5763 3.5743
-95.4967 -0.2723 -234.1613 -0.2504 -0.6662 -0.6591 0.2430 3780.0000 -3.5936 3.5913
-97.3881 -0.2395 -232.5267 -0.2503 -0.6662 -0.6592 0.2430 3782.5000 -3.6116 3.6091
-99.2796 -0.2072 -230.8924 -0.2502 -0.6661 -0.6592 0.2431 3785.0000 -3.6300 3.6273
-101.1711 -0.1754 -229.2580 -0.2501 -0.6661 -0.6592 0.2432 3787.5000 -3.6486 3.6458
-103.0624 -0.1441 -227.6234 -0.2501 -0.6661 -0.6592 0.2433 3790.0000 -3.6671 3.6642
-104.9534 -0.1135 -225.9883 -0.2501 -0.6660 -0.6592 0.2435 3792.5000 -3.6853 3.6823
-106.8439 -0.0836 -224.3528 -0.2501 -0.6659 -0.6592 0.2437 3795.0000 -3.7030 3.6999
-108.7338 -0.0547 -222.7165 -0.2501 -0.6658 -0.6592 0.2440 3797.5000 -3.7199 3.7168
-110.6230 -0.0269 -221.0794 -0.2501 -0.6657 -0.6592 0.2443 3800.0000 -3.7358 3.7328
-112.5114 -0.0006 -219.4413 -0.2501 -0.6656 -0.6592 0.2447 3802.5000 -3.7505 3.7476
-114.3991 0.0245 -217.8025 -0.2500 -0.6655 -0.6593 0.2449 3805.0000 -3.7645 3.7617
-116.2867 0.0489 -216.1634 -0.2499 -0.6655 -0.6593 0.2450 3807.5000 -3.7785 3.7757
-118.1745 0.0729 -214.5246 -0.2498 -0.6655 -0.6593 0.2449 3810.0000 -3.7933 3.7903
-120.0629 0.0970 -212.8866 -0.2497 -0.6656 -0.6594 0.2447 3812.5000 -3.8095 3.8063
-121.9524 0.1216 -211.2496 -0.2496 -0.6657 -0.6594 0.2445 3815.0000 -3.8276 3.8242
-123.8417 0.1465 -209.6126 -0.2498 -0.6656 -0.6593 0.2446 3817.5000 -3.8455 3.8423
-125.7291 0.1714 -207.9734 -0.2504 -0.6654 -0.6591 0.2452 3820.0000 -3.8604 3.8578
-127.6129 0.1958 -206.3300 -0.2512 -0.6650 -0.6588 0.2462 3822.5000 -3.8694 3.8681
-129.4912 0.2194 -204.6803 -0.2523 -0.6645 -0.6584 0.2477 3825.0000 -3.8696 3.8703
-131.3627 0.2417 -203.0230 -0.2535 -0.6639 -0.6579 0.2492 3827.5000 -3.8596 3.8625
-133.2283 0.2630 -201.3591 -0.2543 -0.6635 -0.6576 0.2503 3830.0000 -3.8415 3.8462
-135.0899 0.2834 -199.6904 -0.2549 -0.6632 -0.6574 0.2511 3832.5000 -3.8179 3.8238
-136.9489 0.3031 -198.0189 -0.2552 -0.6631 -0.6573 0.2515 3835.0000 -3.7914 3.7978
-138.8070 0.3225 -196.3464 -0.2551 -0.6631 -0.6573 0.2515 3837.5000 -3.7645 3.7708
-140.6657 0.3416 -194.6746 -0.2549 -0.6631 -0.6574 0.2513 3840.0000 -3.7393 3.7450
-142.5261 0.3605 -193.0047 -0.2544 -0.6633 -0.6576 0.2509 3842.5000 -3.7171 3.7219
-144.3891 0.3789 -191.3378 -0.2537 -0.6635 -0.6578 0.2504 3845.0000 -3.6991 3.7027
-146.2558 0.3970 -189.6749 -0.2528 -0.6638 -0.6582 0.2496 3847.5000 -3.6867 3.6888
-148.1271 0.4145 -188.0173 -0.2518 -0.6641 -0.6586 0.2487 3850.0000 -3.6809 3.6816
-150.0034 0.4317 -186.3653 -0.2508 -0.6645 -0.6590 0.2477 3852.5000 -3.6814 3.6810
-151.8842 0.4485 -184.7184 -0.2499 -0.6648 -0.6593 0.2469 3855.0000 -3.6859 3.6849
-153.7690 0.4654 -183.0760 -0.2492 -0.6650 -0.6596 0.2461 3857.5000 -3.6922 3.6912
-155.6572 0.4825 -181.4375 -0.2486 -0.6653 -0.6598 0.2455 3860.0000 -3.6983 3.6975
-157.5482 0.5001 -179.8023 -0.2482 -0.6655 -0.6600 0.2449 3862.5000 -3.7019 3.7016
-159.4415 0.5180 -178.1699 -0.2478 -0.6657 -0.6601 0.2444 3865.0000 -3.7025 3.7025
-161.3368 0.5360 -176.5397 -0.2474 -0.6658 -0.6603 0.2441 3867.5000 -3.7006 3.7009
-163.2336 0.5536 -174.9113 -0.2471 -0.6659 -0.6604 0.2439 3870.0000 -3.6966 3.6971
-165.1316 0.5705 -173.2841 -0.2468 -0.6659 -0.6605 0.2438 3872.5000 -3.6912 3.6917
-167.0303 0.5864 -171.6579 -0.2465 -0.6659 -0.6606 0.2438 3875.0000 -3.6848 3.6854
-168.9294 0.6012 -170.0322 -0.2463 -0.6659 -0.6607 0.2439 3877.5000 -3.6783 3.6788
-170.8290 0.6149 -168.4069 -0.2461 -0.6658 -0.6608 0.2440 3880.0000 -3.6726 3.6730
-172.7288 0.6274 -166.7819 -0.2459 -0.6658 -0.6608 0.2441 3882.5000 -3.6686 3.6688
-174.6286 0.6388 -165.1570 -0.2457 -0.6657 -0.6609 0.2442 3885.0000 -3.6672 3.6671
-176.5285 0.6492 -163.5320 -0.2456 -0.6657 -0.6609 0.2444 3887.5000 -3.6692 3.6689
-178.4280 0.6584 -161.9067 -0.2455 -0.6656 -0.6610 0.2446 3890.0000 -3.6748 3.6742
-180.3272 0.6665 -160.2809 -0.2455 -0.6655 -0.6610 0.2449 3892.5000 -3.6841 3.6831
-182.2258 0.6735 -158.6545 -0.2455 -0.6654 -0.6610 0.2452 3895.0000 -3.6971 3.6956
-184.1236 0.6793 -157.0271 -0.2455 -0.6653 -0.6610 0.2455 3897.5000 -3.7137 3.7118
-186.0202 0.6840 -155.3984 -0.2457 -0.6651 -0.6609 0.2460 3900.0000 -3.7333 3.7309
-187.9147 0.6878 -153.7673 -0.2461 -0.6649 -0.6607 0.2466 3902.5000 -3.7535 3.7510
-189.8061 0.6908 -152.1325 -0.2467 -0.6646 -0.6605 0.2474 3905.0000 -3.7720 3.7696
-191.6933 0.6933 -150.4928 -0.2477 -0.6642 -0.6602 0.2485 3907.5000 -3.7861 3.7841
-193.5752 0.6955 -148.8470 -0.2488 -0.6637 -0.6597 0.2496 3910.0000 -3.7934 3.7923
-195.4512 0.6976 -147.1944 -0.2499 -0.6633 -0.6593 0.2509 3912.5000 -3.7943 3.7938
-197.3214 0.6996 -145.5352 -0.2511 -0.6629 -0.6588 0.2520 3915.0000 -3.7925 3.7920
-199.1858 0.7015 -143.8696 -0.2522 -0.6624 -0.6584 0.2532 3917.5000 -3.7917 3.7907
-201.0443 0.7034 -142.1977 -0.2533 -0.6620 -0.6580 0.2543 3920.0000 -3.7956 3.7938
-202.8971 0.7053 -140.5198 -0.2544 -0.6616 -0.6575 0.2554 3922.5000 -3.8077 3.8050
-204.7431 0.7070 -138.8346 -0.2559 -0.6610 -0.6570 0.2570 3925.0000 -3.8279 3.8249
-206.5805 0.7079 -137.1398 -0.2576 -0.6602 -0.6563 0.2590 3927.5000 -3.8538 3.8510
-208.4074 0.7077 -135.4332 -0.2597 -0.6592 -0.6554 0.2615 3930.0000 -3.8832 3.8805
-210.2218 0.7057 -133.7123 -0.2621 -0.6581 -0.6544 0.2645 3932.5000 -3.9135 3.9108
-212.0206 0.7016 -131.9739 -0.2657 -0.6564 -0.6530 0.2687 3935.0000 -3.9426 3.9394
-213.7888 0.6948 -130.2054 -0.2727 -0.6531 -0.6501 0.2765 3937.5000 -3.9727 3.9686
-215.5051 0.6848 -128.3894 -0.2831 -0.6483 -0.6455 0.2879 3940.0000 -4.0080 4.0034
-217.1482 0.6712 -126.5084 -0.2969 -0.6415 -0.6392 0.3029 3942.5000 -4.0516 4.0477
-218.6966 0.6534 -124.5450 -0.3140 -0.6326 -0.6309 0.3212 3945.0000 -4.1059 4.1032
-220.1282 0.6315 -122.4855 -0.3337 -0.6218 -0.6206 0.3418 3947.5000 -4.1710 4.1697
-221.4180 0.6073 -120.3335 -0.3553 -0.6093 -0.6084 0.3639 3950.0000 -4.2409 4.2403
-222.5399 0.5834 -118.0975 -0.3792 -0.5946 -0.5937 0.3875 3952.5000 -4.3066 4.3051
-223.4680 0.5621 -115.7860 -0.4052 -0.5774 -0.5762 0.4128 3955.0000 -4.3563 4.3536
-224.1766 0.5461 -113.4077 -0.4331 -0.5575 -0.5554 0.4394 3957.5000 -4.3755 4.3749
-224.6614 0.5363 -110.9731 -0.4573 -0.5387 -0.5357 0.4624 3960.0000 -4.3641 4.3690
-224.9568 0.5319 -108.4970 -0.4761 -0.5227 -0.5190 0.4803 3962.5000 -4.3411 4.3488
-225.1010 0.5315 -105.9943 -0.4900 -0.5101 -0.5059 0.4937 3965.0000 -4.3205 4.3267
-225.1324 0.5337 -103.4801 -0.4996 -0.5011 -0.4965 0.5029 3967.5000 -4.3108 4.3123
-225.0883 0.5374 -100.9690 -0.5056 -0.4950 -0.4904 0.5088 3970.0000 -4.3150 4.3121
-224.9892 0.5414 -98.4669 -0.5107 -0.4897 -0.4850 0.5139 3972.5000 -4.3317 4.3258
-224.8403 0.5452 -95.9723 -0.5153 -0.4847 -0.4802 0.5186 3975.0000 -4.3600 4.3521
-224.6465 0.5480 -93.4834 -0.5192 -0.4801 -0.4759 0.5229 3977.5000 -4.3994 4.3897
-224.4127 0.5490 -90.9985 -0.5226 -0.4759 -0.4722 0.5267 3980.0000 -4.4492 4.4374
-224.1441 0.5477 -88.5157 -0.5253 -0.4723 -0.4692 0.5299 3982.5000 -4.5087 4.4943
-223.8495 0.5437 -86.0341 -0.5270 -0.4698 -0.4674 0.5321 3985.0000 -4.5745 4.5582
-223.5396 0.5369 -83.5530 -0.5276 -0.4685 -0.4666 0.5333 3987.5000 -4.6425 4.6256
-223.2252 0.5272 -81.0718 -0.5273 -0.4683 -0.4670 0.5335 3990.0000 -4.7079 4.6922
-222.9169 0.5143 -78.5896 -0.5259 -0.4692 -0.4686 0.5327 3992.5000 -4.7665 4.7535
-222.6247 0.4983 -76.1060 -0.5238 -0.4709 -0.4710 0.5311 3995.0000 -4.8136 4.8041
-222.3541 0.4794 -73.6206 -0.5212 -0.4732 -0.4738 0.5291 3997.5000 -4.8465 4.8404
-222.1094 0.4579 -71.1329 -0.5183 -0.4759 -0.4769 0.5267 4000.0000 -4.8624 4.8600
-221.8951 0.4344 -68.6427 -0.5150 -0.4791 -0.4805 0.5238 4002.5000 -4.8591 4.8603
-221.7155 0.4090 -66.1496 -0.5113 -0.4828 -0.4844 0.5204 4005.0000 -4.8339 4.8387
-221.5748 0.3825 -63.6536 -0.5072 -0.4870 -0.4887 0.5164 4007.5000 -4.7889 4.7957
-221.4776 0.3557 -61.1555 -0.5027 -0.4918 -0.4933 0.5119 4010.0000 -4.7355 4.7421
-221.4280 0.3299 -58.6562 -0.4979 -0.4970 -0.4981 0.5069 4012.5000 -4.6862 4.6908
-221.4306 0.3061 -56.1565 -0.4928 -0.5027 -0.5032 0.5012 4015.0000 -4.6531 4.6549
-221.4896 0.2853 -53.6575 -0.4872 -0.5089 -0.5086 0.4949 4017.5000 -4.6484 4.6476
-221.6082 0.2681 -51.1603 -0.4813 -0.5152 -0.5142 0.4884 4020.0000 -4.6747 4.6727
-221.7882 0.2540 -48.6667 -0.4752 -0.5215 -0.5199 0.4816 4022.5000 -4.7223 4.7205
-222.0312 0.2424 -46.1787 -0.4687 -0.5279 -0.5257 0.4747 4025.0000 -4.7807 4.7801
-222.3388 0.2329 -43.6979 -0.4619 -0.5343 -0.5317 0.4675 4027.5000 -4.8396 4.8405
-222.7125 0.2248 -41.2263 -0.4549 -0.5406 -0.5377 0.4601 4030.0000 -4.8894 4.8910
-223.1520 0.2175 -38.7655 -0.4478 -0.5466 -0.5437 0.4529 4032.5000 -4.9276 4.9293
-223.6558 0.2100 -36.3168 -0.4406 -0.5524 -0.5495 0.4459 4035.0000 -4.9581 4.9593
-224.2222 0.2013 -33.8818 -0.4334 -0.5579 -0.5552 0.4390 4037.5000 -4.9843 4.9852
-224.8495 0.1905 -31.4618 -0.4262 -0.5630 -0.5608 0.4323 4040.0000 -5.0102 5.0113
-225.5362 0.1768 -29.0581 -0.4191 -0.5680 -0.5661 0.4258 4042.5000 -5.0388 5.0406
-226.2793 0.1607 -26.6714 -0.4123 -0.5727 -0.5711 0.4194 4045.0000 -5.0677 5.0703
-227.0758 0.1432 -24.3018 -0.4060 -0.5771 -0.5756 0.4132 4047.5000 -5.0923 5.0949
-227.9226 0.1253 -21.9495 -0.4000 -0.5814 -0.5798 0.4072 4050.0000 -5.1079 5.1093
-228.8165 0.1081 -19.6148 -0.3945 -0.5854 -0.5836 0.4014 4052.5000 -5.1096 5.1083
-229.7547 0.0924 -17.2978 -0.3892 -0.5893 -0.5872 0.3956 4055.0000 -5.0934 5.0888
-230.7360 0.0782 -14.9988 -0.3839 -0.5930 -0.5906 0.3900 4057.5000 -5.0616 5.0545
-231.7592 0.0654 -12.7180 -0.3787 -0.5966 -0.5940 0.3845 4060.0000 -5.0186 5.0098
-232.8232 0.0538 -10.4556 -0.3736 -0.6000 -0.5973 0.3790 4062.5000 -4.9686 4.9592
-233.9269 0.0433 -8.2118 -0.3685 -0.6034 -0.6004 0.3736 4065.0000 -4.9159 4.9071
-235.0713 0.0336 -5.9881 -0.3628 -0.6070 -0.6040 0.3678 4067.5000 -4.8639 4.8557
-236.2609 0.0236 -3.7888 -0.3561 -0.6109 -0.6079 0.3612 4070.0000 -4.8131 4.8055
-237.5007 0.0125 -1.6183 -0.3484 -0.6151 -0.6124 0.3539 4072.5000 -4.7640 4.7567
-238.7956 -0.0006 0.5191 -0.3398 -0.6196 -0.6173 0.3458 4075.0000 -4.7170 4.7097
-240.1507 -0.0168 2.6188 -0.3303 -0.6244 -0.6224 0.3371 4077.5000 -4.6723 4.6650
-241.5667 -0.0360 4.6784 -0.3210 -0.6290 -0.6273 0.3284 4080.0000 -4.6304 4.6233
-243.0407 -0.0575 6.6977 -0.3121 -0.6333 -0.6319 0.3198 4082.5000 -4.5917 4.5849
-244.5694 -0.0803 8.6762 -0.3035 -0.6374 -0.6361 0.3114 4085.0000 -4.5560 4.5499
-246.1493 -0.1037 10.6137 -0.2952 -0.6414 -0.6400 0.3032 4087.5000 -4.5236 4.5182
-247.7773 -0.1267 12.5100 -0.2874 -0.6450 -0.6436 0.2952 4090.0000 -4.4945 4.4902
-249.4494 -0.1489 14.3671 -0.2803 -0.6484 -0.6468 0.2877 4092.5000 -4.4709 4.4683
-251.1618 -0.1700 16.1877 -0.2737 -0.6514 -0.6496 0.2808 4095.0000 -4.4566 4.4555
-252.9102 -0.1897 17.9749 -0.2679 -0.6540 -0.6521 0.2745 4097.5000 -4.4551 4.4548
-254.6907 -0.2076 19.7316 -0.2627 -0.6563 -0.6542 0.2687 4100.0000 -4.4704 4.4690
-256.4999 -0.2236 21.4599 -0.2577 -0.6586 -0.6562 0.2631 4102.5000 -4.5054 4.5008
-258.3380 -0.2373 23.1570 -0.2521 -0.6610 -0.6584 0.2569 4105.0000 -4.5591 4.5505
-260.2070 -0.2485 24.8184 -0.2460 -0.6636 -0.6608 0.2500 4107.5000 -4.6292 4.6175
-262.1085 -0.2570 26.4395 -0.2392 -0.6664 -0.6633 0.2424 4110.0000 -4.7132 4.7010
-264.0442 -0.2626 28.0158 -0.2318 -0.6693 -0.6660 0.2342 4112.5000 -4.8087 4.8003
-266.0140 -0.2651 29.5462 -0.2252 -0.6718 -0.6683 0.2267 4115.0000 -4.9127 4.9114
-268.0126 -0.2649 31.0405 -0.2202 -0.6736 -0.6700 0.2210 4117.5000 -5.0192 5.0245
-270.0332 -0.2622 32.5107 -0.2171 -0.6748 -0.6710 0.2172 4120.0000 -5.1208 5.1296
-272.0694 -0.2574 33.9687 -0.2157 -0.6755 -0.6715 0.2153 4122.5000 -5.2090 5.2169
-274.1144 -0.2507 35.4265 -0.2163 -0.6754 -0.6713 0.2155 4125.0000 -5.2745 5.2770
-276.1508 -0.2430 36.9029 -0.2220 -0.6736 -0.6694 0.2210 4127.5000 -5.3155 5.3112
-278.1433 -0.2354 38.4283 -0.2337 -0.6696 -0.6653 0.2331 4130.0000 -5.3397 5.3317
-280.0549 -0.2292 40.0337 -0.2516 -0.6630 -0.6586 0.2517 4132.5000 -5.3519 5.3442
-281.8488 -0.2257 41.7504 -0.2756 -0.6530 -0.6488 0.2768 4135.0000 -5.3522 5.3476
-283.4893 -0.2263 43.6082 -0.3038 -0.6398 -0.6359 0.3065 4137.5000 -5.3385 5.3366
-284.9670 -0.2310 45.6075 -0.3290 -0.6266 -0.6231 0.3329 4140.0000 -5.3206 5.3189
-286.2948 -0.2392 47.7238 -0.3504 -0.6143 -0.6112 0.3553 4142.5000 -5.3041 5.3015
-287.4862 -0.2501 49.9319 -0.3684 -0.6032 -0.6005 0.3740 4145.0000 -5.2913 5.2882
-288.5548 -0.2630 52.2065 -0.3833 -0.5934 -0.5910 0.3894 4147.5000 -5.2824 5.2802
-289.5141 -0.2771 54.5237 -0.3959 -0.5847 -0.5826 0.4024 4150.0000 -5.2766 5.2772
-290.3746 -0.2922 56.8724 -0.4072 -0.5767 -0.5748 0.4139 4152.5000 -5.2771 5.2797
-291.1457 -0.3079 59.2487 -0.4172 -0.5692 -0.5675 0.4241 4155.0000 -5.2900 5.2929
-291.8366 -0.3240 61.6484 -0.4261 -0.5625 -0.5609 0.4331 4157.5000 -5.3205 5.3222
-292.4566 -0.3402 64.0676 -0.4337 -0.5565 -0.5550 0.4407 4160.0000 -5.3736 5.3732
-293.0150 -0.3564 66.5024 -0.4402 -0.5513 -0.5498 0.4472 4162.5000 -5.4516 5.4493
-293.5212 -0.3725 68.9496 -0.4455 -0.5469 -0.5455 0.4526 4165.0000 -5.5459 5.5433
-293.9848 -0.3885 71.4065 -0.4498 -0.5434 -0.5420 0.4568 4167.5000 -5.6447 5.6438
-294.4152 -0.4044 73.8703 -0.4529 -0.5408 -0.5394 0.4599 4170.0000 -5.7363 5.7386
-294.8219 -0.4201 76.3382 -0.4550 -0.5390 -0.5376 0.4620 4172.5000 -5.8094 5.8146
-295.2127 -0.4357 78.8080 -0.4565 -0.5377 -0.5363 0.4635 4175.0000 -5.8570 5.8629
-295.5907 -0.4512 81.2793 -0.4578 -0.5366 -0.5352 0.4648 4177.5000 -5.8826 5.8874
-295.9577 -0.4667 83.7519 -0.4589 -0.5357 -0.5343 0.4658 4180.0000 -5.8917 5.8944
-296.3160 -0.4821 86.2257 -0.4597 -0.5350 -0.5336 0.4667 4182.5000 -5.8898 5.8901
-296.6674 -0.4977 88.7005 -0.4603 -0.5344 -0.5331 0.4673 4185.0000 -5.8821 5.8808
-297.0136 -0.5131 91.1763 -0.4609 -0.5340 -0.5326 0.4678 4187.5000 -5.8723 5.8703
-297.3554 -0.5281 93.6527 -0.4614 -0.5336 -0.5322 0.4682 4190.0000 -5.8605 5.8585
-297.6935 -0.5424 96.1298 -0.4618 -0.5334 -0.5318 0.4684 4192.5000 -5.8467 5.8450
-298.0285 -0.5554 98.6073 -0.4623 -0.5333 -0.5314 0.4686 4195.0000 -5.8308 5.8293
-298.3612 -0.5670 101.0851 -0.4627 -0.5332 -0.5310 0.4686 4197.5000 -5.8126 5.8112
-298.6919 -0.5773 103.5632 -0.4629 -0.5331 -0.5308 0.4688 4200.0000 -5.7921 5.7904
-299.0206 -0.5876 106.0415 -0.4631 -0.5329 -0.5306 0.4690 4202.5000 -5.7694 5.7673
-299.3474 -0.5987 108.5200 -0.4632 -0.5326 -0.5306 0.4694 4205.0000 -5.7445 5.7419
-299.6722 -0.6118 110.9987 -0.4631 -0.5321 -0.5307 0.4699 4207.5000 -5.7174 5.7144
-299.9951 -0.6279 113.4777 -0.4630 -0.5317 -0.5307 0.4704 4210.0000 -5.6883 5.6850
-300.3159 -0.6464 115.9570 -0.4630 -0.5313 -0.5307 0.4708 4212.5000 -5.6571 5.6539
-300.6344 -0.6657 118.4365 -0.4633 -0.5311 -0.5305 0.4711 4215.0000 -5.6240 5.6211
-300.9506 -0.6846 120.9164 -0.4637 -0.5310 -0.5302 0.4712 4217.5000 -5.5891 5.5866
-301.2642 -0.7014 123.3966 -0.4643 -0.5310 -0.5296 0.4712 4220.0000 -5.5524 5.5506
-301.5751 -0.7150 125.8771 -0.4649 -0.5310 -0.5291 0.4711 4222.5000 -5.5140 5.5131
-301.8841 -0.7260 128.3579 -0.4652 -0.5311 -0.5288 0.4711 4225.0000 -5.4740 5.4739
-302.1918 -0.7357 130.8389 -0.4654 -0.5311 -0.5286 0.4711 4227.5000 -5.4321 5.4327
-302.4991 -0.7453 133.3199 -0.4653 -0.5310 -0.5287 0.4711 4230.0000 -5.3883 5.3895
-302.8069 -0.7561 135.8009 -0.4650 -0.5309 -0.5289 0.4712 4232.5000 -5.3426 5.3440
-303.1159 -0.7689 138.2817 -0.4647 -0.5309 -0.5292 0.4713 4235.0000 -5.2948 5.2961
-303.4261 -0.7834 140.7623 -0.4644 -0.5309 -0.5295 0.4713 4237.5000 -5.2452 5.2461
-303.7377 -0.7988 143.2428 -0.4642 -0.5309 -0.5297 0.4712 4240.0000 -5.1940 5.1943
-304.0508 -0.8146 145.7230 -0.4640 -0.5311 -0.5298 0.4711 4242.5000 -5.1416 5.1411
-304.3653 -0.8301 148.2031 -0.4639 -0.5313 -0.5299 0.4709 4245.0000 -5.0881 5.0869
-304.6807 -0.8449 150.6831 -0.4640 -0.5313 -0.5298 0.4708 4247.5000 -5.0336 5.0319
-304.9948 -0.8592 153.1633 -0.4643 -0.5311 -0.5296 0.4710 4250.0000 -4.9782 4.9761
-305.3053 -0.8731 155.6439 -0.4649 -0.5307 -0.5291 0.4715 4252.5000 -4.9217 4.9196
-305.6100 -0.8868 158.1252 -0.4656 -0.5301 -0.5284 0.4722 4255.0000 -4.8642 4.8623
-305.9067 -0.9004 160.6075 -0.4666 -0.5292 -0.5276 0.4731 4257.5000 -4.8054 4.8041
-306.1948 -0.9140 163.0907 -0.4674 -0.5285 -0.5269 0.4740 4260.0000 -4.7462 4.7454
-306.4757 -0.9277 165.5749 -0.4681 -0.5278 -0.5263 0.4747 4262.5000 -4.6878 4.6875
-306.7507 -0.9417 168.0597 -0.4686 -0.5273 -0.5258 0.4753 4265.0000 -4.6314 4.6315
-307.0211 -0.9559 170.5450 -0.4690 -0.5269 -0.5255 0.4758 4267.5000 -4.5783 4.5787
-307.2882 -0.9705 173.0307 -0.4693 -0.5266 -0.5252 0.4761 4270.0000 -4.5297 4.5303
-307.5522 -0.9855 175.5166 -0.4695 -0.5262 -0.5250 0.4765 4272.5000 -4.4859 4.4867
-307.8130 -1.0008 178.0029 -0.4699 -0.5259 -0.5247 0.4769 4275.0000 -4.4467 4.4479
-308.0703 -1.0164 180.4896 -0.4702 -0.5255 -0.5243 0.4773 4277.5000 -4.4122 4.4135
-308.3236 -1.0322 182.9767 -0.4706 -0.5251 -0.5240 0.4777 4280.0000 -4.3821 4.3836
-308.5730 -1.0482 185.4642 -0.4710 -0.5247 -0.5236 0.4781 4282.5000 -4.3563 4.3578
-308.8192 -1.0643 187.9520 -0.4713 -0.5245 -0.5234 0.4784 4285.0000 -4.3339 4.3353
-309.0637 -1.0803 190.4399 -0.4714 -0.5244 -0.5233 0.4785 4287.5000 -4.3136 4.3150
-309.3075 -1.0962 192.9279 -0.4714 -0.5244 -0.5233 0.4785 4290.0000 -4.2943 4.2957
