VERSION 0.7
FIELDS x y z arclength speed lapdistance
SIZE 4 4 4 4 4 4
TYPE F F F F F F
COUNT 1 1 1 1 1 1
WIDTH 865
HEIGHT 1
VIEWPOINT 0.000 0.000 0.000 1.000 0.000 0.000 0.000
POINTS 865
DATA ascii
-121.2462 91.7389 -34.2965 2314.9939 36.1951 2314.9963
-121.3485 91.7506 -35.7933 2316.4944 36.9007 2316.4968
-121.4181 91.7635 -37.2919 2317.9946 37.5844 2317.9971
-121.4564 91.7782 -38.7916 2319.4949 38.2475 2319.4973
-121.4629 91.7951 -40.2918 2320.9954 38.8913 2320.9978
-121.4369 91.8145 -41.7917 2322.4956 39.5171 2322.4980
-121.3796 91.8364 -43.2907 2323.9958 40.1258 2323.9983
-121.2935 91.8608 -44.7883 2325.4963 40.7184 2325.4985
-121.1817 91.8870 -46.2842 2326.9966 41.2959 2326.9988
-121.0459 91.9141 -47.7781 2328.4968 41.8590 2328.4990
-120.8859 91.9412 -49.2696 2329.9971 42.4084 2329.9995
-120.7010 91.9676 -50.7583 2331.4976 42.9448 2331.5000
-120.4932 91.9931 -52.2439 2332.9978 43.4688 2333.0002
-120.2676 92.0178 -53.7270 2334.4980 43.9811 2334.5005
-120.0309 92.0424 -55.2084 2335.9985 44.4820 2336.0010
-119.7895 92.0674 -56.6889 2337.4988 44.9722 2337.5012
-119.5482 92.0931 -58.1696 2338.9990 45.4521 2339.0015
-119.3102 92.1198 -59.6507 2340.4995 45.9221 2340.5020
-119.0760 92.1477 -61.1323 2341.9998 46.3826 2342.0022
-118.8448 92.1767 -62.6144 2343.5000 46.8340 2343.5024
-118.6155 92.2066 -64.0968 2345.0005 47.2767 2345.0029
-118.3871 92.2375 -65.5792 2346.5007 47.7109 2346.5032
-118.1588 92.2691 -67.0619 2348.0010 48.1370 2348.0034
-117.9305 92.3015 -68.5444 2349.5012 48.5552 2349.5037
-117.7023 92.3345 -70.0268 2351.0017 48.9659 2351.0042
-117.4743 92.3684 -71.5094 2352.5020 49.3693 2352.5044
-117.2468 92.4030 -72.9920 2354.0022 49.7657 2354.0049
-117.0197 92.4384 -74.4746 2355.5027 50.1552 2355.5054
-116.7929 92.4745 -75.9574 2357.0029 50.5381 2357.0056
-116.5659 92.5115 -77.4400 2358.5032 50.9147 2358.5059
-116.3380 92.5494 -78.9223 2360.0037 51.2851 2360.0063
-116.1084 92.5879 -80.4044 2361.5039 51.6494 2361.5063
-115.8770 92.6269 -81.8862 2363.0042 52.0080 2363.0066
-115.6438 92.6665 -83.3677 2364.5046 52.3609 2364.5071
-115.4095 92.7067 -84.8490 2366.0049 52.7083 2366.0073
-115.1745 92.7476 -86.3302 2367.5051 53.0504 2367.5076
-114.9393 92.7890 -87.8113 2369.0056 53.3873 2369.0078
-114.7042 92.8310 -89.2925 2370.5059 53.7191 2370.5081
-114.4694 92.8736 -90.7737 2372.0061 54.0461 2372.0083
-114.2349 92.9168 -92.2550 2373.5063 54.3683 2373.5085
-114.0009 92.9605 -93.7364 2375.0068 54.6858 2375.0090
-113.7673 93.0049 -95.2177 2376.5071 54.9989 2376.5095
-113.5344 93.0501 -96.6991 2378.0073 55.3075 2378.0095
-113.3020 93.0963 -98.1805 2379.5078 55.6118 2379.5100
-113.0702 93.1437 -99.6620 2381.0081 55.9119 2381.0103
-112.8389 93.1923 -101.1437 2382.5083 56.2080 2382.5105
-112.6081 93.2421 -102.6254 2384.0088 56.5000 2384.0110
-112.3775 93.2931 -104.1069 2385.5090 56.7881 2385.5112
-112.1470 93.3450 -105.5884 2387.0093 57.0724 2387.0115
-111.9165 93.3975 -107.0700 2388.5098 57.3530 2388.5120
-111.6857 93.4504 -108.5515 2390.0100 57.6300 2390.0122
-111.4548 93.5033 -110.0330 2391.5103 57.9034 2391.5125
-111.2237 93.5561 -111.5145 2393.0107 58.1734 2393.0129
-110.9925 93.6088 -112.9959 2394.5110 58.4399 2394.5132
-110.7613 93.6612 -114.4773 2396.0112 58.7031 2396.0132
-110.5303 93.7137 -115.9588 2397.5115 58.9631 2397.5134
-110.2995 93.7661 -117.4403 2399.0120 59.2198 2399.0139
-110.0686 93.8187 -118.9218 2400.5122 59.4735 2400.5142
-109.8374 93.8715 -120.4033 2402.0125 59.7240 2402.0144
-109.6057 93.9245 -121.8846 2403.5129 59.9716 2403.5149
-109.3731 93.9775 -123.3658 2405.0132 60.2163 2405.0151
-109.1392 94.0305 -124.8469 2406.5134 60.4581 2406.5154
-108.9035 94.0831 -126.3277 2408.0139 60.6970 2408.0159
-108.6655 94.1353 -127.8081 2409.5142 60.9332 2409.5161
-108.4247 94.1867 -129.2880 2411.0144 61.1667 2411.0164
-108.1808 94.2373 -130.7674 2412.5149 61.3975 2412.5168
-107.9335 94.2868 -132.2464 2414.0151 61.6257 2414.0171
-107.6831 94.3356 -133.7248 2415.5154 61.8513 2415.5171
-107.4302 94.3836 -135.2029 2417.0159 62.0745 2417.0176
-107.1754 94.4312 -136.6806 2418.5161 62.2951 2418.5178
-106.9196 94.4785 -138.1582 2420.0164 62.5134 2420.0181
-106.6634 94.5254 -139.6357 2421.5166 62.7292 2421.5183
-106.4071 94.5719 -141.1132 2423.0171 62.9427 2423.0188
-106.1509 94.6179 -142.5908 2424.5173 63.1539 2424.5190
-105.8951 94.6632 -144.0683 2426.0176 63.3629 2426.0193
-105.6393 94.7076 -145.5461 2427.5181 63.5696 2427.5198
-105.3833 94.7508 -147.0239 2429.0183 63.7742 2429.0200
-105.1266 94.7922 -148.5015 2430.5186 63.9766 2430.5203
-104.8689 94.8319 -149.9790 2432.0190 64.1769 2432.0208
-104.6098 94.8704 -151.4562 2433.5193 64.3751 2433.5210
-104.3498 94.9086 -152.9334 2435.0195 64.5713 2435.0212
-104.0891 94.9475 -154.4104 2436.5200 64.7655 2436.5217
-103.8281 94.9877 -155.8874 2438.0203 64.9577 2438.0222
-103.5668 95.0289 -157.3642 2439.5205 65.1480 2439.5225
-103.3052 95.0702 -158.8409 2441.0208 65.3363 2441.0227
-103.0433 95.1110 -160.3177 2442.5212 65.5228 2442.5232
-102.7812 95.1509 -161.7945 2444.0215 65.7074 2444.0234
-102.5190 95.1900 -163.2712 2445.5217 65.8902 2445.5237
-102.2572 95.2283 -164.7480 2447.0222 66.0712 2447.0242
-101.9959 95.2657 -166.2249 2448.5225 66.2504 2448.5244
-101.7358 95.3024 -167.7020 2450.0227 66.4279 2450.0247
-101.4773 95.3384 -169.1796 2451.5232 66.6037 2451.5251
-101.2208 95.3738 -170.6574 2453.0234 66.7777 2453.0254
-100.9663 95.4085 -172.1355 2454.5237 66.9502 2454.5256
-100.7135 95.4424 -173.6140 2456.0242 67.1209 2456.0261
-100.4618 95.4757 -175.0927 2457.5244 67.2901 2457.5266
-100.2108 95.5084 -176.5716 2459.0247 67.4577 2459.0269
-99.9602 95.5405 -178.0505 2460.5251 67.6236 2460.5273
-99.7097 95.5720 -179.5295 2462.0254 67.7881 2462.0276
-99.4592 95.6031 -181.0085 2463.5256 67.9510 2463.5278
-99.2088 95.6338 -182.4874 2465.0259 68.1124 2465.0281
-98.9585 95.6641 -183.9664 2466.5264 68.2724 2466.5286
-98.7086 95.6940 -185.4455 2468.0266 68.4308 2468.0288
-98.4593 95.7235 -186.9247 2469.5269 68.5879 2469.5291
-98.2112 95.7526 -188.4041 2471.0273 68.7434 2471.0295
-97.9645 95.7811 -189.8838 2472.5276 68.8976 2472.5300
-97.7196 95.8092 -191.3636 2474.0278 69.0505 2474.0300
-97.4761 95.8368 -192.8437 2475.5283 69.2019 2475.5305
-97.2333 95.8638 -194.3240 2477.0286 69.3520 2477.0308
-96.9905 95.8903 -195.8043 2478.5288 69.5007 2478.5310
-96.7473 95.9163 -197.2845 2480.0293 69.6482 2480.0315
-96.5032 95.9417 -198.7646 2481.5295 69.7943 2481.5317
-96.2580 95.9668 -200.2444 2483.0298 69.9392 2483.0320
-96.0117 95.9913 -201.7242 2484.5303 70.0828 2484.5322
-95.7641 96.0155 -203.2037 2486.0305 70.2252 2486.0325
-95.5152 96.0393 -204.6830 2487.5308 70.3663 2487.5327
-95.2649 96.0627 -206.1620 2489.0310 70.5062 2489.0330
-95.0128 96.0858 -207.6408 2490.5315 70.6449 2490.5334
-94.7589 96.1086 -209.1193 2492.0317 70.7825 2492.0337
-94.5031 96.1312 -210.5975 2493.5320 70.9188 2493.5339
-94.2451 96.1535 -212.0754 2495.0325 71.0540 2495.0344
-93.9852 96.1756 -213.5529 2496.5327 71.1881 2496.5347
-93.7232 96.1974 -215.0299 2498.0330 71.3210 2498.0349
-93.4592 96.2188 -216.5066 2499.5334 71.4528 2499.5354
-93.1932 96.2398 -217.9830 2501.0337 71.5835 2501.0356
-92.9254 96.2600 -219.4591 2502.5339 71.7132 2502.5359
-92.6562 96.2795 -220.9350 2504.0344 71.8417 2504.0364
-92.3859 96.2981 -222.4107 2505.5347 71.9692 2505.5366
-92.1153 96.3157 -223.8864 2507.0349 72.0956 2507.0369
-91.8447 96.3323 -225.3621 2508.5352 72.2210 2508.5374
-91.5746 96.3479 -226.8378 2510.0356 72.3454 2510.0378
-91.3049 96.3625 -228.3136 2511.5359 72.4688 2511.5381
-91.0357 96.3762 -229.7895 2513.0361 72.5911 2513.0383
-90.7667 96.3891 -231.2655 2514.5366 72.7125 2514.5388
-90.4980 96.4010 -232.7415 2516.0369 72.8329 2516.0388
-90.2294 96.4121 -234.2175 2517.5371 72.9523 2517.5391
-89.9609 96.4224 -235.6935 2519.0376 73.0708 2519.0396
-89.6925 96.4320 -237.1695 2520.5378 73.1883 2520.5398
-89.4245 96.4412 -238.6456 2522.0381 73.3048 2522.0398
-89.1574 96.4500 -240.1220 2523.5386 73.4205 2523.5403
-88.8920 96.4587 -241.5987 2525.0388 73.5352 2525.0408
-88.6288 96.4672 -243.0757 2526.5391 73.6491 2526.5410
-88.3680 96.4755 -244.5532 2528.0396 73.7620 2528.0415
-88.1094 96.4837 -246.0309 2529.5398 73.8741 2529.5417
-87.8527 96.4917 -247.5091 2531.0400 73.9852 2531.0420
-87.5983 96.4992 -248.9877 2532.5403 74.0956 2532.5422
-87.3474 96.5062 -250.4669 2534.0408 74.2050 2534.0427
-87.1011 96.5126 -251.9468 2535.5410 74.3136 2535.5430
-86.8595 96.5181 -253.4275 2537.0413 74.4214 2537.0432
-86.6217 96.5229 -254.9088 2538.5417 74.5283 2538.5437
-86.3861 96.5270 -256.3905 2540.0420 74.6344 2540.0437
-86.1513 96.5303 -257.8723 2541.5422 74.7397 2541.5439
-85.9166 96.5328 -259.3541 2543.0427 74.8442 2543.0444
-85.6817 96.5346 -260.8358 2544.5430 74.9479 2544.5447
-85.4465 96.5356 -262.3175 2546.0432 75.0508 2546.0447
-85.2111 96.5359 -263.7992 2547.5437 75.1530 2547.5452
-84.9755 96.5354 -265.2808 2549.0439 75.2543 2549.0454
-84.7399 96.5341 -266.7624 2550.5442 75.3549 2550.5457
-84.5045 96.5321 -268.2441 2552.0447 75.4548 2552.0459
-84.2698 96.5295 -269.7259 2553.5449 75.5539 2553.5461
-84.0361 96.5263 -271.2079 2555.0452 75.6522 2555.0464
-83.8039 96.5226 -272.6901 2556.5454 75.7499 2556.5466
-83.5736 96.5183 -274.1726 2558.0459 75.8467 2558.0471
-83.3451 96.5135 -275.6555 2559.5461 75.9429 2559.5474
-83.1178 96.5082 -277.1385 2561.0464 76.0384 2561.0476
-82.8911 96.5025 -278.6216 2562.5469 76.1332 2562.5481
-82.6645 96.4964 -280.1048 2564.0471 76.2272 2564.0486
-82.4376 96.4899 -281.5880 2565.5474 76.3206 2565.5488
-82.2106 96.4830 -283.0710 2567.0479 76.4133 2567.0493
-81.9833 96.4757 -284.5539 2568.5481 76.5053 2568.5496
-81.7555 96.4679 -286.0369 2570.0483 76.5900 2570.0498
-81.5274 96.4595 -287.5198 2571.5488 75.8463 2571.5503
-81.2990 96.4505 -289.0026 2573.0491 75.0977 2573.0508
-81.0704 96.4409 -290.4853 2574.5493 74.3440 2574.5508
-80.8417 96.4305 -291.9680 2576.0498 73.5851 2576.0513
-80.6129 96.4194 -293.4507 2577.5500 72.8209 2577.5513
-80.3842 96.4075 -294.9334 2579.0503 72.0512 2579.0515
-80.1556 96.3949 -296.4161 2580.5505 71.2759 2580.5518
-79.9277 96.3816 -297.8990 2582.0510 70.4947 2582.0522
-79.7010 96.3676 -299.3820 2583.5513 69.7076 2583.5525
-79.4764 96.3529 -300.8653 2585.0515 68.9142 2585.0527
-79.2547 96.3376 -302.3491 2586.5520 68.1145 2586.5532
-79.0362 96.3216 -303.8334 2588.0522 67.3083 2588.0537
-78.8209 96.3050 -305.3182 2589.5525 66.4953 2589.5540
-78.6083 96.2878 -306.8033 2591.0530 65.6752 2591.0544
-78.3977 96.2700 -308.2887 2592.5532 64.8479 2592.5547
-78.1886 96.2517 -309.7742 2594.0535 64.0131 2594.0549
-77.9807 96.2329 -311.2600 2595.5540 63.1705 2595.5554
-77.7738 96.2135 -312.7459 2597.0542 62.3199 2597.0557
-77.5682 96.1937 -314.2321 2598.5544 61.4609 2598.5562
-77.3637 96.1735 -315.7183 2600.0547 60.5933 2600.0564
-77.1606 96.1528 -317.2045 2601.5552 59.7166 2601.5569
-76.9589 96.1317 -318.6911 2603.0554 58.8305 2603.0571
-76.7593 96.1100 -320.1780 2604.5557 57.9347 2604.5574
-76.5632 96.0878 -321.6652 2606.0562 57.0287 2606.0579
-76.3733 96.0646 -323.1533 2607.5564 56.1120 2607.5581
-76.1929 96.0403 -324.6426 2609.0566 55.1842 2609.0583
-76.0252 96.0150 -326.1333 2610.5571 54.2447 2610.5588
-75.8729 95.9888 -327.6255 2612.0574 53.2931 2612.0591
-75.7386 95.9623 -329.1196 2613.5576 52.3286 2613.5593
-75.6251 95.9356 -330.6155 2615.0581 51.3506 2615.0598
-75.5357 95.9086 -332.1130 2616.5583 50.3584 2616.5603
-75.4727 95.8814 -333.6117 2618.0586 50.0314 2618.0605
-75.4366 95.8540 -335.1114 2619.5591 50.4164 2619.5610
-75.4262 95.8263 -336.6114 2621.0593 50.5399 2621.0613
-75.4396 95.7982 -338.1113 2622.5596 49.5355 2622.5615
-75.4741 95.7697 -339.6110 2624.0598 48.5155 2624.0618
-75.5282 95.7409 -341.1100 2625.5603 47.4788 2625.5623
-75.6026 95.7116 -342.6082 2627.0605 46.4245 2627.0625
-75.7010 95.6819 -344.1050 2628.5608 45.3515 2628.5627
-75.8276 95.6518 -345.5997 2630.0613 44.2671 2630.0632
-75.9860 95.6212 -347.0913 2631.5615 43.1767 2631.5635
-76.1783 95.5903 -348.5788 2633.0618 42.6107 2633.0637
-76.4052 95.5587 -350.0614 2634.5623 42.7361 2634.5640
-76.6664 95.5264 -351.5385 2636.0625 43.2649 2636.0642
-76.9610 95.4932 -353.0092 2637.5627 43.7817 2637.5647
-77.2874 95.4593 -354.4732 2639.0632 44.2870 2639.0649
-77.6432 95.4248 -355.9302 2640.5635 44.7814 2640.5652
-78.0253 95.3896 -357.3806 2642.0637 45.2653 2642.0654
-78.4311 95.3535 -358.8246 2643.5642 45.7391 2643.5659
-78.8579 95.3164 -360.2623 2645.0645 46.2033 2645.0662
-79.3042 95.2780 -361.6942 2646.5647 46.6582 2646.5664
-79.7691 95.2386 -363.1201 2648.0649 47.1042 2648.0667
-80.2527 95.1983 -364.5396 2649.5654 47.5417 2649.5669
-80.7560 95.1572 -365.9523 2651.0657 47.9709 2651.0671
-81.2806 95.1157 -367.3574 2652.5659 47.3592 2652.5674
-81.8289 95.0739 -368.7533 2654.0664 46.3029 2654.0681
-82.4035 95.0319 -370.1385 2655.5667 45.2276 2655.5681
-83.0069 94.9898 -371.5115 2657.0669 44.1426 2657.0686
-83.6403 94.9477 -372.8709 2658.5674 43.9738 2658.5691
-84.3035 94.9057 -374.2159 2660.0676 44.4749 2660.0691
-84.9951 94.8637 -375.5465 2661.5679 44.9653 2661.5693
-85.7132 94.8219 -376.8631 2663.0684 45.4453 2663.0698
-86.4555 94.7801 -378.1662 2664.5686 45.9154 2664.5701
-87.2207 94.7383 -379.4561 2666.0688 46.3761 2666.0703
-88.0077 94.6965 -380.7328 2667.5691 46.8276 2667.5708
-88.8161 94.6547 -381.9961 2669.0696 47.2704 2669.0713
-89.6458 94.6129 -383.2455 2670.5698 47.7047 2670.5715
-90.4967 94.5709 -384.4805 2672.0701 48.1309 2672.0718
-91.3689 94.5288 -385.7006 2673.5706 48.5493 2673.5723
-92.2621 94.4864 -386.9052 2675.0708 48.9601 2675.0725
-93.1758 94.4438 -388.0944 2676.5710 49.3636 2676.5728
-94.1093 94.4009 -389.2682 2678.0715 49.7600 2678.0732
-95.0616 94.3574 -390.4269 2679.5718 50.1496 2679.5737
-96.0316 94.3133 -391.5706 2681.0720 50.5327 2681.0740
-97.0184 94.2687 -392.7000 2682.5725 50.9093 2682.5745
-98.0216 94.2237 -393.8147 2684.0728 51.2798 2684.0750
-99.0413 94.1788 -394.9143 2685.5730 51.6442 2685.5750
-100.0780 94.1344 -395.9979 2687.0735 52.0029 2687.0754
-101.1322 94.0905 -397.0646 2688.5737 52.3558 2688.5759
-102.2038 94.0474 -398.1137 2690.0740 52.7033 2690.0762
-103.2923 94.0049 -399.1454 2691.5742 53.0455 2691.5764
-104.3960 93.9630 -400.1606 2693.0747 53.3825 2693.0767
-105.5125 93.9219 -401.1620 2694.5750 53.7074 2694.5769
-106.6386 93.8819 -402.1527 2696.0752 52.7486 2696.0774
-107.7707 93.8427 -403.1365 2697.5757 51.7765 2697.5779
-108.9057 93.8048 -404.1169 2699.0759 50.7906 2699.0781
-110.0419 93.7681 -405.0959 2700.5762 49.7901 2700.5784
-111.1790 93.7325 -406.0742 2702.0767 48.7741 2702.0789
-112.3178 93.6976 -407.0503 2703.5769 47.7417 2703.5791
-113.4604 93.6631 -408.0218 2705.0771 46.6920 2705.0793
-114.6094 93.6288 -408.9859 2706.5776 45.6238 2706.5796
-115.7664 93.5944 -409.9406 2708.0779 44.5409 2708.0801
-116.9314 93.5600 -410.8855 2709.5781 43.4520 2709.5803
-118.1041 93.5257 -411.8208 2711.0786 42.3568 2711.0808
-119.2831 93.4920 -412.7482 2712.5789 41.2549 2712.5813
-120.4664 93.4591 -413.6699 2714.0791 40.1458 2714.0815
-121.6524 93.4272 -414.5881 2715.5793 39.0292 2715.5818
-122.8406 93.3962 -415.5036 2717.0798 37.9045 2717.0820
-124.0316 93.3657 -416.4156 2718.5801 36.7711 2718.5823
-125.2262 93.3351 -417.3228 2720.0803 35.6285 2720.0825
-126.4251 93.3042 -418.2244 2721.5808 34.4760 2721.5830
-127.6278 93.2732 -419.1208 2723.0811 33.3127 2723.0835
-128.8333 93.2423 -420.0134 2724.5813 32.1378 2724.5837
-130.0409 93.2119 -420.9032 2726.0818 30.9502 2726.0842
-131.2505 93.1821 -421.7904 2727.5820 29.7489 2727.5845
-132.4625 93.1532 -422.6742 2729.0823 28.5325 2729.0847
-133.6786 93.1253 -423.5523 2730.5828 27.2994 2730.5852
-134.9014 93.0988 -424.4213 2732.0830 26.0478 2732.0854
-136.1343 93.0739 -425.2759 2733.5833 24.7756 2733.5857
-137.3826 93.0505 -426.1078 2735.0837 23.4800 2735.0862
-138.6530 93.0285 -426.9055 2736.5840 22.1580 2736.5864
-139.9534 93.0081 -427.6532 2738.0842 20.8055 2738.0867
-141.2922 92.9896 -428.3297 2739.5845 19.4175 2739.5869
-142.6760 92.9738 -428.9079 2741.0850 17.9875 2741.0874
-144.1059 92.9613 -429.3600 2742.5852 16.5163 2742.5876
-145.5751 92.9519 -429.6591 2744.0854 15.4341 2744.0876
-147.0695 92.9443 -429.7807 2745.5859 14.8417 2745.5881
-148.5674 92.9384 -429.7101 2747.0862 13.6382 2747.0884
-150.0391 92.9352 -429.4318 2748.5864 11.7145 2748.5889
-151.4260 92.9345 -428.8653 2750.0869 9.4447 2750.0889
-152.5837 92.9333 -427.9255 2751.5872 10.1523 2751.5889
-153.4657 92.9304 -426.7109 2753.0874 12.4647 2753.0894
-154.1581 92.9267 -425.3826 2754.5879 14.4090 2754.5898
-154.7339 92.9222 -423.9978 2756.0881 16.1193 2756.0901
-155.2291 92.9153 -422.5807 2757.5884 17.6637 2757.5903
-155.6596 92.9046 -421.1441 2759.0886 19.0827 2759.0906
-156.0332 92.8896 -419.6913 2760.5891 20.4025 2760.5911
-156.3562 92.8710 -418.2262 2762.0894 21.6414 2762.0913
-156.6393 92.8516 -416.7530 2763.5896 22.8125 2763.5916
-156.8959 92.8339 -415.2750 2765.0901 23.9258 2765.0920
-157.1356 92.8191 -413.7941 2766.5903 24.9892 2766.5923
-157.3614 92.8071 -412.3109 2768.0906 26.0086 2768.0925
-157.5761 92.7976 -410.8260 2769.5911 26.9892 2769.5928
-157.7851 92.7900 -409.3404 2771.0913 27.9350 2771.0930
-157.9930 92.7837 -407.8546 2772.5916 28.8495 2772.5933
-158.2013 92.7784 -406.3688 2774.0920 29.7356 2774.0938
-158.4096 92.7738 -404.8831 2775.5923 30.5957 2775.5940
-158.6168 92.7697 -403.3970 2777.0925 31.4320 2777.0945
-158.8221 92.7663 -401.9107 2778.5930 32.2464 2778.5950
-159.0253 92.7635 -400.4242 2780.0933 33.0404 2780.0952
-159.2265 92.7614 -398.9374 2781.5935 33.8155 2781.5955
-159.4263 92.7604 -397.4503 2783.0938 34.5731 2783.0959
-159.6256 92.7605 -395.9634 2784.5942 35.3141 2784.5962
-159.8251 92.7618 -394.4765 2786.0945 36.0397 2786.0964
-160.0260 92.7644 -392.9897 2787.5947 36.7503 2787.5967
-160.2291 92.7682 -391.5032 2789.0952 37.4386 2789.0972
-160.4354 92.7732 -390.0172 2790.5955 38.1060 2790.5972
-160.6453 92.7790 -388.5317 2792.0957 38.7539 2792.0974
-160.8586 92.7855 -387.0467 2793.5962 39.3834 2793.5979
-161.0743 92.7926 -385.5619 2795.0964 39.9958 2795.0981
-161.2914 92.8000 -384.0773 2796.5967 40.5918 2796.5986
-161.5092 92.8079 -382.5929 2798.0972 41.1725 2798.0991
-161.7276 92.8163 -381.1086 2799.5974 41.7386 2799.5994
-161.9469 92.8250 -379.6244 2801.0977 42.2909 2801.0996
-162.1673 92.8342 -378.1404 2802.5981 42.8301 2802.6001
-162.3887 92.8437 -376.6566 2804.0984 43.3567 2804.1001
-162.6108 92.8534 -375.1729 2805.5986 43.8715 2805.6003
-162.8333 92.8633 -373.6891 2807.0989 44.3748 2807.1006
-163.0557 92.8732 -372.2055 2808.5994 44.8673 2808.6011
-163.2782 92.8832 -370.7218 2810.0996 45.3494 2810.1013
-163.5006 92.8931 -369.2382 2811.5999 45.8215 2811.6016
-163.7229 92.9030 -367.7545 2813.1003 46.2840 2813.1021
-163.9452 92.9128 -366.2707 2814.6006 46.7374 2814.6023
-164.1675 92.9224 -364.7870 2816.1008 47.1818 2816.1025
-164.3898 92.9319 -363.3033 2817.6013 47.6178 2817.6030
-164.6122 92.9411 -361.8194 2819.1016 48.0457 2819.1033
-164.8346 92.9501 -360.3358 2820.6018 48.4656 2820.6035
-165.0570 92.9587 -358.8521 2822.1023 48.8779 2822.1040
-165.2793 92.9671 -357.3683 2823.6025 49.2828 2823.6042
-165.5018 92.9751 -355.8846 2825.1028 49.6807 2825.1045
-165.7243 92.9826 -354.4008 2826.6030 50.0717 2826.6050
-165.9470 92.9898 -352.9171 2828.1035 50.4560 2828.1055
-166.1701 92.9966 -351.4333 2829.6038 50.8339 2829.6057
-166.3937 93.0030 -349.9497 2831.1040 51.2056 2831.1062
-166.6179 93.0089 -348.4663 2832.6045 51.5713 2832.6064
-166.8425 93.0142 -346.9830 2834.1047 51.9311 2834.1067
-167.0666 93.0187 -345.4995 2835.6050 52.2852 2835.6069
-167.2887 93.0221 -344.0158 2837.1055 52.6337 2837.1074
-167.5075 93.0244 -342.5316 2838.6057 52.9770 2838.6074
-167.7220 93.0259 -341.0468 2840.1060 53.3150 2840.1077
-167.9320 93.0272 -339.5613 2841.6064 53.6479 2841.6082
-168.1381 93.0288 -338.0752 2843.1067 53.9759 2843.1084
-168.3411 93.0311 -336.5887 2844.6069 54.2991 2844.6084
-168.5418 93.0335 -335.1020 2846.1074 54.6177 2846.1089
-168.7411 93.0356 -333.6150 2847.6077 54.9317 2847.6091
-168.9393 93.0373 -332.1277 2849.1079 55.2412 2849.1094
-169.1369 93.0385 -330.6404 2850.6082 55.5465 2850.6099
-169.3338 93.0394 -329.1531 2852.1086 55.8475 2852.1104
-169.5299 93.0402 -327.6657 2853.6089 56.1444 2853.6106
-169.7249 93.0407 -326.1781 2855.1091 56.4373 2855.1106
-169.9187 93.0411 -324.6903 2856.6096 56.7262 2856.6113
-170.1112 93.0412 -323.2022 2858.1099 57.0114 2858.1116
-170.3022 93.0411 -321.7141 2859.6101 57.2928 2859.6118
-170.4919 93.0407 -320.2258 2861.1106 57.5705 2861.1123
-170.6801 93.0402 -318.7373 2862.6108 57.8447 2862.6125
-170.8671 93.0395 -317.2487 2864.1111 58.1154 2864.1128
-171.0527 93.0387 -315.7599 2865.6116 58.3826 2865.6133
-171.2371 93.0380 -314.2710 2867.1118 58.6466 2867.1135
-171.4203 93.0373 -312.7820 2868.6121 58.9072 2868.6138
-171.6023 93.0368 -311.2928 2870.1125 59.1647 2870.1143
-171.7832 93.0364 -309.8033 2871.6128 59.4190 2871.6145
-171.9631 93.0362 -308.3138 2873.1130 59.6702 2873.1147
-172.1418 93.0361 -306.8243 2874.6133 59.9184 2874.6150
-172.3196 93.0363 -305.3346 2876.1138 60.1637 2876.1152
-172.4964 93.0366 -303.8448 2877.6140 60.4061 2877.6155
-172.6724 93.0371 -302.3548 2879.1143 60.6457 2879.1157
-172.8475 93.0379 -300.8647 2880.6147 60.8825 2880.6162
-173.0214 93.0388 -299.3745 2882.1150 61.1165 2882.1165
-173.1933 93.0398 -297.8840 2883.6152 61.3479 2883.6169
-173.3620 93.0410 -296.3932 2885.1157 61.5767 2885.1174
-173.5259 93.0420 -294.9019 2886.6160 61.8028 2886.6174
-173.6833 93.0429 -293.4099 2888.1162 62.0265 2888.1179
-173.8332 93.0436 -291.9170 2889.6167 62.2477 2889.6184
-173.9753 93.0441 -290.4234 2891.1169 62.4665 2891.1187
-174.1100 93.0444 -288.9292 2892.6172 62.6828 2892.6187
-174.2381 93.0444 -287.4344 2894.1177 62.8968 2894.1191
-174.3604 93.0443 -285.9391 2895.6179 63.1085 2895.6194
-174.4771 93.0440 -284.4434 2897.1182 63.3180 2897.1196
-174.5881 93.0434 -282.9472 2898.6184 63.5252 2898.6199
-174.6927 93.0424 -281.4505 2900.1189 63.7302 2900.1204
-174.7904 93.0410 -279.9533 2901.6191 63.9331 2901.6206
-174.8807 93.0391 -278.4556 2903.1194 64.1338 2903.1211
-174.9645 93.0371 -276.9577 2904.6199 64.3325 2904.6213
-175.0434 93.0352 -275.4595 2906.1201 64.5291 2906.1218
-175.1188 93.0336 -273.9610 2907.6204 64.7237 2907.6221
-175.1919 93.0324 -272.4624 2909.1208 64.9164 2909.1226
-175.2635 93.0317 -270.9638 2910.6211 65.1070 2910.6228
-175.3339 93.0314 -269.4651 2912.1213 65.2958 2912.1230
-175.4034 93.0315 -267.9663 2913.6218 65.4827 2913.6235
-175.4723 93.0320 -266.4677 2915.1221 65.6677 2915.1238
-175.5410 93.0326 -264.9689 2916.6223 65.8509 2916.6240
-175.6096 93.0332 -263.4702 2918.1226 66.0323 2918.1243
-175.6782 93.0336 -261.9714 2919.6230 66.2119 2919.6248
-175.7468 93.0337 -260.4726 2921.1233 66.3897 2921.1250
-175.8155 93.0333 -258.9738 2922.6235 66.5659 2922.6252
-175.8842 93.0325 -257.4750 2924.1240 66.7403 2924.1257
-175.9530 93.0313 -255.9762 2925.6243 66.9131 2925.6262
-176.0219 93.0298 -254.4774 2927.1245 67.0842 2927.1265
-176.0910 93.0281 -252.9787 2928.6250 67.2537 2928.6270
-176.1604 93.0263 -251.4801 2930.1252 67.4216 2930.1272
-176.2299 93.0244 -249.9814 2931.6255 67.5880 2931.6274
-176.2995 93.0224 -248.4826 2933.1260 67.7527 2933.1279
-176.3690 93.0205 -246.9839 2934.6262 67.9160 2934.6282
-176.4384 93.0187 -245.4853 2936.1265 68.0777 2936.1284
-176.5076 93.0170 -243.9866 2937.6270 68.2380 2937.6284
-176.5766 93.0155 -242.4879 2939.1272 68.3967 2939.1289
-176.6453 93.0143 -240.9891 2940.6274 68.5541 2940.6294
-176.7138 93.0134 -239.4903 2942.1277 68.7100 2942.1296
-176.7818 93.0129 -237.9916 2943.6282 68.8645 2943.6299
-176.8496 93.0126 -236.4928 2945.1284 69.0176 2945.1301
-176.9171 93.0126 -234.9940 2946.6287 69.1693 2946.6304
-176.9842 93.0129 -233.4952 2948.1292 69.3197 2948.1309
-177.0511 93.0132 -231.9964 2949.6294 69.4687 2949.6311
-177.1178 93.0136 -230.4976 2951.1296 69.6165 2951.1313
-177.1843 93.0140 -228.9987 2952.6301 69.7629 2952.6318
-177.2506 93.0144 -227.4999 2954.1304 69.9081 2954.1321
-177.3167 93.0148 -226.0010 2955.6306 70.0519 2955.6323
-177.3826 93.0152 -224.5022 2957.1311 70.1946 2957.1328
-177.4483 93.0156 -223.0033 2958.6313 70.3360 2958.6331
-177.5138 93.0159 -221.5044 2960.1316 70.4761 2960.1333
-177.5790 93.0162 -220.0055 2961.6321 70.6151 2961.6338
-177.6440 93.0164 -218.5066 2963.1323 70.7529 2963.1340
-177.7088 93.0166 -217.0077 2964.6326 70.8895 2964.6343
-177.7734 93.0167 -215.5087 2966.1328 71.0249 2966.1345
-177.8377 93.0167 -214.0098 2967.6333 71.1592 2967.6350
-177.9019 93.0165 -212.5109 2969.1335 71.2924 2969.1353
-177.9661 93.0161 -211.0120 2970.6338 71.4245 2970.6355
-178.0301 93.0155 -209.5130 2972.1343 71.5554 2972.1360
-178.0942 93.0147 -208.0141 2973.6345 71.6853 2973.6362
-178.1582 93.0135 -206.5151 2975.1348 71.8140 2975.1365
-178.2221 93.0122 -205.0161 2976.6353 71.9418 2976.6370
-178.2859 93.0107 -203.5172 2978.1355 72.0684 2978.1372
-178.3496 93.0093 -202.0182 2979.6357 72.1940 2979.6375
-178.4133 93.0079 -200.5193 2981.1362 72.3186 2981.1379
-178.4768 93.0068 -199.0203 2982.6365 72.4422 2982.6382
-178.5402 93.0061 -197.5213 2984.1367 72.5648 2984.1384
-178.6035 93.0057 -196.0224 2985.6370 72.6864 2985.6387
-178.6668 93.0056 -194.5234 2987.1375 72.8070 2987.1389
-178.7300 93.0057 -193.0244 2988.6377 72.9266 2988.6392
-178.7933 93.0061 -191.5254 2990.1379 73.0453 2990.1394
-178.8567 93.0065 -190.0264 2991.6384 73.1630 2991.6399
-178.9202 93.0069 -188.5275 2993.1387 73.2798 2993.1401
-178.9839 93.0072 -187.0285 2994.6389 73.3956 2994.6404
-179.0476 93.0074 -185.5295 2996.1394 73.5106 2996.1409
-179.1115 93.0074 -184.0306 2997.6396 73.6246 2997.6411
-179.1754 93.0074 -182.5316 2999.1399 73.7377 2999.1414
-179.2393 93.0073 -181.0327 3000.6404 73.8500 3000.6418
-179.3031 93.0071 -179.5337 3002.1406 73.9613 3002.1421
-179.3670 93.0071 -178.0347 3003.6409 74.0718 3003.6423
-179.4307 93.0070 -176.5358 3005.1414 74.1814 3005.1428
-179.4944 93.0070 -175.0368 3006.6416 74.2902 3006.6431
-179.5579 93.0071 -173.5378 3008.1418 74.3982 3008.1433
-179.6214 93.0073 -172.0388 3009.6421 74.5053 3009.6436
-179.6848 93.0074 -170.5399 3011.1426 74.6116 3011.1440
-179.7482 93.0075 -169.0409 3012.6428 74.7171 3012.6443
-179.8114 93.0076 -167.5419 3014.1431 74.8217 3014.1445
-179.8746 93.0077 -166.0429 3015.6436 74.9256 3015.6450
-179.9378 93.0077 -164.5439 3017.1438 75.0287 3017.1453
-180.0009 93.0076 -163.0449 3018.6440 75.1310 3018.6455
-180.0639 93.0075 -161.5459 3020.1445 75.2325 3020.1460
-180.1268 93.0075 -160.0469 3021.6448 75.3333 3021.6462
-180.1897 93.0074 -158.5479 3023.1450 75.4333 3023.1465
-180.2526 93.0074 -157.0489 3024.6455 75.5325 3024.6470
-180.3154 93.0075 -155.5499 3026.1458 75.6311 3026.1472
-180.3783 93.0076 -154.0509 3027.6460 75.7288 3027.6477
-180.4411 93.0078 -152.5519 3029.1465 75.8259 3029.1482
-180.5040 93.0080 -151.0529 3030.6467 75.9222 3030.6484
-180.5669 93.0083 -149.5539 3032.1470 76.0178 3032.1487
-180.6297 93.0086 -148.0549 3033.6472 76.1128 3033.6489
-180.6926 93.0090 -146.5559 3035.1477 76.2070 3035.1494
-180.7554 93.0095 -145.0569 3036.6479 76.3005 3036.6494
-180.8182 93.0099 -143.5579 3038.1482 76.3933 3038.1497
-180.8810 93.0104 -142.0589 3039.6487 76.4855 3039.6501
-180.9438 93.0109 -140.5600 3041.1489 76.5770 3041.1504
-181.0065 93.0113 -139.0610 3042.6492 76.6678 3042.6506
-181.0691 93.0116 -137.5620 3044.1497 76.7580 3044.1511
-181.1317 93.0118 -136.0630 3045.6499 76.8475 3045.6514
-181.1943 93.0120 -134.5640 3047.1501 76.9363 3047.1516
-181.2568 93.0121 -133.0650 3048.6506 77.0245 3048.6521
-181.3192 93.0122 -131.5660 3050.1509 77.1121 3050.1523
-181.3816 93.0122 -130.0670 3051.6511 77.1991 3051.6526
-181.4439 93.0122 -128.5680 3053.1516 77.2854 3053.1528
-181.5062 93.0121 -127.0690 3054.6519 77.3711 3054.6531
-181.5685 93.0121 -125.5700 3056.1521 77.4563 3056.1533
-181.6306 93.0121 -124.0710 3057.6523 77.5408 3057.6536
-181.6927 93.0121 -122.5720 3059.1528 77.6247 3059.1541
-181.7548 93.0121 -121.0729 3060.6531 77.7080 3060.6543
-181.8167 93.0121 -119.5739 3062.1533 77.7907 3062.1545
-181.8786 93.0122 -118.0749 3063.6538 77.8728 3063.6550
-181.9404 93.0122 -116.5759 3065.1541 77.9544 3065.1553
-182.0022 93.0123 -115.0768 3066.6543 78.0354 3066.6555
-182.0639 93.0124 -113.5778 3068.1548 78.1158 3068.1560
-182.1255 93.0125 -112.0788 3069.6550 78.1956 3069.6562
-182.1872 93.0126 -110.5797 3071.1553 78.2749 3071.1565
-182.2488 93.0126 -109.0807 3072.6558 78.3537 3072.6567
-182.3104 93.0127 -107.5817 3074.1560 78.4319 3074.1570
-182.3720 93.0127 -106.0826 3075.6562 78.5096 3075.6572
-182.4336 93.0128 -104.5836 3077.1565 78.5867 3077.1575
-182.4951 93.0128 -103.0846 3078.6570 78.6633 3078.6580
-182.5566 93.0127 -101.5855 3080.1572 78.7393 3080.1582
-182.6181 93.0127 -100.0865 3081.6575 78.8148 3081.6584
-182.6796 93.0126 -98.5874 3083.1580 78.8899 3083.1589
-182.7410 93.0124 -97.0884 3084.6582 78.9644 3084.6592
-182.8024 93.0123 -95.5894 3086.1584 79.0384 3086.1594
-182.8638 93.0121 -94.0903 3087.6589 79.1119 3087.6599
-182.9251 93.0118 -92.5913 3089.1592 79.1848 3089.1602
-182.9864 93.0115 -91.0922 3090.6594 79.2573 3090.6604
-183.0476 93.0111 -89.5931 3092.1599 79.3293 3092.1609
-183.1089 93.0105 -88.0940 3093.6602 79.4008 3093.6611
-183.1701 93.0096 -86.5949 3095.1604 79.4719 3095.1614
-183.2313 93.0085 -85.0959 3096.6609 79.5424 3096.6619
-183.2924 93.0069 -83.5968 3098.1611 79.6125 3098.1621
-183.3536 93.0048 -82.0977 3099.6614 79.6821 3099.6624
-183.4147 93.0024 -80.5987 3101.1616 79.7512 3101.1626
-183.4758 92.9996 -79.0996 3102.6621 79.8199 3102.6631
-183.5369 92.9969 -77.6005 3104.1624 79.8881 3104.1633
-183.5980 92.9943 -76.1014 3105.6626 79.9558 3105.6636
-183.6591 92.9922 -74.6023 3107.1631 80.0231 3107.1641
-183.7203 92.9909 -73.1033 3108.6633 80.0900 3108.6643
-183.7815 92.9904 -71.6042 3110.1636 80.1564 3110.1646
-183.8427 92.9910 -70.1052 3111.6641 80.2224 3111.6650
-183.9039 92.9925 -68.6061 3113.1643 80.2879 3113.1653
-183.9650 92.9946 -67.1070 3114.6646 80.3530 3114.6655
-184.0260 92.9972 -65.6079 3116.1650 80.4176 3116.1660
-184.0868 92.9999 -64.1088 3117.6653 80.4819 3117.6663
-184.1475 93.0025 -62.6098 3119.1655 80.5457 3119.1665
-184.2080 93.0048 -61.1107 3120.6660 80.6091 3120.6670
-184.2683 93.0068 -59.6116 3122.1663 80.6721 3122.1672
-184.3285 93.0084 -58.1125 3123.6665 80.7346 3123.6675
-184.3886 93.0097 -56.6134 3125.1667 80.7968 3125.1677
-184.4486 93.0106 -55.1142 3126.6672 80.8585 3126.6682
-184.5085 93.0112 -53.6151 3128.1675 80.9199 3128.1685
-184.5685 93.0114 -52.1160 3129.6677 80.9808 3129.6687
-184.6285 93.0113 -50.6169 3131.1682 81.0414 3131.1692
-184.6885 93.0109 -49.1178 3132.6685 81.1015 3132.6694
-184.7486 93.0102 -47.6186 3134.1687 81.1613 3134.1697
-184.8086 93.0092 -46.1195 3135.6692 81.2207 3135.6702
-184.8687 93.0082 -44.6204 3137.1694 81.2797 3137.1704
-184.9288 93.0071 -43.1213 3138.6697 81.3383 3138.6707
-184.9889 93.0061 -41.6222 3140.1702 81.3965 3140.1709
-185.0490 93.0051 -40.1231 3141.6704 81.4544 3141.6711
-185.1091 93.0043 -38.6240 3143.1707 81.5119 3143.1714
-185.1693 93.0036 -37.1249 3144.6709 81.5690 3144.6716
-185.2293 93.0031 -35.6258 3146.1714 81.6258 3146.1721
-185.2894 93.0026 -34.1267 3147.6716 81.6821 3147.6724
-185.3493 93.0021 -32.6276 3149.1719 81.7382 3149.1726
-185.4093 93.0017 -31.1284 3150.6724 81.7938 3150.6731
-185.4692 93.0012 -29.6293 3152.1726 81.8492 3152.1733
-185.5291 93.0007 -28.1302 3153.6729 81.9041 3153.6736
-185.5890 93.0003 -26.6311 3155.1733 81.9587 3155.1741
-185.6492 92.9998 -25.1320 3156.6736 82.0130 3156.6743
-185.7096 92.9993 -23.6329 3158.1738 82.0669 3158.1746
-185.7705 92.9988 -22.1338 3159.6743 82.1205 3159.6750
-185.8319 92.9983 -20.6348 3161.1746 82.1738 3161.1753
-185.8940 92.9980 -19.1357 3162.6748 82.2267 3162.6755
-185.9568 92.9977 -17.6367 3164.1753 82.2792 3164.1760
-186.0202 92.9974 -16.1378 3165.6755 82.3315 3165.6763
-186.0842 92.9973 -14.6388 3167.1758 82.3834 3167.1765
-186.1487 92.9972 -13.1399 3168.6760 82.4350 3168.6768
-186.2136 92.9973 -11.6409 3170.1765 82.4863 3170.1772
-186.2788 92.9973 -10.1420 3171.6768 82.5372 3171.6775
-186.3442 92.9975 -8.6431 3173.1770 82.5878 3173.1777
-186.4097 92.9976 -7.1441 3174.6775 82.6381 3174.6782
-186.4752 92.9977 -5.6452 3176.1777 82.6881 3176.1787
-186.5408 92.9979 -4.1463 3177.6780 82.7378 3177.6790
-186.6063 92.9981 -2.6474 3179.1785 82.7872 3179.1794
-186.6719 92.9982 -1.1485 3180.6787 82.8362 3180.6797
-186.7374 92.9984 0.3505 3182.1790 82.8850 3182.1799
-186.8029 92.9985 1.8494 3183.6794 82.9334 3183.6804
-186.8684 92.9985 3.3483 3185.1797 82.9816 3185.1807
-186.9339 92.9986 4.8472 3186.6799 83.0294 3186.6809
-186.9993 92.9986 6.3461 3188.1804 83.0770 3188.1814
-187.0646 92.9985 7.8451 3189.6807 83.1243 3189.6819
-187.1299 92.9986 9.3440 3191.1809 83.1712 3191.1821
-187.1953 92.9987 10.8429 3192.6812 83.2179 3192.6824
-187.2607 92.9989 12.3418 3194.1816 83.2643 3194.1829
-187.3263 92.9993 13.8407 3195.6819 83.3104 3195.6831
-187.3922 92.9999 15.3396 3197.1821 83.3563 3197.1833
-187.4586 93.0006 16.8385 3198.6826 83.4018 3198.6838
-187.5256 93.0013 18.3374 3200.1829 83.4471 3200.1841
-187.5933 93.0021 19.8362 3201.6831 83.4921 3201.6846
-187.6617 93.0028 21.3350 3203.1836 83.5368 3203.1851
-187.7310 93.0035 22.8338 3204.6838 83.5812 3204.6853
-187.8014 93.0039 24.3325 3206.1841 83.6254 3206.1855
-187.8730 93.0042 25.8311 3207.6846 83.6693 3207.6860
-187.9464 93.0044 27.3297 3209.1848 83.7129 3209.1863
-188.0217 93.0046 28.8282 3210.6851 83.7563 3210.6868
-188.0995 93.0046 30.3266 3212.1853 83.7994 3212.1870
-188.1802 93.0047 31.8247 3213.6858 83.8422 3213.6875
-188.2639 93.0047 33.3227 3215.1860 83.8848 3215.1877
-188.3506 93.0048 34.8205 3216.6863 83.9271 3216.6880
-188.4404 93.0049 36.3182 3218.1868 83.9692 3218.1885
-188.5328 93.0051 37.8157 3219.6870 84.0110 3219.6887
-188.6275 93.0052 39.3130 3221.1873 84.0526 3221.1890
-188.7240 93.0054 40.8101 3222.6877 84.0939 3222.6895
-188.8219 93.0056 42.3073 3224.1880 84.1349 3224.1897
-188.9206 93.0059 43.8043 3225.6882 84.1757 3225.6899
-189.0198 93.0062 45.3014 3227.1887 84.2163 3227.1904
-189.1191 93.0065 46.7984 3228.6890 84.2566 3228.6907
-189.2184 93.0069 48.2955 3230.1892 84.2967 3230.1909
-189.3175 93.0074 49.7925 3231.6897 84.3365 3231.6914
-189.4164 93.0079 51.2896 3233.1899 84.3761 3233.1917
-189.5151 93.0084 52.7866 3234.6902 84.4155 3234.6919
-189.6135 93.0090 54.2837 3236.1904 84.4546 3236.1921
-189.7117 93.0095 55.7807 3237.6909 84.4935 3237.6926
-189.8096 93.0101 57.2778 3239.1912 84.5322 3239.1929
-189.9071 93.0107 58.7749 3240.6914 84.5706 3240.6931
-190.0040 93.0112 60.2721 3242.1919 84.6088 3242.1934
-190.0998 93.0118 61.7695 3243.6921 84.6468 3243.6938
-190.1941 93.0123 63.2669 3245.1924 84.6845 3245.1941
-190.2861 93.0129 64.7644 3246.6929 84.7220 3246.6946
-190.3752 93.0135 66.2620 3248.1931 84.7593 3248.1948
-190.4608 93.0141 67.7599 3249.6934 84.7964 3249.6951
-190.5423 93.0147 69.2580 3251.1938 84.8333 3251.1956
-190.6199 93.0153 70.7564 3252.6941 84.8699 3252.6958
-190.6939 93.0158 72.2549 3254.1943 84.9063 3254.1960
-190.7649 93.0163 73.7535 3255.6948 84.9425 3255.6965
-190.8338 93.0169 75.2523 3257.1951 84.9785 3257.1968
-190.9013 93.0174 76.7511 3258.6953 85.0143 3258.6970
-190.9680 93.0179 78.2499 3260.1956 85.0499 3260.1973
-191.0340 93.0184 79.7488 3261.6960 85.0852 3261.6978
-191.0996 93.0190 81.2476 3263.1963 85.1204 3263.1980
-191.1644 93.0194 82.7466 3264.6965 85.1553 3264.6982
-191.2281 93.0198 84.2455 3266.1970 85.1901 3266.1987
-191.2903 93.0200 85.7446 3267.6973 85.2246 3267.6990
-191.3508 93.0201 87.2437 3269.1975 85.2589 3269.1992
-191.4095 93.0198 88.7429 3270.6980 85.2931 3270.7000
-191.4667 93.0194 90.2422 3272.1982 85.3270 3272.2002
-191.5230 93.0188 91.7415 3273.6985 85.3607 3273.7004
-191.5790 93.0181 93.2408 3275.1990 85.3942 3275.2009
-191.6355 93.0173 94.7401 3276.6992 85.4276 3276.7012
-191.6931 93.0165 96.2393 3278.1995 85.4607 3278.2014
-191.7523 93.0158 97.7385 3279.7000 85.4937 3279.7019
-191.8134 93.0151 99.2376 3281.2002 85.5264 3281.2021
-191.8763 93.0145 100.7366 3282.7004 85.5590 3282.7026
-191.9408 93.0141 102.2356 3284.2007 85.5914 3284.2029
-192.0066 93.0137 103.7345 3285.7012 85.6235 3285.7034
-192.0732 93.0133 105.2333 3287.2014 85.6555 3287.2036
-192.1402 93.0131 106.7322 3288.7017 85.6874 3288.7039
-192.2074 93.0129 108.2310 3290.2021 85.7190 3290.2043
-192.2745 93.0128 109.7299 3291.7024 85.7504 3291.7046
-192.3414 93.0128 111.2287 3293.2026 85.7817 3293.2048
-192.4082 93.0128 112.7275 3294.7031 85.8128 3294.7053
-192.4748 93.0129 114.2264 3296.2034 85.8437 3296.2056
-192.5413 93.0131 115.7253 3297.7036 85.8744 3297.7058
-192.6076 93.0133 117.2242 3299.2041 85.9049 3299.2063
-192.6737 93.0136 118.7231 3300.7043 85.9353 3300.7068
-192.7397 93.0140 120.2220 3302.2046 85.9655 3302.2070
-192.8055 93.0145 121.7209 3303.7048 85.9955 3303.7073
-192.8713 93.0151 123.2198 3305.2053 86.0253 3305.2078
-192.9370 93.0159 124.7187 3306.7056 86.0550 3306.7080
-193.0026 93.0168 126.2176 3308.2058 86.0845 3308.2083
-193.0681 93.0177 127.7165 3309.7063 86.1138 3309.7087
-193.1335 93.0185 129.2154 3311.2065 86.1430 3311.2090
-193.1989 93.0189 130.7143 3312.7068 86.1720 3312.7092
-193.2643 93.0189 132.2132 3314.2073 86.2008 3314.2097
-193.3300 93.0187 133.7120 3315.7075 86.2295 3315.7100
-193.3965 93.0184 135.2108 3317.2078 86.2580 3317.2102
-193.4637 93.0182 136.7097 3318.7083 86.2863 3318.7107
-193.5316 93.0182 138.2084 3320.2085 86.3145 3320.2109
-193.5999 93.0184 139.7071 3321.7087 86.3425 3321.7112
-193.6685 93.0186 141.2060 3323.2092 86.3704 3323.2117
-193.7373 93.0189 142.7048 3324.7095 86.3980 3324.7122
-193.8060 93.0191 144.2036 3326.2097 86.4256 3326.2124
-193.8747 93.0193 145.7025 3327.7100 86.4529 3327.7129
-193.9435 93.0195 147.2013 3329.2104 86.4802 3329.2134
-194.0123 93.0197 148.7001 3330.7107 86.5072 3330.7136
-194.0812 93.0199 150.1990 3332.2109 86.5341 3332.2141
-194.1503 93.0199 151.6978 3333.7114 86.5609 3333.7146
-194.2197 93.0200 153.1966 3335.2117 86.5875 3335.2148
-194.2893 93.0200 154.6952 3336.7119 86.6140 3336.7148
-194.3592 93.0199 156.1938 3338.2124 86.6403 3338.2153
-194.4294 93.0198 157.6924 3339.7126 86.6664 3339.7156
-194.5000 93.0196 159.1910 3341.2129 86.6924 3341.2158
-194.5711 93.0193 160.6897 3342.7134 86.7183 3342.7163
-194.6428 93.0191 162.1883 3344.2136 86.7440 3344.2166
-194.7152 93.0188 163.6867 3345.7139 86.7695 3345.7168
-194.7885 93.0185 165.1852 3347.2144 86.7950 3347.2170
-194.8627 93.0183 166.6836 3348.7146 86.8202 3348.7173
-194.9378 93.0181 168.1820 3350.2148 86.8454 3350.2175
-195.0137 93.0180 169.6804 3351.7151 86.8704 3351.7178
-195.0901 93.0180 171.1788 3353.2156 86.8952 3353.2183
-195.1669 93.0181 172.6772 3354.7158 86.7411 3354.7185
-195.2439 93.0183 174.1756 3356.2161 86.0627 3356.2188
-195.3209 93.0186 175.6738 3357.7166 85.3792 3357.7190
-195.3979 93.0190 177.1721 3359.2168 84.6906 3359.2192
-195.4749 93.0196 178.6704 3360.7170 83.9965 3360.7195
-195.5518 93.0203 180.1687 3362.2175 83.2970 3362.2200
-195.6286 93.0212 181.6670 3363.7178 82.5937 3363.7202
-195.7054 93.0221 183.1653 3365.2180 81.8864 3365.2205
-195.7820 93.0231 184.6636 3366.7185 81.1751 3366.7207
-195.8585 93.0240 186.1619 3368.2188 80.4597 3368.2209
-195.9349 93.0249 187.6602 3369.7190 79.7402 3369.7212
-196.0112 93.0257 189.1586 3371.2192 79.0163 3371.2214
-196.0873 93.0263 190.6569 3372.7197 78.2880 3372.7217
-196.1634 93.0267 192.1552 3374.2200 77.5551 3374.2219
-196.2393 93.0270 193.6536 3375.7202 76.8177 3375.7222
-196.3151 93.0272 195.1519 3377.2207 76.0754 3377.2227
-196.3909 93.0270 196.6503 3378.7209 75.3283 3378.7229
-196.4665 93.0266 198.1487 3380.2212 74.5762 3380.2231
-196.5420 93.0260 199.6470 3381.7217 73.8190 3381.7234
-196.6175 93.0251 201.1454 3383.2219 73.0564 3383.2236
-196.6929 93.0240 202.6437 3384.7222 72.2884 3384.7239
-196.7684 93.0230 204.1421 3386.2227 71.5148 3386.2244
-196.8436 93.0220 205.6405 3387.7229 70.7355 3387.7246
-196.9186 93.0214 207.1389 3389.2231 69.9502 3389.2246
-196.9927 93.0212 208.6374 3390.7236 69.1588 3390.7251
-197.0652 93.0214 210.1359 3392.2239 68.3611 3392.2253
-197.1353 93.0220 211.6345 3393.7241 67.5569 3393.7256
-197.2023 93.0229 213.1332 3395.2244 66.7459 3395.2256
-197.2656 93.0240 214.6322 3396.7249 65.9281 3396.7261
-197.3254 93.0250 216.1312 3398.2251 65.1030 3398.2263
-197.3821 93.0258 217.6304 3399.7253 64.2706 3399.7266
-197.4365 93.0263 219.1297 3401.2258 63.4304 3401.2268
-197.4893 93.0263 220.6291 3402.7261 62.5823 3402.7271
-197.5411 93.0261 222.1285 3404.2263 61.7259 3404.2273
-197.5920 93.0256 223.6279 3405.7268 60.8610 3405.7278
-197.6422 93.0250 225.1274 3407.2271 59.9871 3407.2280
-197.6918 93.0246 226.6269 3408.7273 59.1040 3408.7283
-197.7406 93.0245 228.1264 3410.2278 58.2112 3410.2288
-197.7888 93.0248 229.6259 3411.7280 57.3083 3411.7290
-197.8362 93.0256 231.1256 3413.2283 56.3950 3413.2292
-197.8832 93.0268 232.6252 3414.7288 55.4706 3414.7297
-197.9299 93.0284 234.1248 3416.2290 54.5348 3416.2300
-197.9766 93.0300 235.6243 3417.7292 53.5870 3417.7302
-198.0233 93.0314 237.1238 3419.2295 52.6265 3419.2305
-198.0701 93.0323 238.6234 3420.7300 51.6527 3420.7307
-198.1170 93.0323 240.1229 3422.2302 50.6650 3422.2310
-198.1640 93.0316 241.6225 3423.7305 49.6626 3423.7312
-198.2109 93.0301 243.1220 3425.2310 48.6446 3425.2317
-198.2574 93.0280 244.6216 3426.7312 47.6101 3426.7319
-198.3029 93.0255 246.1212 3428.2314 46.5580 3428.2322
-198.3471 93.0228 247.6208 3429.7319 45.4874 3429.7324
-198.3894 93.0203 249.1204 3431.2322 44.4038 3431.2327
-198.4285 93.0180 250.6203 3432.7324 43.3142 3432.7332
-198.4621 93.0160 252.1203 3434.2329 42.2181 3434.2336
-198.4868 93.0143 253.6205 3435.7332 41.1153 3435.7339
-198.4990 93.0129 255.1208 3437.2334 40.0053 3437.2344
-198.4955 93.0119 256.6212 3438.7339 38.8877 3438.7349
-198.4728 93.0113 258.1213 3440.2341 37.7619 3440.2349
-198.4264 93.0114 259.6208 3441.7344 36.6275 3441.7351
-198.3504 93.0124 261.1193 3443.2346 35.4836 3443.2356
-198.2373 93.0143 262.6153 3444.7351 34.3298 3444.7361
-198.0795 93.0172 264.1072 3446.2354 33.1651 3446.2363
-197.8701 93.0210 265.5927 3447.7356 31.9886 3447.7366
-197.6051 93.0258 267.0694 3449.2361 31.9796 3449.2371
-197.2849 93.0314 268.5350 3450.7363 32.7802 3450.7373
-196.9118 93.0379 269.9882 3452.2366 32.7011 3452.2375
-196.4865 93.0453 271.4269 3453.7371 31.5198 3453.7380
-196.0068 93.0538 272.8483 3455.2373 30.3252 3455.2383
-195.4691 93.0634 274.2488 3456.7375 29.1162 3456.7385
-194.8698 93.0738 275.6241 3458.2380 27.9931 3458.2390
-194.2060 93.0849 276.9694 3459.7383 27.0488 3459.7393
-193.4755 93.0962 278.2795 3461.2385 26.7457 3461.2395
-192.6795 93.1073 279.5511 3462.7388 27.6999 3462.7397
-191.8257 93.1182 280.7846 3464.2393 28.6220 3464.2402
-190.9204 93.1286 281.9809 3465.7395 29.5150 3465.7405
-189.9648 93.1387 283.1371 3467.2397 29.0731 3467.2407
-188.9590 93.1488 284.2501 3468.7402 29.8395 3468.7410
-187.9072 93.1593 285.3198 3470.2405 30.6966 3470.2412
-186.8169 93.1704 286.3503 3471.7407 31.0372 3471.7417
-185.6969 93.1825 287.3485 3473.2412 29.8370 3473.2422
-184.5536 93.1954 288.3200 3474.7415 28.6217 3474.7424
-183.3892 93.2091 289.2659 3476.2417 27.3899 3476.2427
-182.2022 93.2236 290.1833 3477.7422 26.1397 3477.7432
-180.9877 93.2386 291.0638 3479.2424 24.8691 3479.2434
-179.7352 93.2540 291.8895 3480.7427 23.5753 3480.7437
-178.4374 93.2697 292.6416 3482.2432 24.6539 3482.2441
-177.1039 93.2854 293.3286 3483.7434 25.6868 3483.7441
-175.7482 93.3012 293.9708 3485.2437 26.6794 3485.2444
-174.3756 93.3173 294.5761 3486.7439 27.6359 3486.7446
-172.9890 93.3341 295.1485 3488.2444 28.5601 3488.2451
-171.5894 93.3518 295.6886 3489.7446 29.4550 3489.7454
-170.1769 93.3705 296.1941 3491.2449 30.3231 3491.2456
-168.7513 93.3902 296.6609 3492.7454 31.1668 3492.7461
-167.3123 93.4107 297.0844 3494.2456 31.9880 3494.2463
-165.8605 93.4318 297.4623 3495.7458 32.7884 3495.7466
-164.3979 93.4531 297.7955 3497.2463 33.5694 3497.2471
-162.9266 93.4749 298.0880 3498.7466 34.3325 3498.7471
-161.4488 93.4975 298.3461 3500.2468 35.0787 3500.2476
-159.9666 93.5214 298.5767 3501.7473 35.8091 3501.7478
-158.4812 93.5467 298.7855 3503.2476 36.5248 3503.2480
-156.9932 93.5730 298.9760 3504.7478 37.2200 3504.7483
-155.5033 93.5987 299.1497 3506.2483 37.8940 3506.2488
-154.0114 93.6229 299.3061 3507.7485 38.5480 3507.7490
-152.5176 93.6456 299.4439 3509.2488 39.1833 3509.2493
-151.0221 93.6674 299.5622 3510.7490 39.8011 3510.7493
-149.5252 93.6893 299.6612 3512.2495 40.4022 3512.2500
-148.0272 93.7119 299.7420 3513.7498 40.9878 3513.7502
-146.5284 93.7351 299.8065 3515.2500 41.5585 3515.2507
-145.0290 93.7586 299.8567 3516.7505 42.1151 3516.7512
-143.5292 93.7825 299.8944 3518.2507 42.6584 3518.2515
-142.0294 93.8065 299.9211 3519.7510 43.1890 3519.7517
-140.5294 93.8309 299.9369 3521.2515 43.7075 3521.2522
-139.0292 93.8557 299.9404 3522.7517 44.2145 3522.7524
-137.5292 93.8809 299.9288 3524.2520 44.7104 3524.2527
-136.0294 93.9063 299.8979 3525.7524 45.1958 3525.7532
-134.5303 93.9319 299.8444 3527.2527 45.6710 3527.2534
-133.0322 93.9576 299.7664 3528.7529 46.1366 3528.7537
-131.5356 93.9833 299.6635 3530.2532 46.5928 3530.2539
-130.0409 94.0089 299.5366 3531.7537 47.0401 3531.7544
-128.5484 94.0343 299.3867 3533.2539 47.4788 3533.2546
-127.0581 94.0596 299.2158 3534.7542 47.9092 3534.7549
-125.5700 94.0847 299.0258 3536.2546 48.3317 3536.2554
-124.0842 94.1101 298.8195 3537.7549 48.7464 3537.7556
-122.6004 94.1358 298.5995 3539.2551 49.1537 3539.2559
-121.1184 94.1620 298.3677 3540.7556 49.5538 3540.7561
-119.6382 94.1890 298.1248 3542.2559 49.9469 3542.2563
-118.1599 94.2166 297.8703 3543.7561 50.3334 3543.7566
-116.6838 94.2452 297.6030 3545.2566 50.7133 3545.2571
-115.2104 94.2745 297.3214 3546.7568 51.0870 3546.7573
-113.7402 94.3044 297.0241 3548.2571 51.4546 3548.2576
-112.2735 94.3349 296.7096 3549.7576 51.8162 3549.7581
-110.8108 94.3658 296.3772 3551.2578 52.1721 3551.2583
-109.3526 94.3970 296.0258 3552.7581 52.5225 3552.7585
-107.8994 94.4285 295.6547 3554.2583 52.8674 3554.2588
-106.4513 94.4603 295.2635 3555.7588 53.2071 3555.7590
-105.0086 94.4924 294.8532 3557.2590 53.5416 3557.2593
-103.5710 94.5249 294.4250 3558.7593 53.8712 3558.7595
-102.1385 94.5578 293.9801 3560.2598 54.1959 3560.2603
-100.7111 94.5912 293.5192 3561.7600 54.5160 3561.7605
-99.2889 94.6250 293.0426 3563.2603 54.8314 3563.2607
-97.8718 94.6593 292.5510 3564.7607 55.1424 3564.7612
-96.4596 94.6942 292.0452 3566.2610 55.4490 3566.2617
-95.0522 94.7296 291.5265 3567.7612 55.7513 3567.7620
-93.6495 94.7657 290.9955 3569.2617 56.0495 3569.2625
-92.2514 94.8023 290.4523 3570.7620 56.3437 3570.7627
-90.8580 94.8396 289.8971 3572.2622 56.6339 3572.2629
-89.4699 94.8775 289.3291 3573.7627 56.9203 3573.7634
-88.0875 94.9159 288.7473 3575.2629 57.2029 3575.2637
-86.7116 94.9550 288.1507 3576.7632 57.4818 3576.7639
-85.3429 94.9948 287.5378 3578.2634 57.7571 3578.2642
-83.9820 95.0352 286.9077 3579.7639 58.0289 3579.7644
-82.6296 95.0763 286.2595 3581.2642 58.2972 3581.2646
-81.2863 95.1180 285.5929 3582.7644 58.5622 3582.7646
-79.9524 95.1601 284.9076 3584.2649 58.2725 3584.2651
-78.6282 95.2027 284.2036 3585.7651 57.9452 3585.7654
-77.3142 95.2454 283.4809 3587.2654 57.7355 3587.2656
-76.0105 95.2883 282.7393 3588.7659 57.7328 3588.7661
-74.7177 95.3312 281.9792 3590.2661 57.7412 3590.2664
-73.4359 95.3741 281.2007 3591.7664 57.6716 3591.7666
-72.1654 95.4169 280.4039 3593.2668 57.7009 3593.2671
-70.9065 95.4598 279.5890 3594.7671 57.9734 3594.7673
-69.6592 95.5029 278.7563 3596.2673 58.2424 3596.2676
-68.4235 95.5462 277.9064 3597.7678 58.5081 3597.7681
-67.1993 95.5901 277.0402 3599.2681 58.7705 3599.2683
-65.9860 95.6347 276.1589 3600.7683 59.0296 3600.7686
-64.7828 95.6802 275.2638 3602.2686 59.2855 3602.2688
-63.5894 95.7265 274.3557 3603.7690 59.5384 3603.7693
-62.4062 95.7735 273.4346 3605.2693 58.7828 3605.2695
-61.2344 95.8207 272.4989 3606.7695 57.8864 3606.7698
-60.0758 95.8682 271.5469 3608.2700 56.9798 3608.2703
-58.9311 95.9158 270.5783 3609.7703 57.2616 3609.7705
-57.7995 95.9636 269.5945 3611.2705 57.5398 3611.2705
