VERSION 0.7
FIELDS x y z arclength lapdistance speed
SIZE 4 4 4 4 4 4
TYPE F F F F F F
COUNT 1 1 1 1 1 1
WIDTH 873
HEIGHT 1
VIEWPOINT 0.000 0.000 0.000 1.000 0.000 0.000 0.000
POINTS 873
DATA ascii
271.4105 106.4754 132.6518 4054.5369 4055.2952 43.8119
272.2760 106.4684 133.1529 4055.5371 4056.2954 43.3780
273.1384 106.4611 133.6595 4056.5371 4057.2957 42.9431
273.9975 106.4537 134.1716 4057.5374 4058.2959 42.5072
274.8530 106.4462 134.6897 4058.5374 4059.2959 42.0703
275.7045 106.4387 135.2143 4059.5376 4060.2961 41.6324
276.5516 106.4311 135.7460 4060.5378 4061.2964 41.1934
277.3939 106.4236 136.2854 4061.5378 4062.2966 40.7532
278.2309 106.4160 136.8328 4062.5381 4063.2969 40.3120
279.0623 106.4084 137.3886 4063.5381 4064.2969 39.8696
279.8879 106.4008 137.9531 4064.5383 4065.2971 39.9456
280.7076 106.3930 138.5261 4065.5383 4066.2971 40.1581
281.5214 106.3850 139.1075 4066.5386 4067.2974 40.3958
282.3295 106.3769 139.6970 4067.5386 4068.2976 40.6311
283.1318 106.3685 140.2941 4068.5388 4069.2979 40.8639
283.9287 106.3599 140.8986 4069.5388 4070.2979 41.0944
284.7203 106.3511 141.5098 4070.5391 4071.2981 41.1420
285.5067 106.3420 142.1278 4071.5391 4072.2983 40.7018
286.2877 106.3327 142.7524 4072.5393 4073.2986 40.2604
287.0631 106.3231 143.3840 4073.5396 4074.2988 39.8179
287.8325 106.3133 144.0229 4074.5396 4075.2988 39.3741
288.5955 106.3034 144.6696 4075.5398 4076.2991 38.9292
289.3515 106.2933 145.3243 4076.5398 4077.2991 38.4830
290.1003 106.2832 145.9874 4077.5400 4078.2996 38.0355
290.8416 106.2731 146.6588 4078.5400 4079.2998 37.9303
291.5753 106.2632 147.3386 4079.5403 4080.3000 37.9210
292.3013 106.2534 148.0266 4080.5403 4081.3000 38.1443
293.0194 106.2438 148.7227 4081.5405 4082.3003 38.4043
293.7298 106.2345 149.4267 4082.5405 4083.3003 38.6613
294.4324 106.2254 150.1384 4083.5408 4084.3005 38.9154
295.1273 106.2165 150.8576 4084.5410 4085.3008 39.1666
295.8145 106.2078 151.5842 4085.5410 4086.3008 39.4150
296.4940 106.1992 152.3180 4086.5413 4087.3010 39.6607
297.1663 106.1906 153.0586 4087.5413 4088.3013 39.9038
297.8315 106.1819 153.8053 4088.5415 4089.3015 40.1442
298.4904 106.1731 154.5577 4089.5415 4090.3015 39.9335
299.1435 106.1642 155.3152 4090.5417 4091.3018 39.4901
299.7913 106.1551 156.0772 4091.5417 4092.3020 39.0455
300.4337 106.1457 156.8438 4092.5420 4093.3022 38.5996
301.0707 106.1360 157.6148 4093.5420 4094.3022 38.1525
301.7019 106.1261 158.3907 4094.5422 4095.3027 37.7040
302.3266 106.1158 159.1718 4095.5425 4096.3032 37.2542
302.9444 106.1052 159.9584 4096.5425 4097.3032 36.8031
303.5547 106.0941 160.7509 4097.5425 4098.3032 36.3505
304.1572 106.0826 161.5491 4098.5430 4099.3037 35.8964
304.7516 106.0706 162.3534 4099.5430 4100.3037 35.4409
305.3379 106.0581 163.1638 4100.5430 4101.3037 34.9838
305.9157 106.0449 163.9803 4101.5430 4102.3042 34.5251
306.4847 106.0311 164.8029 4102.5435 4103.3047 34.0648
307.0446 106.0167 165.6317 4103.5435 4104.3052 33.6028
307.5949 106.0016 166.4668 4104.5435 4105.3052 33.1390
308.1354 105.9859 167.3082 4105.5435 4106.3052 32.6734
308.6656 105.9697 168.1562 4106.5439 4107.3057 32.2060
309.1850 105.9531 169.0107 4107.5439 4108.3057 31.7367
309.6933 105.9363 169.8719 4108.5439 4109.3062 31.2653
310.1902 105.9193 170.7398 4109.5444 4110.3066 30.7919
310.6757 105.9023 171.6142 4110.5444 4111.3066 30.3164
311.1498 105.8853 172.4947 4111.5444 4112.3066 29.8387
311.6128 105.8685 173.3812 4112.5444 4113.3066 29.3587
312.0648 105.8520 174.2732 4113.5449 4114.3071 28.8763
312.5059 105.8357 175.1707 4114.5449 4115.3071 28.3914
312.9362 105.8197 176.0736 4115.5449 4116.3076 27.9039
313.3552 105.8039 176.9817 4116.5449 4117.3076 27.4138
313.7624 105.7884 177.8952 4117.5454 4118.3081 26.9209
314.1571 105.7731 178.8140 4118.5454 4119.3081 26.4251
314.5386 105.7578 179.7385 4119.5454 4120.3086 25.9262
314.9059 105.7424 180.6688 4120.5459 4121.3091 25.4242
315.2584 105.7269 181.6049 4121.5459 4122.3091 24.9188
315.5950 105.7110 182.5465 4122.5459 4123.3091 24.4099
315.9154 105.6946 183.4938 4123.5459 4124.3091 23.8974
316.2192 105.6776 184.4465 4124.5464 4125.3096 23.3811
316.5057 105.6600 185.4046 4125.5464 4126.3101 22.8606
316.7744 105.6417 186.3680 4126.5464 4127.3101 22.3359
317.0240 105.6229 187.3365 4127.5464 4128.3101 21.8067
317.2531 105.6036 188.3100 4128.5469 4129.3105 21.2727
317.4597 105.5837 189.2887 4129.5469 4130.3110 20.7337
317.6415 105.5634 190.2722 4130.5469 4131.3115 20.1892
317.7961 105.5426 191.2603 4131.5474 4132.3120 19.6390
317.9211 105.5213 192.2525 4132.5474 4133.3120 19.0826
318.0141 105.4995 193.2483 4133.5474 4134.3125 18.5196
318.0735 105.4770 194.2467 4134.5474 4135.3130 18.3694
318.0983 105.4540 195.2466 4135.5479 4136.3140 18.2553
318.0884 105.4304 196.2465 4136.5479 4137.3140 18.4741
318.0444 105.4065 197.2456 4137.5479 4138.3145 18.6987
317.9670 105.3824 198.2427 4138.5479 4139.3149 18.9471
317.8573 105.3584 199.2368 4139.5483 4140.3154 19.2172
317.7161 105.3349 200.2267 4140.5483 4141.3159 19.5674
317.5446 105.3119 201.2120 4141.5483 4142.3159 20.0274
317.3444 105.2894 202.1918 4142.5488 4143.3164 20.5410
317.1172 105.2677 203.1658 4143.5488 4144.3169 21.0420
316.8652 105.2469 204.1336 4144.5488 4145.3169 21.5312
316.5907 105.2269 205.0952 4145.5488 4146.3174 22.0094
316.2952 105.2079 206.0506 4146.5493 4147.3179 22.4774
315.9799 105.1897 206.9997 4147.5493 4148.3179 22.9358
315.6452 105.1722 207.9421 4148.5493 4149.3179 23.3851
315.2910 105.1549 208.8773 4149.5493 4150.3179 23.8258
314.9171 105.1376 209.8048 4150.5498 4151.3184 24.2585
314.5234 105.1199 210.7242 4151.5498 4152.3184 24.6835
314.1104 105.1019 211.6351 4152.5498 4153.3188 25.1012
313.6792 105.0835 212.5374 4153.5498 4154.3193 25.5121
313.2311 105.0647 213.4315 4154.5503 4155.3198 25.9163
312.7674 105.0456 214.3176 4155.5503 4156.3198 26.3143
312.2889 105.0264 215.1959 4156.5503 4157.3203 26.5586
311.7957 105.0071 216.0660 4157.5508 4158.3208 26.0606
311.2872 104.9878 216.9271 4158.5508 4159.3208 25.5594
310.7622 104.9685 217.7785 4159.5508 4160.3213 25.0549
310.2194 104.9492 218.6186 4160.5508 4161.3218 24.5470
309.6578 104.9299 219.4462 4161.5513 4162.3223 24.0355
309.0771 104.9104 220.2605 4162.5513 4163.3228 23.7391
308.4773 104.8906 221.0608 4163.5513 4164.3232 24.1733
307.8595 104.8706 221.8474 4164.5513 4165.3232 24.5998
307.2253 104.8502 222.6208 4165.5518 4166.3237 25.0189
306.5767 104.8295 223.3820 4166.5518 4167.3242 25.4311
305.9156 104.8085 224.1326 4167.5518 4168.3247 25.8366
305.2440 104.7872 224.8737 4168.5522 4169.3247 26.2358
304.5634 104.7658 225.6067 4169.5522 4170.3252 26.6290
303.8747 104.7441 226.3320 4170.5522 4171.3257 27.0164
303.1785 104.7223 227.0501 4171.5522 4172.3262 27.3982
302.4750 104.7002 227.7609 4172.5527 4173.3267 27.7747
301.7643 104.6777 228.4645 4173.5527 4174.3267 28.1462
301.0466 104.6548 229.1609 4174.5527 4175.3271 28.5127
300.3220 104.6315 229.8502 4175.5527 4176.3276 28.8746
299.5908 104.6078 230.5325 4176.5532 4177.3281 29.2319
298.8534 104.5838 231.2082 4177.5532 4178.3281 29.5848
298.1103 104.5597 231.8776 4178.5532 4179.3286 29.9336
297.3619 104.5357 232.5412 4179.5537 4180.3291 30.2782
296.6086 104.5119 233.1992 4180.5537 4181.3301 30.6190
295.8506 104.4883 233.8516 4181.5537 4182.3301 30.9559
295.0878 104.4650 234.4984 4182.5537 4183.3301 31.2892
294.3203 104.4419 235.1396 4183.5542 4184.3306 31.6189
293.5480 104.4190 235.7749 4184.5542 4185.3311 31.9452
292.7709 104.3966 236.4044 4185.5542 4186.3311 32.2681
291.9888 104.3745 237.0277 4186.5542 4187.3315 32.5878
291.2016 104.3526 237.6449 4187.5547 4188.3320 32.9044
290.4095 104.3310 238.2557 4188.5547 4189.3330 33.2179
289.6125 104.3096 238.8599 4189.5547 4190.3335 33.5284
288.8106 104.2882 239.4575 4190.5552 4191.3335 33.8360
288.0038 104.2669 240.0485 4191.5552 4192.3340 34.1408
287.1920 104.2456 240.6329 4192.5552 4193.3345 34.4429
286.3756 104.2243 241.2105 4193.5552 4194.3345 34.7423
285.5545 104.2031 241.7814 4194.5557 4195.3350 35.0392
284.7287 104.1820 242.3455 4195.5557 4196.3350 35.3335
283.8984 104.1610 242.9028 4196.5557 4197.3354 35.6253
283.0635 104.1400 243.4534 4197.5557 4198.3359 35.9147
282.2243 104.1191 243.9973 4198.5562 4199.3359 36.2018
281.3808 104.0983 244.5347 4199.5562 4200.3364 36.4856
280.5334 104.0776 245.0657 4200.5562 4201.3364 36.7658
279.6822 104.0570 245.5908 4201.5566 4202.3369 37.0424
278.8277 104.0364 246.1103 4202.5566 4203.3374 37.3156
277.9702 104.0161 246.6247 4203.5566 4204.3374 37.5854
277.1101 103.9959 247.1350 4204.5566 4205.3374 37.8520
276.2479 103.9759 247.6419 4205.5571 4206.3379 38.1154
275.3841 103.9563 248.1463 4206.5571 4207.3389 38.3758
274.5193 103.9370 248.6489 4207.5571 4208.3389 38.6331
273.6541 103.9180 249.1505 4208.5571 4209.3389 38.8875
272.7887 103.8995 249.6517 4209.5576 4210.3394 39.1390
271.9234 103.8813 250.1530 4210.5576 4211.3398 39.3877
271.0583 103.8636 250.6548 4211.5576 4212.3398 39.6337
270.1935 103.8461 251.1573 4212.5576 4213.3398 39.8771
269.3292 103.8291 251.6606 4213.5581 4214.3403 40.1178
268.4653 103.8123 252.1646 4214.5581 4215.3408 40.3560
267.6019 103.7957 252.6693 4215.5581 4216.3413 40.5917
266.7390 103.7792 253.1748 4216.5586 4217.3413 40.8249
265.8762 103.7627 253.6808 4217.5586 4218.3418 41.0558
265.0137 103.7462 254.1874 4218.5586 4219.3423 41.2843
264.1515 103.7297 254.6942 4219.5586 4220.3423 41.5105
263.2895 103.7132 255.2012 4220.5591 4221.3428 41.7345
262.4274 103.6966 255.7081 4221.5591 4222.3428 41.9563
261.5651 103.6801 256.2149 4222.5591 4223.3433 42.1760
260.7024 103.6637 256.7211 4223.5591 4224.3438 42.3936
259.8393 103.6474 257.2266 4224.5596 4225.3442 42.6091
258.9754 103.6313 257.7307 4225.5596 4226.3442 42.8225
258.1105 103.6154 258.2331 4226.5596 4227.3442 43.0340
257.2443 103.5998 258.7332 4227.5601 4228.3447 43.2436
256.3764 103.5844 259.2303 4228.5601 4229.3452 43.4512
255.5067 103.5693 259.7241 4229.5601 4230.3452 43.6570
254.6349 103.5544 260.2140 4230.5601 4231.3452 43.8609
253.7607 103.5397 260.6997 4231.5605 4232.3457 44.0630
252.8842 103.5251 261.1812 4232.5605 4233.3457 44.2633
252.0054 103.5106 261.6585 4233.5605 4234.3457 44.4619
251.1246 103.4960 262.1322 4234.5605 4235.3462 44.6588
250.2420 103.4815 262.6028 4235.5610 4236.3467 44.8540
249.3582 103.4669 263.0711 4236.5610 4237.3467 45.0475
248.4735 103.4522 263.5378 4237.5610 4238.3472 45.2395
247.5884 103.4375 264.0036 4238.5615 4239.3472 45.4298
246.7029 103.4226 264.4689 4239.5615 4240.3477 45.6185
245.8174 103.4078 264.9341 4240.5615 4241.3481 45.8057
244.9320 103.3930 265.3994 4241.5615 4242.3486 45.9914
244.0468 103.3782 265.8650 4242.5620 4243.3486 46.1756
243.1617 103.3636 266.3309 4243.5620 4244.3491 46.3583
242.2770 103.3491 266.7973 4244.5620 4245.3496 46.5396
241.3925 103.3350 267.2643 4245.5620 4246.3501 46.7194
240.5085 103.3211 267.7320 4246.5625 4247.3501 46.8978
239.6249 103.3076 268.2004 4247.5625 4248.3501 47.0749
238.7416 103.2944 268.6695 4248.5625 4249.3501 47.2506
237.8587 103.2817 269.1391 4249.5630 4250.3506 47.4249
236.9760 103.2692 269.6091 4250.5630 4251.3506 47.5979
236.0934 103.2571 270.0797 4251.5630 4252.3506 47.7697
235.2111 103.2452 270.5507 4252.5630 4253.3511 47.9401
234.3290 103.2336 271.0222 4253.5635 4254.3516 48.1093
233.4474 103.2221 271.4945 4254.5635 4255.3516 48.2772
232.5663 103.2108 271.9678 4255.5635 4256.3516 48.4439
231.6860 103.1997 272.4423 4256.5635 4257.3516 48.6094
230.8064 103.1886 272.9181 4257.5640 4258.3521 48.7737
229.9275 103.1775 273.3951 4258.5640 4259.3521 48.9368
229.0492 103.1666 273.8732 4259.5640 4260.3521 49.0987
228.1713 103.1557 274.3521 4260.5645 4261.3525 49.2595
227.2937 103.1449 274.8316 4261.5645 4262.3525 49.4192
226.4162 103.1341 275.3113 4262.5645 4263.3525 49.5778
225.5388 103.1235 275.7911 4263.5645 4264.3525 49.7352
224.6614 103.1129 276.2709 4264.5649 4265.3525 49.8916
223.7840 103.1025 276.7506 4265.5649 4266.3525 50.0469
222.9065 103.0922 277.2303 4266.5649 4267.3525 50.2012
222.0289 103.0820 277.7099 4267.5649 4268.3525 50.3544
221.1513 103.0721 278.1893 4268.5654 4269.3530 50.5065
220.2736 103.0623 278.6687 4269.5654 4270.3530 50.6577
219.3959 103.0527 279.1480 4270.5654 4271.3530 50.8078
218.5182 103.0434 279.6272 4271.5654 4272.3530 50.9570
217.6404 103.0343 280.1064 4272.5659 4273.3535 51.1052
216.7628 103.0254 280.5857 4273.5659 4274.3535 51.2524
215.8851 103.0167 281.0651 4274.5659 4275.3530 51.3986
215.0076 103.0082 281.5447 4275.5664 4276.3535 51.5440
214.1302 102.9999 282.0244 4276.5664 4277.3535 51.6883
213.2529 102.9918 282.5045 4277.5664 4278.3535 51.8318
212.3757 102.9840 282.9846 4278.5664 4279.3535 51.9743
211.4986 102.9763 283.4650 4279.5669 4280.3535 52.1160
210.6215 102.9689 283.9454 4280.5669 4281.3535 52.2567
209.7444 102.9616 284.4258 4281.5669 4282.3535 52.3966
208.8674 102.9546 284.9062 4282.5669 4283.3535 52.5356
207.9902 102.9477 285.3865 4283.5674 4284.3540 52.6738
207.1131 102.9409 285.8667 4284.5674 4285.3540 52.8111
206.2358 102.9342 286.3468 4285.5674 4286.3540 52.9475
205.3585 102.9277 286.8269 4286.5679 4287.3540 53.0832
204.4812 102.9212 287.3068 4287.5679 4288.3540 53.2180
203.6038 102.9147 287.7866 4288.5679 4289.3540 53.3520
202.7263 102.9084 288.2663 4289.5679 4290.3540 53.4852
201.8488 102.9021 288.7460 4290.5684 4291.3545 53.6176
200.9713 102.8959 289.2256 4291.5684 4292.3545 53.7492
200.0937 102.8897 289.7050 4292.5684 4293.3540 53.8800
199.2161 102.8837 290.1845 4293.5684 4294.3540 54.0101
198.3384 102.8778 290.6639 4294.5688 4295.3545 54.1394
197.4608 102.8721 291.1432 4295.5688 4296.3545 54.2679
196.5832 102.8665 291.6225 4296.5688 4297.3545 54.3958
195.7053 102.8611 292.1018 4297.5693 4298.3550 54.5228
194.8274 102.8560 292.5811 4298.5693 4299.3550 54.6492
193.9495 102.8510 293.0604 4299.5693 4300.3550 54.7748
193.0718 102.8464 293.5396 4300.5693 4301.3550 54.8997
192.1941 102.8419 294.0187 4301.5698 4302.3550 55.0239
191.3163 102.8378 294.4978 4302.5698 4303.3550 55.1474
190.4384 102.8338 294.9770 4303.5698 4304.3550 55.2702
189.5606 102.8302 295.4561 4304.5698 4305.3550 55.3923
188.6827 102.8267 295.9353 4305.5703 4306.3555 55.5138
187.8048 102.8235 296.4145 4306.5703 4307.3555 55.6346
186.9269 102.8204 296.8936 4307.5703 4308.3555 55.7547
186.0490 102.8176 297.3728 4308.5708 4309.3560 55.8741
185.1711 102.8150 297.8520 4309.5708 4310.3564 55.9929
184.2931 102.8125 298.3312 4310.5708 4311.3564 56.1111
183.4152 102.8103 298.8104 4311.5708 4312.3564 56.2286
182.5372 102.8083 299.2897 4312.5713 4313.3569 56.3454
181.6593 102.8065 299.7690 4313.5713 4314.3569 56.4617
180.7814 102.8049 300.2483 4314.5713 4315.3574 56.5773
179.9035 102.8034 300.7276 4315.5713 4316.3574 56.6923
179.0257 102.8022 301.2070 4316.5718 4317.3579 56.8067
178.1479 102.8010 301.6865 4317.5718 4318.3579 56.9205
177.2701 102.8000 302.1660 4318.5718 4319.3579 57.0337
176.3924 102.7991 302.6455 4319.5723 4320.3584 57.1463
175.5146 102.7983 303.1250 4320.5723 4321.3589 57.2583
174.6369 102.7976 303.6046 4321.5723 4322.3589 57.3697
173.7591 102.7970 304.0842 4322.5723 4323.3589 57.4806
172.8813 102.7965 304.5637 4323.5728 4324.3594 57.5909
172.0036 102.7961 305.0433 4324.5728 4325.3594 57.7006
171.1258 102.7958 305.5228 4325.5728 4326.3594 57.8097
170.2480 102.7955 306.0023 4326.5728 4327.3599 57.9183
169.3702 102.7953 306.4818 4327.5732 4328.3604 58.0264
168.4924 102.7952 306.9612 4328.5732 4329.3604 58.1339
167.6145 102.7952 307.4405 4329.5732 4330.3604 58.2408
166.7366 102.7953 307.9199 4330.5732 4331.3604 58.3472
165.8587 102.7957 308.3992 4331.5737 4332.3608 58.4531
164.9808 102.7962 308.8784 4332.5737 4333.3613 58.5585
164.1029 102.7970 309.3577 4333.5737 4334.3613 58.6633
163.2249 102.7980 309.8369 4334.5742 4335.3618 58.7676
162.3470 102.7991 310.3161 4335.5742 4336.3618 58.8714
161.4691 102.8005 310.7953 4336.5742 4337.3618 58.9747
160.5911 102.8022 311.2745 4337.5742 4338.3623 59.0774
159.7132 102.8043 311.7538 4338.5747 4339.3628 59.1797
158.8353 102.8068 312.2331 4339.5747 4340.3628 59.2815
157.9575 102.8099 312.7125 4340.5747 4341.3628 59.3828
157.0798 102.8135 313.1921 4341.5747 4342.3628 59.4836
156.2021 102.8176 313.6718 4342.5752 4343.3633 59.5839
155.3246 102.8221 314.1518 4343.5752 4344.3633 59.6837
154.4472 102.8265 314.6320 4344.5752 4345.3638 59.7830
153.5698 102.8307 315.1123 4345.5757 4346.3643 59.8819
152.6926 102.8345 315.5929 4346.5757 4347.3643 59.9803
151.8155 102.8381 316.0736 4347.5757 4348.3643 60.0782
150.9385 102.8417 316.5545 4348.5757 4349.3647 60.1757
150.0615 102.8454 317.0355 4349.5762 4350.3652 60.2727
149.1846 102.8491 317.5165 4350.5762 4351.3652 60.3693
148.3077 102.8530 317.9976 4351.5762 4352.3652 60.4654
147.4307 102.8569 318.4785 4352.5762 4353.3652 60.5610
146.5537 102.8609 318.9594 4353.5767 4354.3657 60.6562
145.6766 102.8649 319.4401 4354.5767 4355.3657 60.7510
144.7993 102.8690 319.9205 4355.5767 4356.3657 60.8453
143.9220 102.8731 320.4007 4356.5771 4357.3662 60.9392
143.0444 102.8772 320.8805 4357.5771 4358.3667 61.0327
142.1667 102.8812 321.3601 4358.5771 4359.3667 61.1257
141.2890 102.8852 321.8394 4359.5771 4360.3667 61.2183
140.4111 102.8892 322.3187 4360.5776 4361.3672 61.3105
139.5331 102.8931 322.7978 4361.5776 4362.3672 61.4023
138.6552 102.8970 323.2768 4362.5776 4363.3672 61.4936
137.7773 102.9010 323.7559 4363.5776 4364.3672 61.5846
136.8994 102.9050 324.2350 4364.5781 4365.3677 61.6751
136.0215 102.9091 324.7142 4365.5781 4366.3677 61.7652
135.1437 102.9134 325.1935 4366.5781 4367.3677 61.8550
134.2660 102.9178 325.6729 4367.5786 4368.3682 61.9443
133.3883 102.9224 326.1524 4368.5786 4369.3682 62.0332
132.5107 102.9270 326.6320 4369.5786 4370.3682 62.1217
131.6331 102.9313 327.1117 4370.5786 4371.3682 62.2099
130.7555 102.9350 327.5914 4371.5791 4372.3687 62.2976
129.8779 102.9379 328.0710 4372.5791 4373.3687 62.3850
129.0002 102.9398 328.5506 4373.5791 4374.3687 62.4720
128.1224 102.9408 329.0298 4374.5791 4375.3687 62.5586
127.2444 102.9410 329.5089 4375.5796 4376.3691 62.6448
126.3663 102.9409 329.9875 4376.5796 4377.3691 62.7307
125.4880 102.9404 330.4659 4377.5796 4378.3691 62.8161
124.6096 102.9400 330.9441 4378.5801 4379.3696 62.9013
123.7311 102.9397 331.4221 4379.5801 4380.3696 62.9860
122.8526 102.9396 331.9001 4380.5801 4381.3696 63.0704
121.9740 102.9397 332.3780 4381.5801 4382.3696 63.1544
121.0955 102.9397 332.8560 4382.5806 4383.3701 63.2380
120.2170 102.9397 333.3339 4383.5806 4384.3701 63.3213
119.3385 102.9395 333.8120 4384.5806 4385.3701 63.4043
118.4600 102.9392 334.2900 4385.5806 4386.3701 63.4869
117.5815 102.9387 334.7680 4386.5811 4387.3706 63.5691
116.7030 102.9380 335.2461 4387.5811 4388.3706 63.6510
115.8245 102.9371 335.7241 4388.5811 4389.3706 63.7326
114.9460 102.9361 336.2021 4389.5811 4390.3706 63.8138
114.0675 102.9348 336.6801 4390.5815 4391.3711 63.8947
113.1891 102.9334 337.1583 4391.5815 4392.3711 63.9752
112.3108 102.9318 337.6367 4392.5815 4393.3711 64.0554
111.4326 102.9301 338.1154 4393.5820 4394.3716 64.1352
110.5547 102.9282 338.5945 4394.5820 4395.3716 64.2148
109.6771 102.9261 339.0742 4395.5820 4396.3716 64.2940
108.7999 102.9239 339.5546 4396.5820 4397.3716 64.3728
107.9230 102.9216 340.0356 4397.5825 4398.3721 64.4514
107.0465 102.9190 340.5172 4398.5825 4399.3721 64.5296
106.1702 102.9163 340.9992 4399.5825 4400.3721 64.6075
105.2941 102.9134 341.4816 4400.5825 4401.3721 64.6851
104.4181 102.9102 341.9642 4401.5830 4402.3726 64.7624
103.5422 102.9069 342.4469 4402.5830 4403.3726 64.8393
102.6663 102.9033 342.9297 4403.5830 4404.3726 64.9160
101.7904 102.8996 343.4124 4404.5835 4405.3730 64.9923
100.9145 102.8956 343.8951 4405.5835 4406.3730 65.0683
100.0385 102.8914 344.3777 4406.5835 4407.3730 65.1441
99.1625 102.8871 344.8603 4407.5835 4408.3730 65.2195
98.2865 102.8825 345.3428 4408.5840 4409.3735 65.2946
97.4104 102.8778 345.8252 4409.5840 4410.3735 65.3694
96.5342 102.8729 346.3076 4410.5840 4411.3735 65.4439
95.6581 102.8678 346.7900 4411.5840 4412.3735 65.5181
94.7820 102.8626 347.2723 4412.5845 4413.3740 65.5921
93.9058 102.8572 347.7546 4413.5845 4414.3740 65.6657
93.0297 102.8515 348.2368 4414.5845 4415.3740 65.7390
92.1535 102.8457 348.7191 4415.5850 4416.3745 65.8121
91.2774 102.8396 349.2013 4416.5850 4417.3745 65.8848
90.4011 102.8333 349.6835 4417.5850 4418.3745 65.9573
89.5249 102.8267 350.1656 4418.5850 4419.3745 66.0295
88.6487 102.8198 350.6477 4419.5854 4420.3750 66.1014
87.7724 102.8126 351.1298 4420.5854 4421.3750 66.1730
86.8961 102.8050 351.6118 4421.5854 4422.3750 66.2444
86.0198 102.7971 352.0938 4422.5854 4423.3750 66.3154
85.1435 102.7889 352.5758 4423.5859 4424.3755 66.3862
84.2672 102.7803 353.0579 4424.5859 4425.3755 66.4567
83.3909 102.7715 353.5399 4425.5859 4426.3755 66.5270
82.5146 102.7624 354.0220 4426.5864 4427.3760 66.5970
81.6384 102.7532 354.5042 4427.5864 4428.3765 66.6667
80.7622 102.7437 354.9863 4428.5864 4429.3765 66.7361
79.8859 102.7342 355.4685 4429.5864 4430.3765 66.8053
79.0098 102.7246 355.9507 4430.5869 4431.3770 66.8742
78.1336 102.7149 356.4330 4431.5869 4432.3770 66.9428
77.2574 102.7052 356.9154 4432.5869 4433.3770 67.0112
76.3813 102.6955 357.3977 4433.5869 4434.3770 67.0794
75.5052 102.6857 357.8801 4434.5874 4435.3774 67.1472
74.6291 102.6758 358.3625 4435.5874 4436.3774 67.2148
73.7530 102.6658 358.8449 4436.5874 4437.3774 67.2822
72.8770 102.6557 359.3274 4437.5879 4438.3779 67.3493
72.0010 102.6453 359.8099 4438.5879 4439.3784 67.4161
71.1249 102.6347 360.2924 4439.5879 4440.3784 67.4827
70.2490 102.6239 360.7751 4440.5879 4441.3784 67.5491
69.3730 102.6128 361.2578 4441.5884 4442.3789 67.6152
68.4971 102.6014 361.7405 4442.5884 4443.3789 67.6810
67.6212 102.5897 362.2233 4443.5884 4444.3789 67.7466
66.7454 102.5778 362.7062 4444.5884 4445.3789 67.8120
65.8696 102.5656 363.1891 4445.5889 4446.3794 67.8771
64.9939 102.5532 363.6721 4446.5889 4447.3799 67.9420
64.1181 102.5406 364.1552 4447.5889 4448.3799 68.0066
63.2424 102.5278 364.6384 4448.5894 4449.3804 68.0710
62.3668 102.5149 365.1216 4449.5894 4450.3804 68.1352
61.4911 102.5018 365.6049 4450.5894 4451.3804 68.1991
60.6156 102.4886 366.0882 4451.5894 4452.3809 68.2628
59.7400 102.4753 366.5715 4452.5898 4453.3809 68.3263
58.8645 102.4619 367.0550 4453.5898 4454.3813 68.3895
57.9891 102.4483 367.5385 4454.5898 4455.3813 68.4525
57.1137 102.4345 368.0220 4455.5898 4456.3813 68.5153
56.2384 102.4206 368.5055 4456.5903 4457.3818 68.5778
55.3629 102.4064 368.9892 4457.5903 4458.3818 68.6401
54.4874 102.3920 369.4729 4458.5903 4459.3823 68.7022
53.6119 102.3772 369.9565 4459.5903 4460.3828 68.7641
52.7364 102.3622 370.4402 4460.5908 4461.3828 68.8257
51.8609 102.3469 370.9239 4461.5908 4462.3828 68.8871
50.9854 102.3312 371.4075 4462.5908 4463.3833 68.9483
50.1099 102.3152 371.8912 4463.5913 4464.3838 69.0093
49.2344 102.2990 372.3748 4464.5913 4465.3843 69.0701
48.3589 102.2824 372.8584 4465.5913 4466.3843 69.1306
47.4834 102.2655 373.3419 4466.5913 4467.3848 69.1909
46.6079 102.2485 373.8255 4467.5918 4468.3853 69.2510
45.7324 102.2312 374.3091 4468.5918 4469.3857 69.3109
44.8569 102.2138 374.7926 4469.5918 4470.3857 69.3706
43.9813 102.1963 375.2761 4470.5918 4471.3857 69.4301
43.1058 102.1787 375.7596 4471.5923 4472.3862 69.4894
42.2302 102.1610 376.2431 4472.5923 4473.3867 69.5484
41.3547 102.1432 376.7266 4473.5923 4474.3872 69.6073
40.4791 102.1252 377.2101 4474.5928 4475.3872 69.6659
39.6035 102.1071 377.6936 4475.5928 4476.3877 69.7243
38.7278 102.0888 378.1770 4476.5928 4477.3882 69.7825
37.8522 102.0703 378.6605 4477.5928 4478.3887 69.8406
36.9766 102.0515 379.1439 4478.5933 4479.3887 69.8984
36.1010 102.0324 379.6272 4479.5933 4480.3892 69.9560
35.2253 102.0130 380.1105 4480.5933 4481.3896 70.0134
34.3497 101.9932 380.5938 4481.5933 4482.3901 70.0706
33.4740 101.9732 381.0771 4482.5938 4483.3906 70.1277
32.5983 101.9527 381.5603 4483.5938 4484.3906 70.1845
31.7226 101.9320 382.0435 4484.5938 4485.3911 70.2411
30.8469 101.9110 382.5267 4485.5942 4486.3916 70.2975
29.9711 101.8898 383.0099 4486.5942 4487.3921 70.3538
29.0954 101.8684 383.4930 4487.5942 4488.3926 70.4098
28.2196 101.8468 383.9762 4488.5942 4489.3931 70.4656
27.3437 101.8252 384.4593 4489.5947 4490.3936 70.5213
26.4679 101.8035 384.9423 4490.5947 4491.3940 70.5767
25.5921 101.7818 385.4253 4491.5947 4492.3940 70.6320
24.7162 101.7600 385.9083 4492.5947 4493.3945 70.6871
23.8404 101.7383 386.3913 4493.5952 4494.3950 70.7420
22.9645 101.7165 386.8742 4494.5952 4495.3955 70.7967
22.0886 101.6946 387.3572 4495.5952 4496.3960 70.8512
21.2128 101.6727 387.8401 4496.5957 4497.3965 70.9056
20.3369 101.6506 388.3230 4497.5957 4498.3970 70.9597
19.4610 101.6283 388.8058 4498.5957 4499.3975 71.0137
18.5851 101.6058 389.2887 4499.5957 4500.3979 71.0675
17.7091 101.5831 389.7716 4500.5962 4501.3979 71.1211
16.8332 101.5602 390.2544 4501.5962 4502.3984 71.1745
15.9573 101.5369 390.7372 4502.5962 4503.3989 71.2277
15.0813 101.5135 391.2200 4503.5962 4504.3994 71.2808
14.2054 101.4897 391.7028 4504.5967 4505.3999 71.3337
13.3296 101.4657 392.1855 4505.5967 4506.4004 71.3864
12.4538 101.4415 392.6682 4506.5967 4507.4009 71.4389
11.5778 101.4169 393.1510 4507.5972 4508.4014 71.4913
10.7018 101.3922 393.6338 4508.5972 4509.4019 71.5435
9.8258 101.3671 394.1165 4509.5972 4510.4023 71.5955
8.9498 101.3418 394.5992 4510.5972 4511.4028 71.6473
8.0738 101.3162 395.0818 4511.5977 4512.4033 71.6990
7.1978 101.2904 395.5645 4512.5977 4513.4038 71.7505
6.3217 101.2644 396.0471 4513.5977 4514.4043 71.8018
5.4457 101.2381 396.5297 4514.5977 4515.4048 71.8529
4.5697 101.2116 397.0123 4515.5981 4516.4053 71.9039
3.6936 101.1849 397.4948 4516.5981 4517.4058 71.9547
2.8175 101.1581 397.9774 4517.5981 4518.4062 72.0054
1.9415 101.1312 398.4599 4518.5981 4519.4067 72.0558
1.0654 101.1042 398.9424 4519.5986 4520.4072 72.1061
0.1893 101.0771 399.4250 4520.5986 4521.4082 72.1563
-0.6868 101.0501 399.9075 4521.5986 4522.4087 72.2063
-1.5629 101.0230 400.3901 4522.5991 4523.4092 72.2561
-2.4390 100.9959 400.8726 4523.5991 4524.4097 72.3058
-3.3151 100.9687 401.3552 4524.5991 4525.4102 72.3552
-4.1912 100.9415 401.8377 4525.5991 4526.4106 72.4046
-5.0673 100.9142 402.3203 4526.5996 4527.4111 72.4538
-5.9434 100.8869 402.8028 4527.5996 4528.4121 72.5028
-6.8194 100.8595 403.2854 4528.5996 4529.4126 72.5516
-7.6955 100.8319 403.7680 4529.5996 4530.4131 72.6003
-8.5715 100.8042 404.2506 4530.6001 4531.4136 72.6488
-9.4476 100.7764 404.7332 4531.6001 4532.4141 72.6972
-10.3236 100.7485 405.2159 4532.6001 4533.4146 72.7455
-11.1997 100.7204 405.6985 4533.6006 4534.4150 72.7935
-12.0757 100.6921 406.1812 4534.6006 4535.4155 72.8414
-12.9517 100.6636 406.6639 4535.6006 4536.4165 72.8892
-13.8277 100.6348 407.1466 4536.6006 4537.4170 72.9368
-14.7037 100.6056 407.6294 4537.6011 4538.4175 72.9843
-15.5796 100.5760 408.1122 4538.6011 4539.4185 73.0316
-16.4555 100.5460 408.5951 4539.6011 4540.4189 73.0787
-17.3314 100.5153 409.0780 4540.6011 4541.4199 73.1257
-18.2073 100.4840 409.5609 4541.6016 4542.4204 73.1726
-19.0831 100.4521 410.0440 4542.6016 4543.4214 73.2193
-19.9589 100.4196 410.5271 4543.6016 4544.4219 73.2658
-20.8347 100.3865 411.0102 4544.6021 4545.4224 73.3122
-21.7104 100.3529 411.4933 4545.6021 4546.4233 73.3585
-22.5861 100.3189 411.9765 4546.6021 4547.4238 73.4046
-23.4619 100.2847 412.4597 4547.6021 4548.4248 73.4505
-24.3376 100.2503 412.9430 4548.6025 4549.4258 73.4964
-25.2133 100.2158 413.4262 4549.6025 4550.4268 73.5420
-26.0890 100.1815 413.9094 4550.6025 4551.4272 73.5876
-26.9647 100.1472 414.3926 4551.6025 4552.4277 73.6329
-27.8404 100.1131 414.8758 4552.6030 4553.4287 73.6782
-28.7160 100.0792 415.3590 4553.6030 4554.4297 73.7233
-29.5917 100.0455 415.8422 4554.6030 4555.4302 73.7683
-30.4673 100.0118 416.3253 4555.6035 4556.4307 73.8131
-31.3429 99.9782 416.8084 4556.6035 4557.4312 73.8577
-32.2185 99.9446 417.2916 4557.6035 4558.4321 73.9023
-33.0941 99.9108 417.7747 4558.6035 4559.4326 73.9467
-33.9697 99.8769 418.2579 4559.6040 4560.4331 73.9909
-34.8455 99.8428 418.7411 4560.6040 4561.4341 74.0351
-35.7213 99.8083 419.2244 4561.6040 4562.4351 74.0791
-36.5970 99.7736 419.7077 4562.6040 4563.4355 74.1229
-37.4727 99.7387 420.1910 4563.6045 4564.4365 74.1666
-38.3484 99.7034 420.6743 4564.6045 4565.4370 74.2102
-39.2242 99.6679 421.1577 4565.6045 4566.4380 74.2536
-40.0999 99.6323 421.6411 4566.6050 4567.4390 74.2969
-40.9755 99.5965 422.1244 4567.6050 4568.4399 74.3401
-41.8512 99.5606 422.6078 4568.6050 4569.4409 74.3832
-42.7269 99.5246 423.0912 4569.6050 4570.4419 74.4261
-43.6025 99.4886 423.5746 4570.6055 4571.4429 74.4688
-44.4781 99.4527 424.0580 4571.6055 4572.4438 74.5115
-45.3538 99.4167 424.5415 4572.6055 4573.4448 74.5540
-46.2294 99.3808 425.0250 4573.6055 4574.4453 74.5964
-47.1050 99.3448 425.5085 4574.6060 4575.4463 74.6386
-47.9806 99.3089 425.9919 4575.6060 4576.4473 74.6807
-48.8563 99.2731 426.4754 4576.6060 4577.4482 74.7227
-49.7319 99.2372 426.9590 4577.6060 4578.4487 74.7646
-50.6075 99.2013 427.4426 4578.6064 4579.4497 74.8063
-51.4830 99.1655 427.9261 4579.6064 4580.4507 74.8480
-52.3586 99.1296 428.4097 4580.6064 4581.4517 74.8894
-53.2343 99.0937 428.8932 4581.6069 4582.4526 74.9308
-54.1099 99.0577 429.3768 4582.6069 4583.4531 74.9720
-54.9853 99.0218 429.8602 4583.6069 4584.4541 75.0131
-55.8607 98.9859 430.3436 4584.6069 4585.4546 75.0541
-56.7362 98.9500 430.8271 4585.6074 4586.4556 75.0950
-57.6118 98.9141 431.3106 4586.6074 4587.4561 75.1357
-58.4875 98.8782 431.7941 4587.6074 4588.4570 75.1763
-59.3631 98.8424 432.2776 4588.6074 4589.4580 75.2168
-60.2387 98.8068 432.7610 4589.6079 4590.4590 75.2572
-61.1143 98.7713 433.2444 4590.6079 4591.4595 75.2974
-61.9900 98.7359 433.7278 4591.6079 4592.4604 75.3375
-62.8656 98.7008 434.2111 4592.6084 4593.4614 75.3775
-63.7413 98.6658 434.6945 4593.6084 4594.4624 75.4174
-64.6170 98.6310 435.1778 4594.6084 4595.4634 75.4572
-65.4927 98.5965 435.6612 4595.6084 4596.4639 75.4968
-66.3684 98.5621 436.1445 4596.6089 4597.4648 75.5363
-67.2441 98.5279 436.6279 4597.6089 4598.4658 75.5758
-68.1198 98.4938 437.1112 4598.6089 4599.4663 75.6150
-68.9954 98.4599 437.5945 4599.6089 4600.4668 75.6542
-69.8708 98.4261 438.0778 4600.6094 4601.4673 75.6933
-70.7463 98.3924 438.5611 4601.6094 4602.4683 75.7322
-71.6218 98.3588 439.0445 4602.6094 4603.4688 75.7710
-72.4972 98.3253 439.5280 4603.6099 4604.4692 75.8097
-73.3727 98.2919 440.0115 4604.6099 4605.4697 75.8483
-74.2481 98.2587 440.4952 4605.6099 4606.4707 75.8868
-75.1236 98.2255 440.9789 4606.6099 4607.4717 75.9252
-75.9990 98.1926 441.4627 4607.6104 4608.4722 75.9634
-76.8744 98.1599 441.9466 4608.6104 4609.4731 76.0016
-77.7497 98.1274 442.4305 4609.6104 4610.4736 76.0396
-78.6251 98.0954 442.9145 4610.6104 4611.4746 76.0775
-79.5003 98.0637 443.3986 4611.6108 4612.4751 76.1153
-80.3756 98.0324 443.8827 4612.6108 4613.4761 76.1530
-81.2508 98.0016 444.3669 4613.6108 4614.4766 76.1906
-82.1260 97.9712 444.8512 4614.6113 4615.4771 76.2280
-83.0011 97.9413 445.3355 4615.6113 4616.4780 76.2654
-83.8762 97.9117 445.8199 4616.6113 4617.4790 76.3026
-84.7513 97.8824 446.3044 4617.6113 4618.4795 76.3398
-85.6263 97.8533 446.7889 4618.6118 4619.4800 76.3768
-86.5013 97.8244 447.2735 4619.6118 4620.4810 76.4137
-87.3762 97.7955 447.7582 4620.6118 4621.4814 76.4505
-88.2511 97.7666 448.2430 4621.6118 4622.4819 76.4872
-89.1260 97.7376 448.7278 4622.6123 4623.4824 76.5238
-90.0008 97.7085 449.2128 4623.6123 4624.4834 76.5603
-90.8755 97.6794 449.6978 4624.6123 4625.4839 76.5967
-91.7503 97.6502 450.1828 4625.6128 4626.4844 76.6330
-92.6250 97.6210 450.6680 4626.6128 4627.4849 76.6692
-93.4997 97.5919 451.1531 4627.6128 4628.4858 76.7053
-94.3744 97.5630 451.6383 4628.6128 4629.4863 76.7412
-95.2490 97.5344 452.1235 4629.6133 4630.4868 76.7771
-96.1237 97.5061 452.6087 4630.6133 4631.4878 76.8128
-96.9984 97.4783 453.0939 4631.6133 4632.4883 76.8485
-97.8731 97.4509 453.5790 4632.6133 4633.4888 76.8840
-98.7477 97.4241 454.0642 4633.6138 4634.4893 76.9195
-99.6224 97.3978 454.5494 4634.6138 4635.4902 76.9548
-100.4971 97.3720 455.0345 4635.6138 4636.4907 76.9901
-101.3718 97.3467 455.5197 4636.6138 4637.4912 77.0252
-102.2465 97.3218 456.0048 4637.6143 4638.4917 77.0603
-103.1211 97.2973 456.4900 4638.6143 4639.4922 77.0952
-103.9958 97.2730 456.9751 4639.6143 4640.4927 77.1300
-104.8705 97.2490 457.4603 4640.6147 4641.4932 77.1648
-105.7452 97.2251 457.9455 4641.6147 4642.4937 77.1994
-106.6199 97.2014 458.4306 4642.6147 4643.4941 77.2340
-107.4945 97.1778 458.9158 4643.6147 4644.4946 77.2684
-108.3692 97.1543 459.4010 4644.6152 4645.4951 77.3028
-109.2438 97.1309 459.8863 4645.6152 4646.4956 77.3370
-110.1184 97.1077 460.3715 4646.6152 4647.4961 77.3712
-110.9930 97.0845 460.8568 4647.6152 4648.4966 77.4052
-111.8676 97.0615 461.3421 4648.6157 4649.4976 77.4392
-112.7422 97.0386 461.8274 4649.6157 4650.4976 77.4730
-113.6168 97.0158 462.3128 4650.6157 4651.4980 77.5068
-114.4913 96.9931 462.7982 4651.6162 4652.4985 77.5404
-115.3656 96.9705 463.2835 4652.6162 4653.4990 77.5740
-116.2400 96.9481 463.7689 4653.6162 4654.4990 77.6075
-117.1144 96.9257 464.2544 4654.6162 4655.4995 77.6409
-117.9888 96.9035 464.7399 4655.6167 4656.5000 77.6742
-118.8633 96.8815 465.2255 4656.6167 4657.5005 77.7073
-119.7377 96.8597 465.7111 4657.6167 4658.5010 77.7404
-120.6121 96.8381 466.1968 4658.6167 4659.5015 77.7734
-121.4865 96.8168 466.6826 4659.6172 4660.5020 77.8064
-122.3609 96.7959 467.1683 4660.6172 4661.5024 77.8392
-123.2351 96.7754 467.6540 4661.6172 4662.5024 77.8719
-124.1092 96.7552 468.1397 4662.6177 4663.5024 77.9045
-124.9834 96.7356 468.6255 4663.6177 4664.5029 77.9371
-125.8578 96.7163 469.1114 4664.6177 4665.5039 77.9695
-126.7321 96.6976 469.5973 4665.6177 4666.5044 78.0019
-127.6063 96.6792 470.0832 4666.6182 4667.5044 78.0342
-128.4806 96.6612 470.5692 4667.6182 4668.5049 78.0663
-129.3548 96.6435 471.0551 4668.6182 4669.5054 78.0984
-130.2291 96.6261 471.5411 4669.6182 4670.5059 78.1304
-131.1033 96.6090 472.0272 4670.6187 4671.5063 78.1623
-131.9775 96.5920 472.5132 4671.6187 4672.5063 78.1942
-132.8517 96.5753 472.9993 4672.6187 4673.5068 78.2259
-133.7259 96.5587 473.4854 4673.6191 4674.5073 78.2575
-134.6000 96.5422 473.9716 4674.6191 4675.5078 78.2891
-135.4742 96.5259 474.4577 4675.6191 4676.5078 78.3205
-136.3483 96.5098 474.9439 4676.6191 4677.5083 78.3519
-137.2224 96.4938 475.4301 4677.6196 4678.5088 78.3832
-138.0965 96.4780 475.9164 4678.6196 4679.5093 78.4144
-138.9706 96.4624 476.4027 4679.6196 4680.5098 78.4455
-139.8446 96.4469 476.8891 4680.6196 4681.5098 78.4766
-140.7186 96.4317 477.3755 4681.6201 4682.5103 78.5075
-141.5926 96.4166 477.8619 4682.6201 4683.5107 78.5384
-142.4666 96.4017 478.3484 4683.6201 4684.5112 78.5692
-143.3405 96.3869 478.8350 4684.6206 4685.5112 78.5998
-144.2144 96.3723 479.3215 4685.6206 4686.5117 78.6304
-145.0883 96.3579 479.8082 4686.6206 4687.5117 78.6610
-145.9621 96.3436 480.2948 4687.6206 4688.5122 78.6914
-146.8360 96.3295 480.7816 4688.6211 4689.5122 78.7218
-147.7098 96.3156 481.2683 4689.6211 4690.5127 78.7520
-148.5836 96.3019 481.7552 4690.6211 4691.5132 78.7822
-149.4572 96.2885 482.2420 4691.6211 4692.5132 78.8123
-150.3306 96.2752 482.7289 4692.6216 4693.5137 78.8423
-151.2042 96.2623 483.2158 4693.6216 4694.5137 78.8723
-152.0779 96.2495 483.7029 4694.6216 4695.5142 78.9021
-152.9515 96.2371 484.1901 4695.6221 4696.5146 78.9319
-153.8250 96.2248 484.6773 4696.6221 4697.5151 78.9616
-154.6985 96.2129 485.1646 4697.6221 4698.5151 78.9912
-155.5720 96.2012 485.6519 4698.6221 4699.5151 79.0207
-156.4455 96.1897 486.1393 4699.6226 4700.5156 79.0502
-157.3189 96.1784 486.6267 4700.6226 4701.5161 79.0796
-158.1924 96.1674 487.1142 4701.6226 4702.5166 79.1088
-159.0658 96.1565 487.6017 4702.6226 4703.5166 79.1381
-159.9390 96.1459 488.0892 4703.6230 4704.5171 79.1672
-160.8122 96.1354 488.5767 4704.6230 4705.5171 79.1962
-161.6854 96.1251 489.0642 4705.6230 4706.5171 79.2252
-162.5586 96.1150 489.5518 4706.6230 4707.5171 79.2541
-163.4318 96.1050 490.0394 4707.6235 4708.5176 79.2829
-164.3049 96.0953 490.5270 4708.6235 4709.5176 79.3116
-165.1781 96.0858 491.0148 4709.6235 4710.5176 79.3403
-166.0513 96.0765 491.5025 4710.6240 4711.5181 79.3689
-166.9245 96.0674 491.9904 4711.6240 4712.5181 79.3974
-167.7976 96.0585 492.4782 4712.6240 4713.5186 79.4258
-168.6707 96.0498 492.9660 4713.6240 4714.5186 79.4542
-169.5439 96.0414 493.4539 4714.6245 4715.5190 79.4824
-170.4169 96.0333 493.9418 4715.6245 4716.5190 79.5106
-171.2900 96.0253 494.4298 4716.6245 4717.5190 79.5387
-172.1630 96.0177 494.9178 4717.6245 4718.5190 79.5668
-173.0360 96.0102 495.4058 4718.6250 4719.5195 79.5947
-173.9090 96.0031 495.8939 4719.6250 4720.5195 79.6226
-174.7819 95.9961 496.3820 4720.6250 4721.5200 79.6505
-175.6548 95.9894 496.8703 4721.6255 4722.5205 79.6782
-176.5277 95.9830 497.3585 4722.6255 4723.5205 79.7059
-177.4006 95.9769 497.8468 4723.6255 4724.5205 79.7335
-178.2734 95.9710 498.3352 4724.6255 4725.5205 79.7610
-179.1462 95.9653 498.8236 4725.6260 4726.5210 79.7884
-180.0190 95.9599 499.3121 4726.6260 4727.5210 79.8158
-180.8917 95.9547 499.8007 4727.6260 4728.5210 79.8431
-181.7644 95.9498 500.2894 4728.6260 4729.5210 79.8703
-182.6370 95.9451 500.7781 4729.6265 4730.5215 79.8975
-183.5096 95.9406 501.2669 4730.6265 4731.5220 79.9246
-184.3822 95.9364 501.7558 4731.6265 4732.5220 79.9516
-185.2547 95.9323 502.2448 4732.6270 4733.5225 79.9785
-186.1272 95.9285 502.7338 4733.6270 4734.5225 80.0054
-186.9996 95.9248 503.2229 4734.6270 4735.5225 80.0322
-187.8720 95.9214 503.7121 4735.6270 4736.5225 80.0589
-188.7443 95.9181 504.2014 4736.6274 4737.5229 80.0855
-189.6166 95.9151 504.6908 4737.6274 4738.5229 80.1121
-190.4888 95.9124 505.1802 4738.6274 4739.5234 80.1386
-191.3611 95.9099 505.6697 4739.6274 4740.5234 80.1650
-192.2332 95.9077 506.1594 4740.6279 4741.5239 80.1914
-193.1053 95.9059 506.6490 4741.6279 4742.5239 80.2177
-193.9774 95.9044 507.1388 4742.6279 4743.5239 80.2439
-194.8494 95.9033 507.6285 4743.6284 4744.5244 80.2701
-195.7214 95.9025 508.1184 4744.6284 4745.5244 80.2962
-196.5934 95.9022 508.6084 4745.6284 4746.5244 80.3222
-197.4653 95.9022 509.0984 4746.6284 4747.5244 80.3482
-198.3372 95.9025 509.5884 4747.6289 4748.5249 80.3740
-199.2091 95.9031 510.0785 4748.6289 4749.5254 80.3999
-200.0810 95.9039 510.5686 4749.6289 4750.5254 80.4256
-200.9528 95.9050 511.0588 4750.6289 4751.5254 80.4513
-201.8246 95.9062 511.5490 4751.6294 4752.5259 80.4769
-202.6965 95.9075 512.0392 4752.6294 4753.5259 80.5024
-203.5683 95.9088 512.5294 4753.6294 4754.5259 80.5279
-204.4401 95.9103 513.0195 4754.6299 4755.5264 80.5533
-205.3120 95.9117 513.5097 4755.6299 4756.5264 80.5787
-206.1838 95.9132 513.9998 4756.6299 4757.5264 80.6039
-207.0556 95.9148 514.4899 4757.6299 4758.5269 80.6291
-207.9275 95.9164 514.9801 4758.6304 4759.5273 80.6543
-208.7993 95.9181 515.4702 4759.6304 4760.5273 80.6794
-209.6712 95.9199 515.9604 4760.6304 4761.5273 80.7044
-210.5430 95.9219 516.4505 4761.6304 4762.5273 80.7293
-211.4149 95.9240 516.9406 4762.6309 4763.5278 80.4858
-212.2868 95.9263 517.4306 4763.6309 4764.5278 80.1988
-213.1588 95.9288 517.9205 4764.6309 4765.5278 79.9112
-214.0308 95.9314 518.4103 4765.6309 4766.5278 79.6228
-214.9029 95.9343 518.8999 4766.6313 4767.5283 79.3338
-215.7751 95.9374 519.3894 4767.6313 4768.5283 79.0441
-216.6474 95.9407 519.8788 4768.6313 4769.5283 78.7537
-217.5198 95.9441 520.3681 4769.6318 4770.5288 78.4625
-218.3921 95.9477 520.8574 4770.6318 4771.5293 78.1707
-219.2645 95.9515 521.3466 4771.6318 4772.5293 77.8781
-220.1369 95.9554 521.8358 4772.6318 4773.5293 77.5848
-221.0092 95.9595 522.3250 4773.6323 4774.5298 77.2908
-221.8815 95.9638 522.8143 4774.6323 4775.5298 76.9960
-222.7538 95.9682 523.3036 4775.6323 4776.5298 76.7004
-223.6261 95.9728 523.7930 4776.6323 4777.5298 76.4041
-224.4984 95.9774 524.2824 4777.6328 4778.5303 76.1071
-225.3706 95.9822 524.7718 4778.6328 4779.5308 75.8092
-226.2428 95.9871 525.2612 4779.6328 4780.5308 75.5106
-227.1151 95.9921 525.7506 4780.6333 4781.5312 75.2112
-227.9873 95.9971 526.2401 4781.6333 4782.5312 74.9109
-228.8595 96.0022 526.7296 4782.6333 4783.5312 74.6099
-229.7318 96.0073 527.2189 4783.6333 4784.5312 74.3080
-230.6041 96.0123 527.7082 4784.6338 4785.5317 74.0053
-231.4764 96.0173 528.1975 4785.6338 4786.5317 73.7018
-232.3488 96.0223 528.6868 4786.6338 4787.5317 73.3974
-233.2212 96.0273 529.1759 4787.6338 4788.5322 73.0922
-234.0936 96.0323 529.6650 4788.6343 4789.5327 72.7861
-234.9660 96.0373 530.1541 4789.6343 4790.5327 72.4791
-235.8385 96.0424 530.6430 4790.6343 4791.5327 72.1713
-236.7110 96.0475 531.1319 4791.6348 4792.5332 71.8625
-237.5836 96.0526 531.6208 4792.6348 4793.5332 71.5528
-238.4562 96.0578 532.1096 4793.6348 4794.5332 71.2423
-239.3288 96.0631 532.5983 4794.6348 4795.5332 70.9308
-240.2015 96.0684 533.0870 4795.6353 4796.5337 70.6183
-241.0741 96.0737 533.5757 4796.6353 4797.5337 70.3049
-241.9468 96.0791 534.0644 4797.6353 4798.5337 69.9906
-242.8195 96.0845 534.5530 4798.6353 4799.5342 69.6752
-243.6921 96.0900 535.0416 4799.6357 4800.5347 69.3589
-244.5648 96.0955 535.5303 4800.6357 4801.5347 69.0416
-245.4374 96.1010 536.0190 4801.6357 4802.5347 68.7233
-246.3100 96.1067 536.5078 4802.6362 4803.5352 68.4039
-247.1826 96.1125 536.9967 4803.6362 4804.5352 68.0836
-248.0551 96.1185 537.4857 4804.6362 4805.5352 67.7621
-248.9275 96.1246 537.9747 4805.6362 4806.5352 67.4396
-249.7998 96.1308 538.4639 4806.6367 4807.5356 67.1161
-250.6721 96.1371 538.9533 4807.6367 4808.5356 66.7914
-251.5444 96.1433 539.4427 4808.6367 4809.5361 66.4657
-252.4166 96.1495 539.9322 4809.6367 4810.5361 66.1388
-253.2889 96.1554 540.4216 4810.6372 4811.5366 65.8108
-254.1613 96.1612 540.9108 4811.6372 4812.5366 65.4816
-255.0337 96.1667 541.4000 4812.6372 4813.5366 65.1513
-255.9062 96.1720 541.8889 4813.6377 4814.5371 64.8198
-256.7788 96.1770 542.3775 4814.6377 4815.5371 64.4871
-257.6516 96.1817 542.8658 4815.6377 4816.5371 64.1532
-258.5247 96.1862 543.3537 4816.6377 4817.5371 63.8181
-259.3979 96.1903 543.8412 4817.6382 4818.5376 63.4817
-260.2714 96.1941 544.3284 4818.6382 4819.5376 63.1440
-261.1451 96.1976 544.8151 4819.6382 4820.5376 62.8051
-262.0191 96.2006 545.3013 4820.6382 4821.5376 62.4648
-262.8933 96.2032 545.7872 4821.6387 4822.5381 62.1233
-263.7678 96.2055 546.2725 4822.6387 4823.5381 61.7803
-264.6426 96.2074 546.7573 4823.6387 4824.5386 61.4361
-265.5177 96.2089 547.2416 4824.6387 4825.5386 61.0904
-266.3932 96.2100 547.7252 4825.6392 4826.5391 60.7434
-267.2691 96.2108 548.2081 4826.6392 4827.5391 60.3949
-268.1454 96.2112 548.6901 4827.6392 4828.5391 60.0449
-269.0222 96.2114 549.1713 4828.6396 4829.5396 59.6935
-269.8995 96.2113 549.6517 4829.6396 4830.5396 59.3406
-270.7772 96.2109 550.1312 4830.6396 4831.5396 58.9862
-271.6553 96.2103 550.6100 4831.6396 4832.5396 58.6302
-272.5337 96.2095 551.0883 4832.6401 4833.5400 58.2727
-273.4123 96.2087 551.5663 4833.6401 4834.5400 57.9135
-274.2910 96.2077 552.0440 4834.6401 4835.5400 57.5527
-275.1697 96.2068 552.5217 4835.6401 4836.5405 57.1903
-276.0485 96.2058 552.9993 4836.6406 4837.5410 56.8262
-276.9273 96.2049 553.4768 4837.6406 4838.5410 56.4604
-277.8062 96.2039 553.9543 4838.6406 4839.5410 56.0928
-278.6850 96.2029 554.4319 4839.6411 4840.5415 55.7235
-279.5638 96.2019 554.9094 4840.6411 4841.5415 55.3524
-280.4426 96.2009 555.3870 4841.6411 4842.5415 54.9794
-281.3214 96.1998 555.8644 4842.6411 4843.5415 54.6045
-282.2003 96.1985 556.3418 4843.6416 4844.5420 54.2278
-283.0793 96.1972 556.8190 4844.6416 4845.5420 53.8491
-283.9584 96.1957 557.2960 4845.6416 4846.5420 53.4684
-284.8377 96.1940 557.7726 4846.6416 4847.5420 53.0857
-285.7174 96.1921 558.2486 4847.6421 4848.5425 52.7009
-286.5974 96.1901 558.7239 4848.6421 4849.5430 52.3140
-287.4779 96.1878 559.1983 4849.6421 4850.5430 51.9250
-288.3589 96.1853 559.6719 4850.6426 4851.5435 51.5338
-289.2403 96.1827 560.1446 4851.6426 4852.5435 51.1403
-290.1220 96.1799 560.6168 4852.6426 4853.5435 50.7446
-291.0039 96.1768 561.0885 4853.6426 4854.5435 50.3465
-291.8859 96.1737 561.5600 4854.6431 4855.5439 49.9460
-292.7680 96.1703 562.0314 4855.6431 4856.5439 49.5431
-293.6500 96.1669 562.5027 4856.6431 4857.5439 49.1377
-294.5320 96.1633 562.9739 4857.6431 4858.5439 48.7298
-295.4141 96.1595 563.4452 4858.6436 4859.5439 48.3192
-296.2961 96.1556 563.9165 4859.6436 4860.5439 47.9060
-297.1780 96.1516 564.3878 4860.6436 4861.5439 47.4900
-298.0600 96.1474 564.8592 4861.6440 4862.5444 47.0713
-298.9420 96.1430 565.3306 4862.6440 4863.5444 46.6496
-299.8240 96.1384 565.8020 4863.6440 4864.5444 46.2250
-300.7060 96.1336 566.2734 4864.6440 4865.5439 45.7974
-301.5880 96.1286 566.7448 4865.6445 4866.5444 45.3678
-302.4700 96.1232 567.2162 4866.6445 4867.5444 44.9373
-303.3520 96.1176 567.6877 4867.6445 4868.5444 44.5058
-304.2340 96.1116 568.1590 4868.6445 4869.5444 44.0735
-305.1160 96.1054 568.6303 4869.6450 4870.5449 43.6402
-305.9981 96.0988 569.1015 4870.6450 4871.5449 43.2059
-306.8802 96.0919 569.5727 4871.6450 4872.5449 42.7706
-307.7624 96.0847 570.0437 4872.6455 4873.5454 42.3343
-308.6447 96.0773 570.5145 4873.6455 4874.5454 41.8970
-309.5271 96.0697 570.9853 4874.6455 4875.5454 41.4586
-310.4095 96.0620 571.4559 4875.6455 4876.5454 41.0192
-311.2920 96.0541 571.9263 4876.6460 4877.5454 40.5786
-312.1746 96.0462 572.3967 4877.6460 4878.5454 40.1369
-313.0572 96.0383 572.8668 4878.6460 4879.5454 39.6940
-313.9399 96.0302 573.3369 4879.6460 4880.5454 39.2500
-314.8226 96.0222 573.8069 4880.6465 4881.5459 38.8047
-315.7054 96.0140 574.2769 4881.6465 4882.5459 38.3581
-316.5882 96.0058 574.7468 4882.6465 4883.5459 37.9103
-317.4710 95.9974 575.2166 4883.6465 4884.5459 37.4611
-318.3539 95.9889 575.6863 4884.6470 4885.5464 37.0106
-319.2368 95.9801 576.1561 4885.6470 4886.5464 36.5587
-320.1196 95.9712 576.6260 4886.6470 4887.5464 36.1053
-321.0023 95.9620 577.0958 4887.6475 4888.5469 35.6504
-321.8851 95.9526 577.5657 4888.6475 4889.5469 35.1941
-322.7679 95.9430 578.0357 4889.6475 4890.5469 34.7361
-323.6506 95.9331 578.5057 4890.6475 4891.5464 34.2765
-324.5333 95.9230 578.9758 4891.6479 4892.5469 33.8153
-325.4159 95.9127 579.4459 4892.6479 4893.5469 33.3524
-326.2986 95.9023 579.9161 4893.6479 4894.5469 32.8876
-327.1812 95.8918 580.3863 4894.6479 4895.5469 32.4211
-328.0638 95.8813 580.8566 4895.6484 4896.5474 31.9526
-328.9464 95.8708 581.3269 4896.6484 4897.5474 31.4822
-329.8289 95.8603 581.7974 4897.6484 4898.5479 31.0098
-330.7116 95.8499 582.2678 4898.6489 4899.5479 30.5352
-331.5943 95.8396 582.7383 4899.6489 4900.5483 30.0585
-332.4771 95.8294 583.2084 4900.6489 4901.5483 29.5796
-333.3603 95.8192 583.6782 4901.6489 4902.5488 29.0983
-334.2438 95.8091 584.1470 4902.6494 4903.5493 28.6145
-335.1281 95.7990 584.6143 4903.6494 4904.5493 28.1283
-336.0134 95.7888 585.0797 4904.6494 4905.5493 27.6394
-336.9000 95.7785 585.5424 4905.6494 4906.5493 27.1478
-337.7881 95.7682 586.0023 4906.6499 4907.5498 26.6533
-338.6777 95.7577 586.4589 4907.6499 4908.5498 26.1559
-339.5691 95.7472 586.9124 4908.6499 4909.5498 25.6553
-340.4620 95.7367 587.3626 4909.6504 4910.5503 25.1515
-341.3569 95.7262 587.8092 4910.6504 4911.5503 24.6442
-342.2539 95.7157 588.2515 4911.6504 4912.5503 24.1334
-343.1536 95.7054 588.6884 4912.6504 4913.5503 23.6189
-344.0566 95.6950 589.1182 4913.6509 4914.5508 23.1003
-344.9641 95.6846 589.5385 4914.6509 4915.5508 22.5776
-345.8774 95.6738 589.9464 4915.6509 4916.5508 22.0505
-346.7975 95.6625 590.3384 4916.6509 4917.5513 21.5187
-347.7257 95.6504 590.7107 4917.6514 4918.5518 20.9820
-348.6627 95.6375 591.0600 4918.6514 4919.5518 20.4401
-349.6090 95.6234 591.3833 4919.6514 4920.5518 19.8926
-350.5646 95.6081 591.6783 4920.6519 4921.5522 19.3473
-351.5288 95.5916 591.9434 4921.6519 4922.5522 19.1112
-352.5010 95.5740 592.1774 4922.6519 4923.5522 18.9783
-353.4804 95.5557 592.3798 4923.6519 4924.5527 19.0443
-354.4659 95.5370 592.5505 4924.6523 4925.5527 19.0973
-355.4561 95.5183 592.6899 4925.6523 4926.5532 18.5345
-356.4503 95.4996 592.7979 4926.6523 4927.5537 17.9646
