VERSION 0.7
FIELDS x y z arclength lapdistance speed
SIZE 4 4 4 4 4 4
TYPE F F F F F F
COUNT 1 1 1 1 1 1
WIDTH 879
HEIGHT 1
VIEWPOINT 0.000 0.000 0.000 1.000 0.000 0.000 0.000
POINTS 879
DATA ascii
-25.9812 97.4378 244.4696 3630.9216 3655.9690 59.6934
-25.3968 97.4673 243.6578 3631.9219 3656.9343 59.8588
-24.8183 97.4965 242.8418 3632.9221 3657.9001 60.0229
-24.2456 97.5254 242.0215 3633.9224 3658.8667 60.1857
-23.6790 97.5541 241.1972 3634.9226 3659.8342 60.3473
-23.1183 97.5825 240.3689 3635.9229 3660.8022 60.5075
-22.5636 97.6106 239.5366 3636.9231 3661.7708 60.6666
-22.0147 97.6386 238.7004 3637.9233 3662.7395 60.8244
-21.4716 97.6663 237.8604 3638.9236 3663.7085 60.9810
-20.9339 97.6940 237.0169 3639.9238 3664.6770 61.1364
-20.4014 97.7215 236.1701 3640.9241 3665.6453 61.2906
-19.8736 97.7489 235.3204 3641.9243 3666.6133 61.4436
-19.3501 97.7763 234.4680 3642.9246 3667.5801 61.5955
-18.8305 97.8037 233.6133 3643.9248 3668.5464 61.7463
-18.3145 97.8311 232.7564 3644.9250 3669.5122 61.8959
-17.8019 97.8584 231.8975 3645.9253 3670.4773 62.0444
-17.2927 97.8858 231.0367 3646.9255 3671.4419 62.1918
-16.7868 97.9131 230.1738 3647.9258 3672.4062 62.3382
-16.2841 97.9405 229.3091 3648.9260 3673.3704 62.4834
-15.7847 97.9678 228.4425 3649.9263 3674.3340 62.6276
-15.2887 97.9951 227.5739 3650.9265 3675.2976 62.7708
-14.7961 98.0224 226.7034 3651.9268 3676.2612 62.9129
-14.3069 98.0496 225.8310 3652.9272 3677.2246 63.0540
-13.8213 98.0768 224.9565 3653.9275 3678.1880 63.1941
-13.3394 98.1039 224.0801 3654.9277 3679.1514 63.3332
-12.8613 98.1309 223.2016 3655.9280 3680.1150 63.4713
-12.3872 98.1579 222.3208 3656.9282 3681.0786 63.6085
-11.9173 98.1849 221.4379 3657.9285 3682.0422 63.7446
-11.4519 98.2118 220.5525 3658.9287 3683.0063 63.8799
-10.9911 98.2387 219.6648 3659.9290 3683.9705 64.0142
-10.5351 98.2657 218.7745 3660.9292 3684.9353 64.1475
-10.0839 98.2927 217.8818 3661.9294 3685.9006 64.2799
-9.6378 98.3200 216.9865 3662.9297 3686.8667 64.4114
-9.1968 98.3473 216.0887 3663.9299 3687.8340 64.5421
-8.7611 98.3749 215.1882 3664.9302 3688.8027 64.6718
-8.3307 98.4028 214.2853 3665.9304 3689.7742 64.8006
-7.9058 98.4309 213.3798 3666.9307 3690.7478 64.9286
-7.4863 98.4593 212.4718 3667.9309 3691.7251 65.0557
-7.0725 98.4879 211.5613 3668.9312 3692.7063 65.1819
-6.6642 98.5168 210.6482 3669.9314 3693.6904 65.3073
-6.2616 98.5460 209.7326 3670.9316 3694.6780 65.4319
-5.8647 98.5754 208.8145 3671.9319 3695.6665 65.5557
-5.4736 98.6051 207.8939 3672.9321 3696.6570 65.6786
-5.0882 98.6350 206.9708 3673.9324 3697.6475 65.8007
-4.7086 98.6651 206.0453 3674.9326 3698.6384 65.9220
-4.3350 98.6954 205.1174 3675.9329 3699.6292 66.0425
-3.9673 98.7260 204.1872 3676.9331 3700.6199 66.1622
-3.6056 98.7567 203.2546 3677.9336 3701.6101 66.2812
-3.2497 98.7877 202.3198 3678.9338 3702.6001 66.3994
-2.8996 98.8188 201.3828 3679.9341 3703.5901 66.5168
-2.5549 98.8502 200.4438 3680.9343 3704.5796 66.6335
-2.2153 98.8818 199.5030 3681.9346 3705.5691 66.7494
-1.8801 98.9136 198.5606 3682.9348 3706.5583 66.8646
-1.5486 98.9455 197.6169 3683.9351 3707.5476 66.9790
-1.2198 98.9776 196.6723 3684.9353 3708.5369 67.0927
-0.8931 99.0097 195.7269 3685.9355 3709.5261 67.2057
-0.5678 99.0419 194.7811 3686.9358 3710.5156 67.3180
-0.2433 99.0741 193.8350 3687.9360 3711.5049 67.4296
0.0808 99.1064 192.8887 3688.9363 3712.4944 67.5405
0.4048 99.1386 191.9424 3689.9365 3713.4841 67.6507
0.7290 99.1709 190.9961 3690.9368 3714.4741 67.7602
1.0537 99.2031 190.0501 3691.9370 3715.4646 67.8690
1.3793 99.2353 189.1043 3692.9373 3716.4553 67.9772
1.7059 99.2674 188.1589 3693.9375 3717.4470 68.0847
2.0338 99.2994 187.2139 3694.9377 3718.4397 68.1915
2.3630 99.3314 186.2694 3695.9380 3719.4341 67.9790
2.6934 99.3632 185.3253 3696.9382 3720.4299 67.4418
3.0248 99.3950 184.3816 3697.9385 3721.4275 66.9016
3.3570 99.4267 183.4381 3698.9387 3722.4265 66.3583
3.6897 99.4583 182.4948 3699.9390 3723.4263 65.8119
4.0230 99.4898 181.5518 3700.9392 3724.4268 65.2624
4.3568 99.5212 180.6089 3701.9395 3725.4277 64.7095
4.6915 99.5526 179.6664 3702.9399 3726.4287 64.1533
5.0273 99.5839 178.7242 3703.9402 3727.4299 63.5937
5.3643 99.6153 177.7824 3704.9404 3728.4309 63.0306
5.7025 99.6466 176.8411 3705.9407 3729.4321 62.4638
6.0416 99.6780 175.9001 3706.9409 3730.4331 61.8934
6.3814 99.7095 174.9593 3707.9412 3731.4341 61.3193
6.7217 99.7411 174.0187 3708.9414 3732.4351 60.7412
7.0624 99.7728 173.0782 3709.9417 3733.4360 60.1592
7.4036 99.8045 172.1379 3710.9419 3734.4370 59.5731
7.7459 99.8364 171.1980 3711.9421 3735.4380 58.9828
8.0899 99.8684 170.2587 3712.9424 3736.4387 58.3882
8.4366 99.9003 169.3205 3713.9426 3737.4392 57.7892
8.7871 99.9323 168.3837 3714.9429 3738.4395 57.1856
9.1421 99.9642 167.4485 3715.9431 3739.4395 56.5773
9.5020 99.9960 166.5152 3716.9434 3740.4392 55.9643
9.8670 100.0277 165.5839 3717.9436 3741.4385 55.3462
10.2364 100.0594 164.6544 3718.9438 3742.4380 54.7231
10.6093 100.0911 163.7264 3719.9441 3743.4382 54.0946
10.9849 100.1229 162.7993 3720.9443 3744.4395 53.4607
11.3619 100.1548 161.8728 3721.9446 3745.4446 52.8212
11.7398 100.1868 160.9467 3722.9448 3746.4531 52.1758
12.1180 100.2191 160.0208 3723.9451 3747.4690 51.5244
12.4965 100.2517 159.0949 3724.9453 3748.4922 50.8668
12.8753 100.2847 158.1692 3725.9456 3749.5229 50.2027
13.2549 100.3181 157.2437 3726.9458 3750.5613 49.5319
13.6353 100.3521 156.3187 3727.9463 3751.6028 48.8542
14.0170 100.3866 155.3941 3728.9465 3752.6479 48.1693
14.4001 100.4216 154.4700 3729.9468 3753.6934 47.4768
14.7847 100.4571 153.5467 3730.9470 3754.7390 46.7765
15.1707 100.4930 152.6240 3731.9473 3755.7844 46.0681
15.5585 100.5293 151.7019 3732.9475 3756.8293 45.3512
15.9481 100.5659 150.7806 3733.9478 3757.8730 44.6312
16.3398 100.6026 149.8602 3734.9480 3758.9163 43.9086
16.7341 100.6394 148.9409 3735.9482 3759.9592 43.1833
17.1315 100.6762 148.0230 3736.9485 3761.0017 42.4552
17.5326 100.7129 147.1067 3737.9487 3762.0442 41.7242
17.9384 100.7495 146.1925 3738.9490 3763.0869 40.9902
18.3500 100.7858 145.2809 3739.9492 3764.1299 40.2530
18.7688 100.8219 144.3726 3740.9495 3765.1736 39.5126
19.1970 100.8578 143.4687 3741.9497 3766.2180 38.7687
19.6370 100.8935 142.5704 3742.9500 3767.2639 38.0213
20.0912 100.9290 141.6793 3743.9502 3768.3113 37.2701
20.5617 100.9644 140.7967 3744.9504 3769.3599 36.5151
21.0499 100.9998 139.9238 3745.9507 3770.4102 36.1008
21.5558 101.0351 139.0610 3746.9509 3771.4607 36.5748
22.0780 101.0704 138.2078 3747.9512 3772.5115 37.0387
22.6140 101.1057 137.3633 3748.9514 3773.5620 37.4931
23.1606 101.1410 136.5256 3749.9517 3774.6125 37.9382
23.7151 101.1762 135.6931 3750.9519 3775.6616 38.3746
24.2756 101.2114 134.8647 3751.9521 3776.7100 38.8027
24.8413 101.2465 134.0399 3752.9526 3777.7576 39.2226
25.4123 101.2816 133.2187 3753.9529 3778.8044 39.6348
25.9886 101.3166 132.4012 3754.9531 3779.8511 40.0396
26.5704 101.3517 131.5875 3755.9534 3780.8972 40.4371
27.1575 101.3869 130.7776 3756.9536 3781.9431 40.8278
27.7499 101.4221 129.9715 3757.9539 3782.9888 41.2119
28.3473 101.4575 129.1692 3758.9541 3784.0344 41.5895
28.9495 101.4929 128.3706 3759.9543 3785.0801 41.9609
29.5566 101.5284 127.5757 3760.9546 3786.1260 42.3264
30.1686 101.5640 126.7845 3761.9548 3787.1726 42.6860
30.7859 101.5997 125.9974 3762.9551 3788.2197 43.0401
31.4088 101.6355 125.2147 3763.9553 3789.2678 43.3887
32.0381 101.6714 124.4372 3764.9556 3790.3167 43.7321
32.6745 101.7073 123.6656 3765.9558 3791.3667 44.0704
33.3188 101.7432 122.9005 3766.9561 3792.4180 44.4037
33.9713 101.7791 122.1424 3767.9563 3793.4700 44.7322
34.6319 101.8150 121.3912 3768.9565 3794.5232 45.0561
35.2998 101.8509 120.6465 3769.9568 3795.5769 45.3754
35.9735 101.8867 119.9072 3770.9570 3796.6301 45.6903
36.6518 101.9225 119.1722 3771.9573 3797.6831 46.0010
37.3334 101.9583 118.4401 3772.9575 3798.7356 46.3075
38.0172 101.9940 117.7099 3773.9578 3799.7869 46.6099
38.7023 102.0297 116.9812 3774.9580 3800.8372 46.9083
39.3888 102.0654 116.2538 3775.9583 3801.8860 47.2030
40.0770 102.1010 115.5280 3776.9585 3802.9338 47.4938
40.7678 102.1365 114.8045 3777.9590 3803.9807 47.7810
41.4621 102.1719 114.0843 3778.9592 3805.0269 48.0646
42.1612 102.2073 113.3690 3779.9595 3806.0720 48.3448
42.8667 102.2426 112.6600 3780.9597 3807.1169 48.2583
43.5798 102.2780 111.9586 3781.9600 3808.1616 47.5668
44.3017 102.3134 111.2661 3782.9602 3809.2063 46.8676
45.0325 102.3491 110.5832 3783.9604 3810.2507 46.1602
45.7725 102.3849 109.9103 3784.9607 3811.2957 46.4646
46.5215 102.4209 109.2475 3785.9609 3812.3408 46.7650
47.2790 102.4571 108.5943 3786.9612 3813.3865 47.0614
48.0443 102.4935 107.9504 3787.9614 3814.4329 47.3541
48.8166 102.5301 107.3148 3788.9617 3815.4805 47.6430
49.5947 102.5669 106.6863 3789.9619 3816.5288 47.9283
50.3775 102.6038 106.0636 3790.9622 3817.5786 48.2101
51.1639 102.6407 105.4454 3791.9624 3818.6299 48.4885
51.9531 102.6778 104.8310 3792.9626 3819.6821 48.7635
52.7450 102.7147 104.2198 3793.9629 3820.7358 49.0352
53.5396 102.7516 103.6121 3794.9631 3821.7898 49.3037
54.3373 102.7882 103.0088 3795.9634 3822.8435 49.5691
55.1389 102.8245 102.4105 3796.9636 3823.8970 49.8313
55.9450 102.8605 101.8182 3797.9639 3824.9495 50.0906
56.7561 102.8961 101.2328 3798.9641 3826.0010 50.3470
57.5727 102.9312 100.6551 3799.9644 3827.0513 50.6005
58.3951 102.9659 100.0857 3800.9646 3828.1003 50.8511
59.2236 103.0002 99.5252 3801.9648 3829.1489 51.0990
60.0581 103.0341 98.9739 3802.9653 3830.1965 51.3443
60.8990 103.0676 98.4323 3803.9656 3831.2437 51.0006
61.7461 103.1009 97.9004 3804.9658 3832.2908 50.7065
62.5993 103.1338 97.3785 3805.9661 3833.3376 50.6351
63.4587 103.1665 96.8667 3806.9663 3834.3848 50.6393
64.3240 103.1991 96.3650 3807.9666 3835.4326 50.7678
65.1951 103.2314 95.8734 3808.9668 3836.4810 51.0167
66.0718 103.2635 95.3920 3809.9670 3837.5305 51.2628
66.9540 103.2955 94.9206 3810.9673 3838.5808 51.5062
67.8413 103.3274 94.4588 3811.9675 3839.6323 51.7471
68.7333 103.3591 94.0060 3812.9678 3840.6853 51.9853
69.6293 103.3907 93.5615 3813.9680 3841.7388 52.2211
70.5289 103.4222 93.1239 3814.9683 3842.7925 52.4544
71.4311 103.4536 92.6920 3815.9685 3843.8464 52.6854
72.3355 103.4849 92.2646 3816.9688 3844.8997 52.9139
73.2414 103.5161 91.8407 3817.9690 3845.9514 53.1401
74.1486 103.5473 91.4194 3818.9692 3847.0022 53.3641
75.0569 103.5784 91.0004 3819.9695 3848.0515 53.5858
75.9663 103.6095 90.5838 3820.9697 3849.0996 53.8053
76.8772 103.6405 90.1705 3821.9700 3850.1465 54.0227
77.7902 103.6715 89.7619 3822.9702 3851.1924 54.2379
78.7059 103.7025 89.3593 3823.9705 3852.2375 54.4511
79.6248 103.7334 88.9641 3824.9707 3853.2820 54.6622
80.5471 103.7643 88.5771 3825.9709 3854.3259 54.8713
81.4732 103.7950 88.1990 3826.9712 3855.3696 55.0784
82.4029 103.8257 87.8300 3827.9717 3856.4133 55.2836
83.3361 103.8561 87.4698 3828.9719 3857.4568 55.4869
84.2724 103.8864 87.1179 3829.9722 3858.5005 54.9699
85.2116 103.9165 86.7735 3830.9724 3859.5444 54.3436
86.1531 103.9464 86.4358 3831.9727 3860.5884 53.7118
87.0969 103.9760 86.1047 3832.9729 3861.6331 53.0745
88.0429 104.0054 85.7799 3833.9731 3862.6785 52.4315
88.9911 104.0345 85.4618 3834.9734 3863.7249 51.7825
89.9419 104.0635 85.1510 3835.9736 3864.7720 51.1274
90.8953 104.0922 84.8486 3836.9739 3865.8203 50.4659
91.8517 104.1208 84.5557 3837.9741 3866.8701 49.7978
92.8114 104.1492 84.2735 3838.9744 3867.9202 49.1229
93.7744 104.1775 84.0030 3839.9746 3868.9709 49.0689
94.7406 104.2057 83.7445 3840.9749 3870.0217 49.2993
95.7099 104.2338 83.4977 3841.9751 3871.0720 49.5647
96.6819 104.2617 83.2615 3842.9753 3872.1216 49.8271
97.6561 104.2895 83.0348 3843.9756 3873.1704 50.0864
98.6321 104.3170 82.8163 3844.9758 3874.2178 50.3428
99.6097 104.3444 82.6048 3845.9761 3875.2646 50.5963
100.5888 104.3714 82.3999 3846.9763 3876.3103 50.8470
101.5691 104.3981 82.2013 3847.9766 3877.3557 51.0950
102.5508 104.4245 82.0093 3848.9768 3878.4006 51.3403
103.5338 104.4506 81.8243 3849.9771 3879.4456 51.5829
104.5183 104.4762 81.6472 3850.9773 3880.4902 51.8229
105.5042 104.5015 81.4786 3851.9775 3881.5349 52.0604
106.4916 104.5265 81.3192 3852.9780 3882.5798 52.2954
107.4806 104.5511 81.1696 3853.9783 3883.6257 52.5279
108.4711 104.5755 81.0300 3854.9785 3884.6719 52.7581
109.4630 104.5997 80.9007 3855.9788 3885.7190 52.9859
110.4562 104.6236 80.7817 3856.9790 3886.7673 53.2114
111.4506 104.6475 80.6732 3857.9792 3887.8164 53.4346
112.4461 104.6712 80.5750 3858.9795 3888.8667 53.6556
113.4424 104.6948 80.4872 3859.9797 3889.9175 53.8744
114.4396 104.7184 80.4097 3860.9800 3890.9690 54.0911
115.4376 104.7420 80.3422 3861.9802 3892.0205 54.3057
116.4362 104.7654 80.2845 3862.9805 3893.0715 54.5182
117.4353 104.7888 80.2361 3863.9807 3894.1223 54.7287
118.4348 104.8121 80.1964 3864.9810 3895.1719 54.9372
119.4345 104.8353 80.1648 3865.9812 3896.2202 55.1437
120.4345 104.8583 80.1405 3866.9814 3897.2678 55.3483
121.4346 104.8811 80.1230 3867.9817 3898.3145 55.5510
122.4349 104.9037 80.1117 3868.9819 3899.3604 55.7518
123.4351 104.9260 80.1065 3869.9822 3900.4055 55.9508
124.4354 104.9481 80.1073 3870.9824 3901.4507 56.1480
125.4357 104.9699 80.1146 3871.9827 3902.4951 56.3434
126.4359 104.9916 80.1289 3872.9829 3903.5396 56.3710
127.4360 105.0130 80.1508 3873.9832 3904.5842 55.7563
128.4358 105.0342 80.1812 3874.9834 3905.6289 55.1365
129.4353 105.0553 80.2211 3875.9836 3906.6738 54.5116
130.4343 105.0763 80.2710 3876.9839 3907.7192 53.8813
131.4328 105.0973 80.3315 3877.9841 3908.7654 53.2456
132.4305 105.1183 80.4028 3878.9846 3909.8125 53.0257
133.4273 105.1393 80.4850 3879.9849 3910.8606 53.2508
134.4233 105.1603 80.5777 3880.9851 3911.9099 52.6477
135.4182 105.1814 80.6807 3881.9854 3912.9607 52.0008
136.4121 105.2025 80.7933 3882.9856 3914.0132 51.3477
137.4049 105.2236 80.9148 3883.9858 3915.0674 50.6884
138.3967 105.2446 81.0443 3884.9861 3916.1235 50.0225
139.3876 105.2654 81.1807 3885.9863 3917.1809 49.3499
140.3778 105.2860 81.3228 3886.9866 3918.2388 48.6703
141.3673 105.3063 81.4692 3887.9868 3919.2971 47.9833
142.3564 105.3263 81.6186 3888.9871 3920.3550 47.2888
143.3451 105.3459 81.7702 3889.9873 3921.4119 46.5864
144.3336 105.3651 81.9234 3890.9875 3922.4680 45.8757
145.3219 105.3838 82.0779 3891.9878 3923.5227 45.1575
146.3099 105.4022 82.2338 3892.9880 3924.5762 44.4368
147.2976 105.4201 82.3918 3893.9883 3925.6284 43.7135
148.2848 105.4376 82.5527 3894.9885 3926.6797 42.9875
149.2714 105.4545 82.7179 3895.9888 3927.7302 42.2586
150.2569 105.4707 82.8894 3896.9890 3928.7808 41.5268
151.2408 105.4863 83.0693 3897.9893 3929.8308 40.7919
152.2227 105.5012 83.2601 3898.9895 3930.8816 40.0539
153.2019 105.5155 83.4640 3899.9897 3931.9329 39.3125
154.1778 105.5292 83.6832 3900.9900 3932.9851 38.5677
155.1497 105.5424 83.9195 3901.9902 3934.0388 37.8193
156.1169 105.5552 84.1739 3902.9905 3935.0935 37.8636
157.0793 105.5679 84.4466 3903.9910 3936.1482 38.1775
158.0364 105.5806 84.7370 3904.9912 3937.2026 38.6093
158.9884 105.5934 85.0437 3905.9915 3938.2566 39.0329
159.9358 105.6065 85.3645 3906.9917 3939.3069 39.4485
160.8793 105.6200 85.6966 3907.9919 3940.3538 39.8566
161.8197 105.6340 86.0372 3908.9922 3941.3960 40.2575
162.7580 105.6487 86.3838 3909.9924 3942.4341 40.6512
163.6947 105.6640 86.7347 3910.9927 3943.4695 41.0383
164.6299 105.6800 87.0896 3911.9929 3944.5020 41.4188
165.5634 105.6964 87.4485 3912.9932 3945.5337 41.7930
166.4951 105.7133 87.8124 3913.9934 3946.5645 42.1612
167.4245 105.7303 88.1820 3914.9937 3947.5947 42.5234
168.3514 105.7473 88.5579 3915.9939 3948.6252 42.8800
169.2757 105.7640 88.9404 3916.9941 3949.6558 43.2311
170.1973 105.7802 89.3292 3917.9944 3950.6863 43.5768
171.1165 105.7958 89.7237 3918.9946 3951.7173 43.9174
172.0337 105.8105 90.1229 3919.9949 3952.7488 44.2529
172.9491 105.8244 90.5262 3920.9951 3953.7808 44.5836
173.8629 105.8373 90.9330 3921.9954 3954.8135 44.9096
174.7753 105.8493 91.3430 3922.9956 3955.8469 45.2309
175.6861 105.8605 91.7564 3923.9958 3956.8811 45.5479
176.5952 105.8709 92.1735 3924.9961 3957.9158 45.8604
177.5026 105.8808 92.5942 3925.9963 3958.9504 46.1688
178.4085 105.8902 93.0183 3926.9966 3959.9854 46.4730
179.3130 105.8995 93.4453 3927.9968 3961.0186 46.7733
180.2165 105.9089 93.8745 3928.9973 3962.0496 47.0696
181.1191 105.9184 94.3055 3929.9976 3963.0764 47.3622
182.0209 105.9282 94.7382 3930.9978 3964.0974 47.6510
182.9220 105.9383 95.1724 3931.9980 3965.1125 47.9363
183.8222 105.9488 95.6082 3932.9983 3966.1216 48.2180
184.7216 105.9595 96.0459 3933.9985 3967.1267 48.4962
185.6202 105.9704 96.4855 3934.9988 3968.1287 48.7711
186.5176 105.9815 96.9272 3935.9990 3969.1289 49.0427
187.4141 105.9925 97.3711 3936.9993 3970.1282 49.3111
188.3096 106.0034 97.8168 3937.9995 3971.1272 49.5764
189.2043 106.0142 98.2639 3938.9998 3972.1260 49.8386
190.0987 106.0247 98.7119 3940.0000 3973.1252 50.0978
190.9928 106.0350 99.1602 3941.0002 3974.1245 50.3541
191.8869 106.0449 99.6086 3942.0005 3975.1240 50.6075
192.7811 106.0545 100.0569 3943.0007 3976.1238 50.8581
193.6753 106.0638 100.5050 3944.0010 3977.1235 51.1059
194.5697 106.0729 100.9528 3945.0012 3978.1235 51.3511
195.4642 106.0817 101.4004 3946.0015 3979.1235 51.5936
196.3588 106.0902 101.8478 3947.0017 3980.1235 51.8335
197.2535 106.0986 102.2950 3948.0020 3981.1235 52.0708
198.1483 106.1068 102.7420 3949.0022 3982.1235 52.3057
199.0431 106.1147 103.1889 3950.0024 3983.1235 52.5382
199.9381 106.1225 103.6356 3951.0027 3984.1235 52.7682
200.8331 106.1301 104.0823 3952.0029 3985.1235 52.9959
201.7282 106.1374 104.5288 3953.0032 3986.1235 53.2213
202.6234 106.1446 104.9752 3954.0037 3987.1235 53.4445
203.5185 106.1516 105.4215 3955.0039 3988.1233 53.6654
204.4137 106.1584 105.8677 3956.0042 3989.1230 53.8841
205.3090 106.1650 106.3138 3957.0044 3990.1228 54.1007
206.2044 106.1713 106.7598 3958.0046 3991.1228 54.3152
207.0998 106.1775 107.2056 3959.0049 3992.1223 54.5276
207.9951 106.1836 107.6514 3960.0051 3993.1221 54.7380
208.8906 106.1894 108.0971 3961.0054 3994.1218 54.9464
209.7860 106.1951 108.5426 3962.0056 3995.1213 55.1528
210.6816 106.2007 108.9881 3963.0059 3996.1211 55.3573
211.5772 106.2061 109.4334 3964.0061 3997.1206 55.5599
212.4729 106.2113 109.8786 3965.0063 3998.1204 55.7607
213.3686 106.2164 110.3238 3966.0066 3999.1199 55.9596
214.2643 106.2214 110.7688 3967.0068 4000.1196 56.1567
215.1601 106.2262 111.2137 3968.0071 4001.1191 56.3520
216.0560 106.2308 111.6584 3969.0073 4002.1189 56.5456
216.9519 106.2352 112.1031 3970.0076 4003.1184 56.7375
217.8479 106.2394 112.5477 3971.0078 4004.1182 56.9276
218.7439 106.2433 112.9921 3972.0081 4005.1177 57.1161
219.6400 106.2470 113.4364 3973.0083 4006.1174 57.3030
220.5362 106.2505 113.8806 3974.0085 4007.1172 57.4882
221.4324 106.2538 114.3247 3975.0088 4008.1167 57.6718
222.3287 106.2569 114.7686 3976.0090 4009.1165 57.8539
223.2250 106.2599 115.2125 3977.0093 4010.1160 58.0344
224.1214 106.2628 115.6562 3978.0095 4011.1157 58.2134
225.0178 106.2657 116.0998 3979.0100 4012.1152 58.3909
225.9143 106.2687 116.5434 3980.0103 4013.1150 58.5669
226.8108 106.2718 116.9869 3981.0105 4014.1145 58.7415
227.7074 106.2751 117.4303 3982.0107 4015.1143 58.9146
228.6041 106.2786 117.8738 3983.0110 4016.1140 59.0863
229.5007 106.2822 118.3173 3984.0112 4017.1138 59.2566
230.3973 106.2860 118.7608 3985.0115 4018.1138 59.4255
231.2940 106.2899 119.2043 3986.0117 4019.1135 59.5931
232.1905 106.2939 119.6479 3987.0120 4020.1133 59.7593
233.0870 106.2977 120.0914 3988.0122 4021.1128 59.9242
233.9835 106.3014 120.5350 3989.0125 4022.1125 60.0878
234.8799 106.3048 120.9786 3990.0127 4023.1121 60.2501
235.7764 106.3078 121.4222 3991.0129 4024.1118 60.4112
236.6728 106.3104 121.8659 3992.0132 4025.1113 60.5709
237.5692 106.3126 122.3096 3993.0134 4026.1111 60.7295
238.4656 106.3142 122.7533 3994.0137 4027.1106 60.8868
239.3620 106.3153 123.1970 3995.0139 4028.1104 61.0429
240.2585 106.3160 123.6408 3996.0142 4029.1101 61.1978
241.1549 106.3163 124.0846 3997.0144 4030.1099 61.3516
242.0514 106.3162 124.5284 3998.0146 4031.1096 61.5042
242.9478 106.3158 124.9723 3999.0149 4032.1094 61.6556
243.8442 106.3152 125.4162 4000.0151 4033.1091 61.8059
244.7406 106.3145 125.8601 4001.0154 4034.1089 61.9551
245.6370 106.3137 126.3040 4002.0156 4035.1086 62.1032
246.5333 106.3128 126.7479 4003.0159 4036.1082 62.2501
247.4296 106.3118 127.1919 4004.0164 4037.1077 62.3961
248.3259 106.3108 127.6360 4005.0166 4038.1069 62.5409
249.2221 106.3097 128.0800 4006.0168 4039.1060 62.6847
250.1184 106.3086 128.5242 4007.0171 4040.1050 62.8274
251.0147 106.3073 128.9683 4008.0173 4041.1038 62.9692
251.9110 106.3059 129.4125 4009.0176 4042.1025 63.1099
252.8073 106.3044 129.8566 4010.0178 4043.1018 63.2496
253.7035 106.3026 130.3006 4011.0181 4044.1013 63.3883
254.5998 106.3006 130.7444 4012.0183 4045.1028 63.5260
255.4962 106.2985 131.1882 4013.0186 4046.1064 63.6627
256.3928 106.2961 131.6317 4014.0188 4047.1138 63.7985
257.2894 106.2936 132.0750 4015.0190 4048.1262 63.9334
258.1862 106.2908 132.5180 4016.0193 4049.1436 63.5083
259.0830 106.2878 132.9609 4017.0195 4050.1665 62.9446
259.9799 106.2846 133.4040 4018.0198 4051.1926 62.3774
260.8763 106.2812 133.8477 4019.0200 4052.2217 61.8064
261.7722 106.2776 134.2927 4020.0203 4053.2520 61.2316
262.6669 106.2737 134.7399 4021.0205 4054.2827 60.6530
263.5601 106.2696 135.1902 4022.0208 4055.3137 60.0704
264.4509 106.2652 135.6450 4023.0210 4056.3445 59.4836
265.3388 106.2604 136.1054 4024.0212 4057.3750 58.8927
266.2232 106.2553 136.5726 4025.0215 4058.4050 58.2974
267.1036 106.2497 137.0475 4026.0217 4059.4351 57.6977
267.9795 106.2437 137.5305 4027.0220 4060.4653 57.0934
268.8507 106.2373 138.0217 4028.0222 4061.4954 56.4845
269.7172 106.2305 138.5213 4029.0227 4062.5256 55.8706
270.5790 106.2234 139.0291 4030.0229 4063.5574 55.2518
271.4361 106.2158 139.5449 4031.0232 4064.5901 54.6279
272.2884 106.2079 140.0685 4032.0234 4065.6262 53.9986
273.1359 106.1996 140.5999 4033.0237 4066.6650 53.3638
273.9781 106.1910 141.1394 4034.0239 4067.7092 52.7234
274.8150 106.1820 141.6874 4035.0242 4068.7590 52.0772
275.6458 106.1726 142.2444 4036.0244 4069.8137 51.4248
276.4702 106.1628 142.8108 4037.0247 4070.8728 51.1238
277.2880 106.1528 143.3867 4038.0249 4071.9331 51.1621
278.0992 106.1425 143.9720 4039.0251 4072.9949 51.4066
278.9040 106.1321 144.5661 4040.0254 4074.0564 51.6485
279.7027 106.1216 145.1682 4041.0256 4075.1174 51.8879
280.4958 106.1111 145.7777 4042.0259 4076.1777 52.1247
281.2838 106.1007 146.3938 4043.0261 4077.2373 52.3590
282.0668 106.0903 147.0164 4044.0264 4078.2966 52.5909
282.8444 106.0801 147.6455 4045.0266 4079.3557 52.8204
283.6161 106.0700 148.2819 4046.0269 4080.4150 53.0476
284.3813 106.0600 148.9260 4047.0271 4081.4751 53.2162
285.1395 106.0501 149.5784 4048.0273 4082.5359 52.5744
285.8905 106.0404 150.2391 4049.0276 4083.5977 52.8041
286.6342 106.0307 150.9080 4050.0278 4084.6609 53.0314
287.3706 106.0213 151.5848 4051.0281 4085.7249 53.2565
288.0999 106.0121 152.2694 4052.0283 4086.7900 53.4792
288.8221 106.0031 152.9616 4053.0286 4087.8552 53.3451
289.5367 105.9945 153.6614 4054.0291 4088.9202 52.7046
290.2437 105.9861 154.3690 4055.0293 4089.9849 52.0581
290.9427 105.9780 155.0844 4056.0295 4091.0483 52.0269
291.6337 105.9700 155.8077 4057.0298 4092.1104 52.2500
292.3166 105.9621 156.5386 4058.0300 4093.1711 52.4830
292.9918 105.9542 157.2765 4059.0303 4094.2305 52.7136
293.6600 105.9461 158.0207 4060.0305 4095.2891 52.9418
294.3219 105.9379 158.7707 4061.0308 4096.3467 53.1678
294.9778 105.9294 159.5257 4062.0310 4097.4043 53.2768
295.6282 105.9205 160.2856 4063.0312 4098.4614 52.6356
296.2732 105.9112 161.0500 4064.0315 4099.5186 51.9885
296.9128 105.9015 161.8190 4065.0317 4100.5757 51.3354
297.5471 105.8914 162.5925 4066.0320 4101.6338 50.6759
298.1759 105.8808 163.3703 4067.0322 4102.6924 50.0099
298.7990 105.8697 164.1527 4068.0325 4103.7524 49.3372
299.4163 105.8581 164.9397 4069.0327 4104.8130 48.6574
300.0273 105.8460 165.7318 4070.0330 4105.8755 47.9703
300.6313 105.8333 166.5291 4071.0332 4106.9390 47.2757
301.2277 105.8199 167.3322 4072.0334 4108.0039 46.5731
301.8156 105.8059 168.1414 4073.0337 4109.0688 45.8623
302.3943 105.7912 168.9574 4074.0339 4110.1343 45.1440
302.9628 105.7758 169.7803 4075.0342 4111.1982 44.4233
303.5203 105.7598 170.6108 4076.0344 4112.2617 43.6999
304.0657 105.7432 171.4493 4077.0347 4113.3232 42.9738
304.5983 105.7262 172.2961 4078.0349 4114.3828 42.2449
305.1175 105.7088 173.1510 4079.0354 4115.4409 41.8075
305.6233 105.6913 174.0140 4080.0356 4116.4966 41.0738
306.1162 105.6738 174.8844 4081.0359 4117.5513 40.3370
306.5973 105.6566 175.7614 4082.0361 4118.6060 39.5970
307.0676 105.6398 176.6443 4083.0364 4119.6616 38.8535
307.5279 105.6235 177.5324 4084.0366 4120.7202 38.1065
307.9783 105.6077 178.4254 4085.0369 4121.7866 37.3558
308.4185 105.5924 179.3236 4086.0371 4122.8613 36.6012
308.8472 105.5776 180.2273 4087.0374 4123.9531 35.8425
309.2628 105.5632 181.1371 4088.0376 4125.0605 35.0795
309.6630 105.5490 182.0538 4089.0378 4126.1865 34.3121
310.0452 105.5347 182.9782 4090.0381 4127.3218 33.5400
310.4068 105.5199 183.9108 4091.0383 4128.4624 32.7629
310.7458 105.5041 184.8519 4092.0386 4129.6045 31.9806
311.0612 105.4871 185.8012 4093.0388 4130.7446 31.1928
311.3520 105.4688 186.7582 4094.0391 4131.8833 30.3990
311.6174 105.4492 187.7226 4095.0393 4133.0205 29.5991
311.8564 105.4284 188.6939 4096.0396 4134.1567 28.7925
312.0676 105.4064 189.6715 4097.0400 4135.2979 27.9789
312.2495 105.3835 190.6552 4098.0400 4136.4429 27.1577
312.4003 105.3595 191.6441 4099.0405 4137.6040 26.3284
312.5179 105.3347 192.6374 4100.0405 4138.7803 25.4904
312.6001 105.3088 193.6342 4101.0410 4139.9868 24.6430
312.6450 105.2817 194.6336 4102.0410 4141.2222 24.6119
312.6521 105.2535 195.6338 4103.0415 4142.4897 25.3064
312.6227 105.2243 196.6334 4104.0415 4143.7739 25.9821
312.5602 105.1947 197.6316 4105.0420 4145.0713 26.6405
312.4671 105.1655 198.6275 4106.0420 4146.3735 27.2829
312.3450 105.1374 199.6204 4107.0425 4147.6782 27.9103
312.1938 105.1101 200.6093 4108.0425 4148.9819 28.5238
312.0127 105.0836 201.5930 4109.0430 4150.2842 27.8298
311.8002 105.0580 202.5702 4110.0430 4151.5718 27.2648
311.5555 105.0333 203.5400 4111.0435 4152.8438 27.1415
311.2786 105.0095 204.5011 4112.0435 4154.0908 27.2440
310.9700 104.9864 205.4524 4113.0439 4155.3198 27.7743
310.6311 104.9637 206.3934 4114.0439 4156.5327 28.3907
310.2639 104.9410 207.3238 4115.0444 4157.7363 28.9939
309.8712 104.9179 208.2438 4116.0444 4158.9312 29.5847
309.4565 104.8947 209.1540 4117.0449 4160.1187 30.1637
309.0231 104.8714 210.0555 4118.0454 4161.2939 30.7318
308.5729 104.8484 210.9486 4119.0454 4162.4565 31.2894
308.1066 104.8257 211.8334 4120.0459 4163.5952 31.8370
307.6229 104.8033 212.7089 4121.0459 4164.7095 31.4613
307.1199 104.7812 213.5735 4122.0464 4165.7998 30.6696
306.5956 104.7594 214.4251 4123.0464 4166.8691 29.8718
306.0480 104.7376 215.2620 4124.0469 4167.9287 29.0675
305.4760 104.7157 216.0827 4125.0469 4168.9790 29.1926
304.8802 104.6936 216.8862 4126.0474 4170.0278 29.4400
304.2617 104.6712 217.6721 4127.0474 4171.0752 30.0219
303.6230 104.6483 218.4418 4128.0479 4172.1226 30.5926
302.9672 104.6252 219.1970 4129.0479 4173.1719 31.1527
302.2975 104.6019 219.9400 4130.0483 4174.2227 31.7028
301.6171 104.5785 220.6730 4131.0483 4175.2749 32.2434
300.9275 104.5549 221.3974 4132.0488 4176.3306 32.7749
300.2294 104.5314 222.1138 4133.0488 4177.3867 33.2979
299.5229 104.5077 222.8218 4134.0493 4178.4429 33.8127
298.8075 104.4838 223.5207 4135.0493 4179.4990 34.3196
298.0829 104.4597 224.2100 4136.0498 4180.5547 34.8191
297.3489 104.4354 224.8895 4137.0498 4181.6074 35.3114
296.6059 104.4109 225.5591 4138.0503 4182.6577 35.7968
295.8547 104.3862 226.2195 4139.0503 4183.7061 36.2756
295.0961 104.3613 226.8712 4140.0508 4184.7524 36.7459
294.3311 104.3364 227.5155 4141.0508 4185.7979 37.2062
293.5605 104.3115 228.1533 4142.0513 4186.8423 37.6572
292.7852 104.2867 228.7853 4143.0518 4187.8872 38.0991
292.0056 104.2619 229.4118 4144.0518 4188.9316 38.5324
291.2219 104.2373 230.0332 4145.0522 4189.9766 38.9574
290.4341 104.2127 230.6496 4146.0522 4191.0220 39.3745
289.6423 104.1882 231.2609 4147.0527 4192.0684 39.7839
288.8465 104.1638 231.8670 4148.0527 4193.1152 40.1860
288.0469 104.1396 232.4678 4149.0532 4194.1636 40.5811
287.2433 104.1154 233.0633 4150.0532 4195.2124 40.9693
286.4357 104.0914 233.6533 4151.0537 4196.2612 41.3510
285.6241 104.0676 234.2379 4152.0537 4197.3101 41.7263
284.8085 104.0439 234.8170 4153.0542 4198.3584 42.0955
283.9889 104.0204 235.3905 4154.0542 4199.4028 42.4588
283.1655 103.9971 235.9584 4155.0547 4200.4443 42.8164
282.3382 103.9740 236.5206 4156.0547 4201.4805 43.1684
281.5070 103.9512 237.0772 4157.0552 4202.5122 43.5151
280.6722 103.9287 237.6281 4158.0552 4203.5410 43.8566
279.8335 103.9064 238.1732 4159.0557 4204.5674 44.1930
278.9911 103.8843 238.7126 4160.0557 4205.5923 44.5246
278.1449 103.8625 239.2461 4161.0562 4206.6162 44.8514
277.2952 103.8410 239.7739 4162.0562 4207.6396 45.1736
276.4419 103.8197 240.2960 4163.0566 4208.6636 45.4913
275.5852 103.7988 240.8126 4164.0566 4209.6875 45.8046
274.7255 103.7782 241.3241 4165.0571 4210.7114 46.1137
273.8631 103.7581 241.8309 4166.0571 4211.7358 46.4187
272.9984 103.7384 242.3339 4167.0576 4212.7603 46.7197
272.1320 103.7192 242.8337 4168.0581 4213.7852 47.0167
271.2643 103.7006 243.3313 4169.0581 4214.8096 47.3099
270.3958 103.6825 243.8273 4170.0586 4215.8345 47.5994
269.5267 103.6650 244.3226 4171.0586 4216.8579 47.8853
268.6574 103.6481 244.8176 4172.0591 4217.8799 48.1676
267.7882 103.6317 245.3123 4173.0591 4218.8999 48.4465
266.9191 103.6157 245.8071 4174.0596 4219.9160 48.7220
266.0499 103.6002 246.3021 4175.0596 4220.9292 48.9942
265.1807 103.5850 246.7972 4176.0601 4221.9380 49.2632
264.3115 103.5701 247.2923 4177.0601 4222.9438 49.5290
263.4423 103.5555 247.7874 4178.0605 4223.9478 49.7918
262.5730 103.5411 248.2822 4179.0605 4224.9492 50.0515
261.7036 103.5268 248.7769 4180.0610 4225.9507 50.3083
260.8341 103.5127 249.2712 4181.0610 4226.9512 50.5622
259.9644 103.4987 249.7652 4182.0615 4227.9517 50.8133
259.0945 103.4848 250.2587 4183.0615 4228.9521 51.0616
258.2244 103.4710 250.7519 4184.0620 4229.9526 51.3073
257.3539 103.4573 251.2446 4185.0620 4230.9531 51.5502
256.4829 103.4436 251.7367 4186.0625 4231.9546 51.7906
255.6115 103.4300 252.2280 4187.0625 4232.9556 52.0284
254.7392 103.4164 252.7178 4188.0630 4233.9570 52.2637
253.8660 103.4027 253.2056 4189.0630 4234.9580 52.4966
252.9914 103.3890 253.6909 4190.0635 4235.9595 52.7271
252.1149 103.3753 254.1726 4191.0635 4236.9604 52.9552
251.2360 103.3615 254.6502 4192.0640 4237.9619 53.1810
250.3545 103.3475 255.1231 4193.0645 4238.9629 53.4046
249.4704 103.3334 255.5911 4194.0645 4239.9644 53.6259
248.5836 103.3192 256.0541 4195.0649 4240.9653 53.8450
247.6945 103.3048 256.5126 4196.0649 4241.9663 54.0620
246.8035 103.2904 256.9674 4197.0654 4242.9673 54.2768
245.9110 103.2758 257.4193 4198.0654 4243.9678 54.4896
245.0177 103.2612 257.8692 4199.0659 4244.9683 54.7004
244.1238 103.2465 258.3180 4200.0659 4245.9688 54.9091
243.2296 103.2319 258.7663 4201.0664 4246.9692 55.1159
242.3354 103.2173 259.2146 4202.0664 4247.9697 55.3208
241.4413 103.2028 259.6630 4203.0669 4248.9702 55.5237
240.5476 103.1885 260.1121 4204.0669 4249.9707 55.7248
239.6542 103.1745 260.5620 4205.0674 4250.9717 55.9240
238.7613 103.1607 261.0129 4206.0674 4251.9722 56.1214
237.8692 103.1474 261.4652 4207.0679 4252.9731 56.3171
236.9779 103.1344 261.9189 4208.0679 4253.9736 56.5110
236.0873 103.1220 262.3742 4209.0684 4254.9746 56.7031
235.1973 103.1100 262.8309 4210.0684 4255.9756 56.8936
234.3078 103.0985 263.2887 4211.0688 4256.9766 57.0824
233.4190 103.0873 263.7476 4212.0688 4257.9775 57.2695
232.5307 103.0765 264.2073 4213.0693 4258.9785 57.4551
231.6429 103.0659 264.6680 4214.0693 4259.9790 57.6390
230.7559 103.0555 265.1302 4215.0698 4260.9795 57.8213
229.8698 103.0451 265.5942 4216.0698 4261.9800 58.0021
228.9849 103.0347 266.0606 4217.0703 4262.9805 58.1814
228.1013 103.0242 266.5297 4218.0708 4263.9814 58.3592
227.2192 103.0136 267.0015 4219.0708 4264.9819 58.5354
226.3384 103.0028 267.4757 4220.0713 4265.9824 58.7103
225.4586 102.9919 267.9519 4221.0713 4266.9829 58.8836
224.5796 102.9809 268.4294 4222.0718 4267.9834 59.0556
223.7009 102.9697 268.9076 4223.0718 4268.9839 59.2261
222.8226 102.9585 269.3863 4224.0723 4269.9844 59.3953
221.9443 102.9473 269.8651 4225.0723 4270.9849 59.5631
221.0660 102.9361 270.3440 4226.0728 4271.9854 59.7296
220.1877 102.9251 270.8228 4227.0728 4272.9858 59.8947
219.3093 102.9143 271.3015 4228.0732 4273.9863 60.0585
218.4309 102.9038 271.7800 4229.0732 4274.9868 60.2211
217.5524 102.8935 272.2585 4230.0737 4275.9873 60.3823
216.6740 102.8835 272.7371 4231.0737 4276.9878 60.5423
215.7956 102.8739 273.2156 4232.0742 4277.9883 60.7011
214.9172 102.8645 273.6943 4233.0742 4278.9888 60.8586
214.0390 102.8555 274.1732 4234.0747 4279.9893 61.0150
213.1609 102.8468 274.6526 4235.0747 4280.9897 61.1701
212.2832 102.8384 275.1324 4236.0752 4281.9902 61.3241
211.4058 102.8303 275.6127 4237.0752 4282.9907 61.4768
210.5287 102.8225 276.0937 4238.0757 4283.9912 61.6285
209.6520 102.8149 276.5753 4239.0757 4284.9917 61.7790
208.7756 102.8077 277.0575 4240.0762 4285.9922 61.9284
207.8994 102.8007 277.5402 4241.0762 4286.9927 62.0767
207.0234 102.7940 278.0231 4242.0767 4287.9932 62.2238
206.1475 102.7874 278.5063 4243.0771 4288.9937 62.3699
205.2717 102.7811 278.9897 4244.0771 4289.9941 62.5150
204.3960 102.7748 279.4732 4245.0776 4290.9946 62.6589
203.5203 102.7687 279.9567 4246.0776 4291.9951 62.8019
202.6446 102.7627 280.4403 4247.0781 4292.9956 62.9438
201.7690 102.7567 280.9239 4248.0781 4293.9961 63.0847
200.8933 102.7508 281.4075 4249.0786 4294.9966 63.2246
200.0177 102.7448 281.8912 4250.0786 4295.9971 63.3634
199.1421 102.7389 282.3749 4251.0791 4296.9976 63.5013
198.2665 102.7330 282.8586 4252.0791 4297.9980 63.6383
197.3909 102.7271 283.3424 4253.0796 4298.9985 63.7742
196.5154 102.7213 283.8263 4254.0796 4299.9990 63.9092
195.6399 102.7156 284.3102 4255.0801 4300.9995 64.0433
194.7645 102.7100 284.7941 4256.0801 4302.0000 64.1765
193.8891 102.7045 285.2781 4257.0806 4303.0005 64.3087
193.0138 102.6992 285.7622 4258.0806 4304.0010 64.4400
192.1384 102.6940 286.2463 4259.0811 4305.0015 64.5704
191.2631 102.6891 286.7305 4260.0811 4306.0020 64.7000
190.3878 102.6844 287.2148 4261.0815 4307.0024 64.8286
189.5125 102.6800 287.6991 4262.0815 4308.0029 64.9564
188.6373 102.6758 288.1834 4263.0820 4309.0034 65.0833
187.7621 102.6718 288.6679 4264.0820 4310.0039 65.2094
186.8871 102.6680 289.1523 4265.0825 4311.0044 65.3346
186.0121 102.6646 289.6367 4266.0825 4312.0044 65.4590
185.1371 102.6613 290.1213 4267.0830 4313.0049 65.5825
184.2621 102.6583 290.6059 4268.0835 4314.0054 65.7053
183.3872 102.6555 291.0905 4269.0835 4315.0054 65.8272
182.5122 102.6530 291.5753 4270.0840 4316.0059 65.9484
181.6373 102.6508 292.0600 4271.0840 4317.0059 66.0687
180.7624 102.6487 292.5449 4272.0845 4318.0063 66.1883
179.8875 102.6469 293.0297 4273.0845 4319.0063 66.3071
179.0126 102.6453 293.5146 4274.0850 4320.0068 66.4251
178.1377 102.6439 293.9995 4275.0850 4321.0068 66.5423
177.2628 102.6426 294.4844 4276.0854 4322.0073 66.6588
176.3880 102.6414 294.9694 4277.0854 4323.0073 66.7746
175.5132 102.6403 295.4544 4278.0859 4324.0078 66.8896
174.6384 102.6393 295.9394 4279.0859 4325.0078 67.0039
173.7636 102.6383 296.4243 4280.0864 4326.0083 67.1174
172.8888 102.6373 296.9094 4281.0864 4327.0083 67.2303
172.0140 102.6364 297.3944 4282.0869 4328.0088 67.3424
171.1392 102.6355 297.8794 4283.0869 4329.0088 67.4539
170.2644 102.6347 298.3645 4284.0874 4330.0093 67.5646
169.3896 102.6339 298.8495 4285.0874 4331.0093 67.6746
168.5148 102.6333 299.3346 4286.0879 4332.0098 67.7840
167.6400 102.6328 299.8197 4287.0879 4333.0098 67.8927
166.7652 102.6324 300.3047 4288.0884 4334.0103 68.0007
165.8904 102.6323 300.7898 4289.0884 4335.0103 68.1081
165.0156 102.6324 301.2748 4290.0889 4336.0107 68.2148
164.1408 102.6327 301.7599 4291.0889 4337.0107 68.3208
163.2660 102.6333 302.2449 4292.0894 4338.0112 68.4262
162.3911 102.6341 302.7299 4293.0898 4339.0117 68.5309
161.5163 102.6351 303.2149 4294.0898 4340.0117 68.6351
160.6415 102.6364 303.6999 4295.0903 4341.0122 68.7385
159.7666 102.6379 304.1849 4296.0903 4342.0122 68.8414
158.8918 102.6397 304.6699 4297.0908 4343.0127 68.9437
158.0169 102.6417 305.1548 4298.0908 4344.0127 69.0453
157.1421 102.6439 305.6398 4299.0913 4345.0132 69.1463
156.2673 102.6464 306.1247 4300.0913 4346.0132 69.2468
155.3924 102.6491 306.6096 4301.0918 4347.0137 69.3466
154.5176 102.6520 307.0946 4302.0918 4348.0137 69.4459
153.6427 102.6552 307.5795 4303.0923 4349.0142 69.5445
152.7679 102.6585 308.0644 4304.0923 4350.0142 69.6426
151.8930 102.6621 308.5493 4305.0928 4351.0146 69.7401
151.0181 102.6658 309.0343 4306.0928 4352.0146 69.8370
150.1432 102.6696 309.5192 4307.0933 4353.0151 69.9334
149.2684 102.6736 310.0042 4308.0933 4354.0151 70.0292
148.3935 102.6777 310.4891 4309.0938 4355.0156 70.1245
147.5187 102.6819 310.9740 4310.0938 4356.0156 70.2192
146.6438 102.6862 311.4590 4311.0942 4357.0161 70.3133
145.7690 102.6905 311.9439 4312.0942 4358.0161 70.4069
144.8942 102.6949 312.4289 4313.0947 4359.0166 70.5000
144.0194 102.6994 312.9139 4314.0947 4360.0166 70.5926
143.1446 102.7038 313.3989 4315.0952 4361.0171 70.6846
142.2698 102.7082 313.8839 4316.0952 4362.0171 70.7761
141.3949 102.7126 314.3689 4317.0957 4363.0176 70.8670
140.5201 102.7169 314.8539 4318.0962 4364.0181 70.9575
139.6453 102.7212 315.3389 4319.0962 4365.0181 71.0474
138.7704 102.7253 315.8240 4320.0967 4366.0186 71.1369
137.8956 102.7293 316.3090 4321.0967 4367.0186 71.2258
137.0207 102.7332 316.7940 4322.0972 4368.0190 71.3143
136.1459 102.7369 317.2791 4323.0972 4369.0190 71.4022
135.2710 102.7405 317.7642 4324.0977 4370.0195 71.4897
134.3961 102.7439 318.2492 4325.0977 4371.0195 71.5766
133.5213 102.7472 318.7343 4326.0981 4372.0200 71.6631
132.6464 102.7503 319.2193 4327.0981 4373.0200 71.7491
131.7716 102.7533 319.7043 4328.0986 4374.0205 71.8346
130.8968 102.7562 320.1893 4329.0986 4375.0205 71.9197
130.0219 102.7590 320.6743 4330.0991 4376.0210 72.0043
129.1471 102.7617 321.1592 4331.0991 4377.0210 72.0884
128.2723 102.7643 321.6442 4332.0996 4378.0215 72.1721
127.3975 102.7668 322.1292 4333.0996 4379.0215 72.2553
126.5226 102.7691 322.6142 4334.1001 4380.0220 72.3381
125.6478 102.7714 323.0992 4335.1001 4381.0220 72.4204
124.7729 102.7735 323.5841 4336.1006 4382.0225 72.5022
123.8980 102.7756 324.0691 4337.1006 4383.0225 72.5836
123.0232 102.7774 324.5541 4338.1011 4384.0229 72.6646
122.1483 102.7792 325.0391 4339.1011 4385.0229 72.7452
121.2735 102.7807 325.5241 4340.1016 4386.0234 72.8253
120.3986 102.7822 326.0091 4341.1016 4387.0234 72.9049
119.5238 102.7835 326.4941 4342.1021 4388.0239 72.9842
118.6489 102.7846 326.9792 4343.1025 4389.0244 73.0630
117.7741 102.7855 327.4642 4344.1025 4390.0244 73.1414
116.8993 102.7862 327.9493 4345.1030 4391.0249 73.2194
116.0245 102.7867 328.4344 4346.1030 4392.0249 73.2970
115.1497 102.7870 328.9196 4347.1035 4393.0254 73.3742
114.2750 102.7870 329.4047 4348.1035 4394.0254 73.4509
113.4002 102.7868 329.8899 4349.1040 4395.0259 73.5273
112.5254 102.7863 330.3751 4350.1040 4396.0259 73.6032
111.6507 102.7854 330.8603 4351.1045 4397.0264 73.6788
110.7760 102.7842 331.3455 4352.1045 4398.0264 73.7540
109.9013 102.7828 331.8307 4353.1050 4399.0269 73.8287
109.0266 102.7810 332.3160 4354.1050 4400.0269 73.9031
108.1518 102.7789 332.8013 4355.1055 4401.0273 73.9771
107.2771 102.7766 333.2865 4356.1055 4402.0273 74.0507
106.4025 102.7740 333.7718 4357.1060 4403.0278 74.1239
105.5278 102.7712 334.2570 4358.1060 4404.0278 74.1967
104.6531 102.7682 334.7423 4359.1064 4405.0283 74.2692
103.7784 102.7650 335.2276 4360.1064 4406.0283 74.3413
102.9037 102.7617 335.7128 4361.1069 4407.0288 74.4130
102.0290 102.7583 336.1981 4362.1069 4408.0288 74.4844
101.1543 102.7547 336.6833 4363.1074 4409.0293 74.5554
100.2796 102.7510 337.1685 4364.1074 4410.0293 74.6260
99.4049 102.7471 337.6537 4365.1079 4411.0298 74.6963
98.5301 102.7431 338.1389 4366.1079 4412.0298 74.7662
97.6554 102.7389 338.6241 4367.1084 4413.0303 74.8357
96.7806 102.7346 339.1093 4368.1089 4414.0308 74.9049
95.9058 102.7301 339.5944 4369.1089 4415.0308 74.9738
95.0310 102.7255 340.0796 4370.1094 4416.0312 75.0423
94.1562 102.7207 340.5647 4371.1094 4417.0312 75.1104
93.2813 102.7157 341.0498 4372.1099 4418.0317 75.1782
92.4065 102.7106 341.5349 4373.1099 4419.0317 75.2457
91.5317 102.7053 342.0199 4374.1104 4420.0322 75.3128
90.6569 102.6999 342.5049 4375.1104 4421.0322 75.3796
89.7821 102.6942 342.9899 4376.1108 4422.0327 75.4461
88.9073 102.6884 343.4749 4377.1108 4423.0327 75.5122
88.0325 102.6824 343.9599 4378.1113 4424.0332 75.5780
87.1577 102.6761 344.4449 4379.1113 4425.0332 75.6434
86.2828 102.6695 344.9299 4380.1118 4426.0337 75.7086
85.4080 102.6627 345.4148 4381.1118 4427.0337 75.7734
84.5331 102.6556 345.8997 4382.1123 4428.0342 75.8379
83.6581 102.6482 346.3847 4383.1123 4429.0342 75.9021
82.7832 102.6405 346.8696 4384.1128 4430.0347 75.9659
81.9083 102.6326 347.3545 4385.1128 4431.0347 76.0295
81.0334 102.6243 347.8394 4386.1133 4432.0352 76.0927
80.1585 102.6157 348.3242 4387.1133 4433.0352 76.1556
79.2835 102.6069 348.8091 4388.1138 4434.0356 76.2183
78.4086 102.5979 349.2939 4389.1138 4435.0356 76.2806
77.5337 102.5887 349.7788 4390.1143 4436.0361 76.3426
76.6588 102.5793 350.2636 4391.1143 4437.0361 76.4043
75.7838 102.5698 350.7484 4392.1147 4438.0366 76.4657
74.9089 102.5601 351.2332 4393.1152 4439.0371 76.5268
74.0339 102.5503 351.7180 4394.1152 4440.0371 76.5876
73.1590 102.5404 352.2028 4395.1157 4441.0376 76.6481
72.2840 102.5304 352.6876 4396.1157 4442.0376 76.7083
71.4090 102.5202 353.1724 4397.1162 4443.0381 76.7682
70.5341 102.5099 353.6572 4398.1162 4444.0381 76.8279
69.6591 102.4994 354.1419 4399.1167 4445.0386 76.8872
68.7841 102.4886 354.6267 4400.1167 4446.0386 76.9463
67.9090 102.4777 355.1115 4401.1172 4447.0391 77.0051
67.0340 102.4666 355.5962 4402.1172 4448.0391 77.0635
66.1590 102.4553 356.0808 4403.1177 4449.0396 77.1218
65.2840 102.4437 356.5656 4404.1177 4450.0396 77.1797
64.4090 102.4319 357.0502 4405.1182 4451.0400 77.2374
63.5340 102.4200 357.5349 4406.1182 4452.0400 77.2948
62.6589 102.4078 358.0196 4407.1187 4453.0405 77.3519
61.7839 102.3956 358.5042 4408.1187 4454.0405 77.4087
60.9088 102.3832 358.9889 4409.1191 4455.0410 77.4653
60.0338 102.3707 359.4735 4410.1191 4456.0410 77.5216
59.1587 102.3581 359.9581 4411.1196 4457.0415 77.5776
58.2837 102.3455 360.4427 4412.1196 4458.0415 77.6334
57.4087 102.3328 360.9273 4413.1201 4459.0420 77.6889
56.5336 102.3200 361.4118 4414.1201 4460.0420 77.7442
55.6586 102.3072 361.8964 4415.1206 4461.0425 77.7991
54.7836 102.2943 362.3809 4416.1206 4462.0425 77.8539
53.9085 102.2812 362.8654 4417.1211 4463.0430 77.9083
53.0335 102.2680 363.3500 4418.1216 4464.0435 77.9626
52.1585 102.2545 363.8345 4419.1216 4465.0435 78.0165
51.2836 102.2408 364.3190 4420.1221 4466.0439 78.0702
50.4086 102.2267 364.8035 4421.1221 4467.0439 78.1237
49.5336 102.2123 365.2880 4422.1226 4468.0444 78.1769
48.6587 102.1975 365.7725 4423.1226 4469.0444 78.2299
47.7837 102.1823 366.2570 4424.1230 4470.0449 78.2826
46.9086 102.1668 366.7416 4425.1230 4471.0454 78.3351
46.0335 102.1509 367.2262 4426.1235 4472.0459 78.3873
45.1583 102.1346 367.7108 4427.1235 4473.0464 78.4393
44.2832 102.1181 368.1954 4428.1240 4474.0469 78.4910
43.4081 102.1013 368.6800 4429.1240 4475.0474 78.5425
42.5330 102.0842 369.1646 4430.1245 4476.0479 78.5938
41.6578 102.0669 369.6491 4431.1245 4477.0483 78.6449
40.7827 102.0494 370.1338 4432.1250 4478.0488 78.6957
39.9076 102.0317 370.6184 4433.1250 4479.0493 78.7462
39.0325 102.0138 371.1030 4434.1255 4480.0498 78.7966
38.1574 101.9958 371.5877 4435.1255 4481.0503 78.8467
37.2823 101.9775 372.0723 4436.1260 4482.0508 78.8965
36.4072 101.9590 372.5570 4437.1260 4483.0513 78.9462
35.5321 101.9403 373.0416 4438.1265 4484.0518 78.9956
34.6569 101.9212 373.5263 4439.1265 4485.0522 79.0448
33.7818 101.9019 374.0109 4440.1270 4486.0527 79.0938
32.9067 101.8823 374.4955 4441.1270 4487.0532 79.1425
32.0316 101.8624 374.9800 4442.1274 4488.0537 79.1911
31.1564 101.8421 375.4646 4443.1279 4489.0542 79.2394
30.2812 101.8215 375.9491 4444.1279 4490.0547 79.2875
29.4060 101.8007 376.4336 4445.1284 4491.0552 79.3353
28.5309 101.7796 376.9181 4446.1284 4492.0557 79.3830
27.6558 101.7583 377.4025 4447.1289 4493.0562 79.4304
26.7808 101.7369 377.8869 4448.1289 4494.0562 79.4777
25.9058 101.7154 378.3712 4449.1294 4495.0566 79.5247
25.0307 101.6939 378.8556 4450.1294 4496.0566 79.5715
24.1557 101.6723 379.3399 4451.1299 4497.0571 79.6181
23.2806 101.6508 379.8242 4452.1299 4498.0571 79.6644
22.4054 101.6294 380.3086 4453.1304 4499.0576 79.7106
21.5301 101.6079 380.7930 4454.1304 4500.0581 79.7566
20.6549 101.5865 381.2774 4455.1309 4501.0586 79.8023
19.7796 101.5651 381.7618 4456.1309 4502.0591 79.8479
18.9044 101.5437 382.2461 4457.1313 4503.0596 79.8933
18.0291 101.5221 382.7305 4458.1313 4504.0601 79.9384
17.1539 101.5004 383.2148 4459.1318 4505.0605 79.9834
16.2786 101.4785 383.6992 4460.1318 4506.0610 80.0281
15.4033 101.4564 384.1835 4461.1323 4507.0615 80.0727
14.5280 101.4340 384.6679 4462.1323 4508.0620 80.1170
13.6528 101.4114 385.1523 4463.1328 4509.0625 80.1612
12.7775 101.3884 385.6366 4464.1328 4510.0630 80.2051
11.9023 101.3652 386.1210 4465.1333 4511.0635 80.2489
11.0270 101.3416 386.6053 4466.1333 4512.0640 80.2925
10.1518 101.3177 387.0896 4467.1338 4513.0649 80.3359
9.2767 101.2935 387.5739 4468.1343 4514.0654 80.3791
8.4016 101.2690 388.0581 4469.1343 4515.0654 80.4221
7.5265 101.2441 388.5424 4470.1348 4516.0664 80.4649
6.6513 101.2190 389.0267 4471.1348 4517.0669 80.5075
5.7759 101.1935 389.5111 4472.1353 4518.0679 80.5499
4.9006 101.1677 389.9954 4473.1353 4519.0684 80.5922
4.0254 101.1416 390.4797 4474.1357 4520.0693 80.6343
3.1501 101.1152 390.9641 4475.1357 4521.0698 80.6761
2.2748 101.0886 391.4484 4476.1362 4522.0708 80.7178
1.3994 101.0618 391.9326 4477.1362 4523.0713 80.7594
0.5241 101.0348 392.4169 4478.1367 4524.0723 80.8007
-0.3512 101.0076 392.9012 4479.1367 4525.0728 80.8419
-1.2265 100.9804 393.3855 4480.1372 4526.0737 80.8828
-2.1019 100.9532 393.8697 4481.1372 4527.0742 80.9236
-2.9772 100.9259 394.3539 4482.1377 4528.0752 80.9642
-3.8526 100.8987 394.8381 4483.1377 4529.0757 81.0047
-4.7279 100.8715 395.3224 4484.1382 4530.0767 81.0450
-5.6034 100.8443 395.8065 4485.1382 4531.0771 81.0851
-6.4787 100.8172 396.2907 4486.1387 4532.0781 81.1250
-7.3539 100.7901 396.7747 4487.1387 4533.0786 81.1647
-8.2291 100.7631 397.2588 4488.1392 4534.0791 81.2043
-9.1045 100.7361 397.7429 4489.1392 4535.0801 81.2437
-9.9799 100.7091 398.2270 4490.1396 4536.0806 81.2830
-10.8553 100.6822 398.7111 4491.1396 4537.0815 81.3220
-11.7307 100.6554 399.1952 4492.1401 4538.0820 81.3609
-12.6062 100.6286 399.6793 4493.1406 4539.0830 81.3997
-13.4816 100.6018 400.1633 4494.1406 4540.0835 81.4382
-14.3570 100.5750 400.6474 4495.1411 4541.0845 81.4766
-15.2325 100.5481 401.1315 4496.1411 4542.0850 81.5149
-16.1079 100.5210 401.6155 4497.1416 4543.0859 81.5529
-16.9834 100.4936 402.0995 4498.1416 4544.0864 81.5909
-17.8588 100.4656 402.5836 4499.1421 4545.0874 81.6286
-18.7342 100.4371 403.0677 4500.1421 4546.0879 81.6662
-19.6096 100.4077 403.5518 4501.1426 4547.0889 81.7036
-20.4850 100.3774 404.0360 4502.1426 4548.0894 81.7409
-21.3604 100.3462 404.5202 4503.1431 4549.0903 81.7780
-22.2358 100.3139 405.0044 4504.1431 4550.0908 81.8149
-23.1112 100.2808 405.4886 4505.1436 4551.0918 81.8517
-23.9865 100.2468 405.9728 4506.1436 4552.0923 81.8884
-24.8618 100.2121 406.4571 4507.1440 4553.0933 81.9249
-25.7372 100.1768 406.9414 4508.1440 4554.0938 81.9612
-26.6125 100.1413 407.4257 4509.1445 4555.0947 81.9974
