VERSION 0.7
FIELDS x y z arclength lapdistance speed
SIZE 4 4 4 4 4 4
TYPE F F F F F F
COUNT 1 1 1 1 1 1
WIDTH 879
HEIGHT 1
VIEWPOINT 0.000 0.000 0.000 1.000 0.000 0.000 0.000
POINTS 879
DATA ascii
-16.5834 98.7505 203.5618 3711.3613 3696.0334 40.4429
-16.1875 98.7884 202.6434 3712.3616 3697.0442 40.6777
-15.7948 98.8260 201.7235 3713.3616 3698.0544 40.9100
-15.4048 98.8633 200.8026 3714.3618 3699.0645 41.1400
-15.0173 98.9004 199.8806 3715.3618 3700.0745 41.3677
-14.6326 98.9373 198.9575 3716.3618 3701.0847 41.5931
-14.2513 98.9741 198.0329 3717.3621 3702.0952 41.8163
-13.8745 99.0107 197.1065 3718.3621 3703.1057 42.0373
-13.5032 99.0473 196.1778 3719.3623 3704.1167 42.2562
-13.1383 99.0839 195.2466 3720.3623 3705.1274 42.4729
-12.7802 99.1206 194.3129 3721.3623 3706.1382 42.6877
-12.4293 99.1573 193.3764 3722.3625 3707.1489 42.9004
-12.0853 99.1942 192.4374 3723.3625 3708.1597 43.1112
-11.7476 99.2311 191.4960 3724.3628 3709.1704 43.3200
-11.4150 99.2682 190.5528 3725.3628 3710.1812 43.5270
-11.0864 99.3054 189.6083 3726.3628 3711.1917 43.7320
-10.7598 99.3427 188.6631 3727.3630 3712.2026 43.9353
-10.4337 99.3799 187.7176 3728.3630 3713.2136 44.1367
-10.1066 99.4172 186.7725 3729.3633 3714.2249 44.3364
-9.7772 99.4545 185.8282 3730.3633 3715.2358 44.5344
-9.4446 99.4916 184.8851 3731.3633 3716.2468 44.7306
-9.1085 99.5287 183.9431 3732.3635 3717.2571 44.9252
-8.7690 99.5657 183.0023 3733.3635 3718.2666 45.1181
-8.4267 99.6027 182.0627 3734.3635 3719.2742 45.3095
-8.0824 99.6396 181.1238 3735.3638 3720.2800 45.4992
-7.7366 99.6765 180.1854 3736.3638 3721.2842 45.6874
-7.3901 99.7135 179.2473 3737.3640 3722.2866 45.8740
-7.0430 99.7505 178.3093 3738.3640 3723.2883 46.0591
-6.6955 99.7875 177.3715 3739.3640 3724.2891 46.2428
-6.3475 99.8246 176.4338 3740.3643 3725.2896 46.4249
-5.9989 99.8617 175.4964 3741.3643 3726.2898 46.6057
-5.6496 99.8989 174.5593 3742.3645 3727.2900 46.7850
-5.2995 99.9360 173.6226 3743.3645 3728.2903 46.9629
-4.9487 99.9732 172.6860 3744.3645 3729.2908 47.1394
-4.5972 100.0104 171.7497 3745.3647 3730.2910 47.3146
-4.2449 100.0477 170.8137 3746.3647 3731.2915 47.4885
-3.8917 100.0849 169.8780 3747.3650 3732.2920 47.6610
-3.5373 100.1222 168.9427 3748.3650 3733.2927 47.8322
-3.1813 100.1594 168.0081 3749.3650 3734.2932 48.0022
-2.8234 100.1965 167.0744 3750.3652 3735.2937 48.1709
-2.4632 100.2336 166.1414 3751.3652 3736.2944 48.3384
-2.1007 100.2705 165.2093 3752.3655 3737.2954 48.5046
-1.7362 100.3073 164.2779 3753.3655 3738.2966 48.6697
-1.3703 100.3438 163.3471 3754.3655 3739.2979 48.8335
-1.0031 100.3802 162.4168 3755.3657 3740.2996 48.9962
-0.6350 100.4164 161.4870 3756.3657 3741.3013 49.1577
-0.2657 100.4523 160.5575 3757.3660 3742.3027 49.3181
0.1051 100.4880 159.6287 3758.3660 3743.3032 49.4774
0.4781 100.5233 158.7008 3759.3660 3744.3030 49.6355
0.8539 100.5583 157.7741 3760.3662 3745.2991 49.7926
1.2332 100.5930 156.8487 3761.3662 3746.2917 49.9485
1.6162 100.6273 155.9248 3762.3665 3747.2786 50.1035
2.0027 100.6614 155.0024 3763.3665 3748.2585 50.2573
2.3927 100.6952 154.0815 3764.3665 3749.2329 50.4101
2.7860 100.7288 153.1620 3765.3667 3750.2014 50.5619
3.1826 100.7622 152.2439 3766.3667 3751.1667 50.7127
3.5826 100.7954 151.3273 3767.3669 3752.1294 50.8625
3.9863 100.8284 150.4122 3768.3669 3753.0906 51.0113
4.3941 100.8613 149.4989 3769.3669 3754.0515 51.1591
4.8062 100.8939 148.5878 3770.3672 3755.0117 51.3060
5.2233 100.9265 147.6789 3771.3672 3755.9722 51.4519
5.6457 100.9589 146.7723 3772.3674 3756.9331 51.5968
6.0735 100.9912 145.8683 3773.3674 3757.8943 51.7409
6.5068 101.0236 144.9669 3774.3674 3758.8557 51.8840
6.9453 101.0559 144.0681 3775.3677 3759.8179 52.0262
7.3892 101.0883 143.1720 3776.3677 3760.7805 52.1675
7.8383 101.1208 142.2784 3777.3679 3761.7437 52.3079
8.2928 101.1533 141.3875 3778.3679 3762.7078 52.4475
8.7525 101.1859 140.4993 3779.3679 3763.6726 52.5862
9.2177 101.2187 139.6140 3780.3682 3764.6382 52.7240
9.6882 101.2515 138.7315 3781.3682 3765.6047 52.6782
10.1640 101.2844 137.8519 3782.3684 3766.5723 52.2912
10.6453 101.3174 136.9753 3783.3684 3767.5408 51.9021
11.1320 101.3504 136.1016 3784.3684 3768.5103 51.5107
11.6240 101.3834 135.2309 3785.3687 3769.4802 51.1172
12.1214 101.4165 134.3632 3786.3687 3770.4497 50.7213
12.6240 101.4497 133.4986 3787.3689 3771.4189 50.3231
13.1318 101.4829 132.6371 3788.3689 3772.3877 49.9225
13.6449 101.5161 131.7787 3789.3689 3773.3547 49.5195
14.1632 101.5494 130.9233 3790.3691 3774.3201 49.1140
14.6866 101.5827 130.0712 3791.3691 3775.2844 48.7059
15.2153 101.6161 129.2223 3792.3694 3776.2471 48.2952
15.7494 101.6495 128.3767 3793.3694 3777.2085 47.8818
16.2890 101.6829 127.5347 3794.3694 3778.1692 47.4657
16.8345 101.7163 126.6965 3795.3696 3779.1289 47.0468
17.3862 101.7497 125.8623 3796.3696 3780.0879 46.6250
17.9442 101.7831 125.0324 3797.3699 3781.0461 46.2002
18.5089 101.8163 124.2070 3798.3699 3782.0042 45.7725
19.0804 101.8495 123.3863 3799.3699 3782.9619 45.3428
19.6588 101.8824 122.5705 3800.3701 3783.9194 44.9192
20.2442 101.9152 121.7596 3801.3701 3784.8772 44.7557
20.8365 101.9478 120.9538 3802.3704 3785.8350 44.6150
21.4358 101.9802 120.1531 3803.3704 3786.7927 44.6599
22.0420 102.0123 119.3576 3804.3704 3787.7512 44.7418
22.6550 102.0443 118.5674 3805.3706 3788.7100 44.8355
23.2748 102.0761 117.7824 3806.3706 3789.6694 44.9313
23.9012 102.1078 117.0029 3807.3708 3790.6296 45.0138
24.5343 102.1396 116.2287 3808.3708 3791.5908 45.0897
25.1739 102.1714 115.4599 3809.3708 3792.5527 45.1329
25.8200 102.2034 114.6966 3810.3711 3793.5161 45.1507
26.4726 102.2356 113.9389 3811.3711 3794.4805 45.1650
27.1316 102.2680 113.1867 3812.3713 3795.4456 45.1760
27.7969 102.3006 112.4400 3813.3713 3796.4116 45.2171
28.4686 102.3334 111.6991 3814.3713 3797.3779 45.2997
29.1465 102.3664 110.9638 3815.3716 3798.3440 45.3702
29.8305 102.3995 110.2342 3816.3716 3799.3098 45.4174
30.5207 102.4327 109.5104 3817.3718 3800.2754 45.4341
31.2169 102.4659 108.7925 3818.3718 3801.2400 45.3828
31.9192 102.4990 108.0804 3819.3718 3802.2039 45.3284
32.6274 102.5320 107.3743 3820.3721 3803.1670 45.2602
33.3417 102.5647 106.6741 3821.3721 3804.1296 45.1979
34.0618 102.5972 105.9801 3822.3723 3805.0918 45.1936
34.7877 102.6295 105.2921 3823.3723 3806.0537 45.1901
35.5195 102.6614 104.6104 3824.3723 3807.0154 45.2278
36.2570 102.6930 103.9348 3825.3726 3807.9771 45.2633
37.0002 102.7245 103.2655 3826.3726 3808.9387 45.3549
37.7490 102.7557 102.6026 3827.3728 3809.9004 45.4441
38.5033 102.7868 101.9459 3828.3728 3810.8623 45.4791
39.2630 102.8177 101.2957 3829.3728 3811.8250 45.5079
40.0283 102.8487 100.6517 3830.3730 3812.7881 45.5321
40.7989 102.8798 100.0142 3831.3730 3813.7522 45.5459
41.5748 102.9109 99.3832 3832.3733 3814.7168 45.6192
42.3559 102.9422 98.7587 3833.3733 3815.6821 45.7156
43.1421 102.9736 98.1407 3834.3733 3816.6484 45.8649
43.9334 103.0052 97.5293 3835.3735 3817.6150 46.0412
44.7298 103.0370 96.9243 3836.3735 3818.5815 46.2250
45.5311 103.0689 96.3259 3837.3738 3819.5483 46.4073
46.3372 103.1011 95.7339 3838.3738 3820.5146 46.5882
47.1481 103.1332 95.1485 3839.3738 3821.4800 46.7499
47.9636 103.1655 94.5696 3840.3740 3822.4443 46.9001
48.7836 103.1976 93.9973 3841.3740 3823.4075 47.0771
49.6082 103.2296 93.4314 3842.3743 3824.3699 47.2528
50.4373 103.2615 92.8720 3843.3743 3825.3313 47.4271
51.2704 103.2932 92.3188 3844.3743 3826.2917 47.6001
52.1076 103.3247 91.7718 3845.3745 3827.2515 47.7718
52.9485 103.3560 91.2304 3846.3745 3828.2107 47.9422
53.7930 103.3871 90.6946 3847.3748 3829.1697 48.1114
54.6408 103.4180 90.1640 3848.3748 3830.1284 48.2793
55.4917 103.4488 89.6385 3849.3748 3831.0869 48.4460
56.3457 103.4794 89.1180 3850.3750 3832.0457 48.6114
57.2025 103.5099 88.6022 3851.3750 3833.0044 48.7757
58.0623 103.5403 88.0913 3852.3752 3833.9631 48.9388
58.9248 103.5706 87.5852 3853.3752 3834.9224 49.1007
59.7903 103.6009 87.0841 3854.3752 3835.8823 49.2615
60.6588 103.6310 86.5881 3855.3755 3836.8425 49.4212
61.5304 103.6610 86.0976 3856.3755 3837.8037 49.5797
62.4051 103.6910 85.6128 3857.3757 3838.7656 49.7372
63.2832 103.7208 85.1342 3858.3757 3839.7288 49.4798
64.1647 103.7505 84.6619 3859.3757 3840.6929 49.0740
65.0497 103.7801 84.1962 3860.3760 3841.6580 48.6657
65.9382 103.8097 83.7371 3861.3760 3842.6245 48.4475
66.8302 103.8391 83.2847 3862.3762 3843.5916 48.3427
67.7255 103.8686 82.8391 3863.3762 3844.5593 48.3215
68.6242 103.8979 82.4004 3864.3762 3845.5273 48.3617
69.5262 103.9273 81.9685 3865.3765 3846.4951 48.4241
70.4315 103.9568 81.5434 3866.3765 3847.4624 48.5051
71.3399 103.9862 81.1252 3867.3767 3848.4294 48.5702
72.2514 104.0156 80.7139 3868.3767 3849.3953 48.6190
73.1661 104.0450 80.3094 3869.3767 3850.3606 48.6554
74.0837 104.0744 79.9118 3870.3770 3851.3250 48.6686
75.0043 104.1037 79.5212 3871.3770 3852.2888 48.6759
75.9279 104.1329 79.1374 3872.3772 3853.2524 48.6768
76.8542 104.1620 78.7606 3873.3772 3854.2153 48.6822
77.7834 104.1908 78.3908 3874.3772 3855.1780 48.7045
78.7154 104.2195 78.0279 3875.3774 3856.1406 48.7207
79.6500 104.2479 77.6721 3876.3774 3857.1035 48.7121
80.5874 104.2759 77.3232 3877.3777 3858.0662 48.7031
81.5273 104.3037 76.9814 3878.3777 3859.0293 48.7016
82.4697 104.3311 76.6467 3879.3777 3859.9927 48.6946
83.4146 104.3582 76.3191 3880.3779 3860.9568 48.5951
84.3619 104.3850 75.9986 3881.3779 3861.9214 48.4955
85.3116 104.4116 75.6852 3882.3782 3862.8867 48.2600
86.2637 104.4379 75.3792 3883.3782 3863.8528 48.0099
87.2181 104.4640 75.0804 3884.3782 3864.8196 47.6676
88.1748 104.4900 74.7891 3885.3784 3865.7866 47.3158
89.1337 104.5157 74.5053 3886.3784 3866.7542 47.0841
90.0950 104.5414 74.2290 3887.3787 3867.7214 46.8832
91.0584 104.5670 73.9605 3888.3787 3868.6885 46.8514
92.0239 104.5924 73.6997 3889.3787 3869.6543 46.8858
92.9914 104.6178 73.4466 3890.3789 3870.6194 46.9036
93.9609 104.6431 73.2012 3891.3789 3871.5833 46.9132
94.9324 104.6683 72.9636 3892.3792 3872.5459 46.9493
95.9057 104.6934 72.7337 3893.3792 3873.5081 47.0011
96.8808 104.7184 72.5116 3894.3792 3874.4690 47.0414
97.8577 104.7432 72.2972 3895.3794 3875.4292 47.0732
98.8362 104.7680 72.0905 3896.3794 3876.3887 47.1159
99.8162 104.7926 71.8917 3897.3796 3877.3479 47.1765
100.7979 104.8172 71.7005 3898.3796 3878.3069 47.2311
101.7810 104.8416 71.5172 3899.3796 3879.2654 47.2716
102.7655 104.8658 71.3415 3900.3799 3880.2241 47.3026
103.7514 104.8900 71.1737 3901.3799 3881.1829 47.3083
104.7385 104.9140 71.0135 3902.3801 3882.1418 47.3186
105.7269 104.9379 70.8612 3903.3801 3883.1011 47.3688
106.7164 104.9616 70.7166 3904.3801 3884.0608 47.4214
107.7071 104.9852 70.5798 3905.3804 3885.0212 47.5113
108.6989 105.0086 70.4507 3906.3804 3885.9824 47.5984
109.6916 105.0319 70.3293 3907.3806 3886.9446 47.5822
110.6852 105.0550 70.2157 3908.3806 3887.9075 47.5608
111.6797 105.0780 70.1099 3909.3806 3888.8713 47.5014
112.6750 105.1008 70.0118 3910.3809 3889.8364 47.4383
113.6710 105.1234 69.9215 3911.3809 3890.8022 47.1726
114.6678 105.1459 69.8391 3912.3811 3891.7683 46.8663
115.6651 105.1681 69.7646 3913.3811 3892.7344 46.6270
116.6630 105.1900 69.6982 3914.3811 3893.7004 46.4098
117.6614 105.2116 69.6399 3915.3813 3894.6663 46.4149
118.6603 105.2330 69.5897 3916.3813 3895.6311 46.5193
119.6595 105.2541 69.5476 3917.3813 3896.5952 46.4589
120.6591 105.2750 69.5135 3918.3816 3897.5586 46.2938
121.6589 105.2956 69.4877 3919.3816 3898.5212 46.2102
122.6588 105.3161 69.4699 3920.3818 3899.4832 46.1971
123.6589 105.3363 69.4604 3921.3818 3900.4443 46.1523
124.6590 105.3564 69.4590 3922.3818 3901.4055 46.0694
125.6591 105.3763 69.4659 3923.3821 3902.3662 46.0830
126.6591 105.3960 69.4810 3924.3821 3903.3269 46.2552
127.6589 105.4155 69.5042 3925.3823 3904.2876 46.4373
128.6586 105.4349 69.5354 3926.3823 3905.2485 46.6179
129.6579 105.4542 69.5740 3927.3823 3906.2097 46.7971
130.6570 105.4735 69.6195 3928.3826 3907.1711 46.9749
131.6558 105.4928 69.6711 3929.3826 3908.1333 47.1514
132.6543 105.5121 69.7281 3930.3828 3909.0959 47.0240
133.6525 105.5315 69.7898 3931.3828 3910.0593 46.6021
134.6505 105.5511 69.8558 3932.3828 3911.0234 46.1771
135.6481 105.5709 69.9259 3933.3831 3911.9883 45.7492
136.6454 105.5908 69.9999 3934.3831 3912.9536 45.3195
137.6424 105.6109 70.0781 3935.3833 3913.9189 44.8889
138.6391 105.6310 70.1605 3936.3833 3914.8840 44.4573
139.6354 105.6513 70.2477 3937.3833 3915.8489 44.0249
140.6312 105.6715 70.3403 3938.3835 3916.8130 43.5915
141.6264 105.6917 70.4390 3939.3835 3917.7751 43.1571
142.6210 105.7117 70.5448 3940.3838 3918.7363 42.7217
143.6146 105.7315 70.6586 3941.3838 3919.6958 42.2854
144.6072 105.7509 70.7811 3942.3838 3920.6541 41.8480
145.5986 105.7701 70.9130 3943.3840 3921.6108 41.4095
146.5886 105.7888 71.0545 3944.3840 3922.5667 41.0293
147.5771 105.8072 71.2059 3945.3843 3923.5215 41.0493
148.5641 105.8251 71.3670 3946.3843 3924.4756 41.2779
149.5496 105.8427 71.5378 3947.3843 3925.4292 41.5042
150.5334 105.8599 71.7178 3948.3845 3926.3821 41.7283
151.5155 105.8767 71.9067 3949.3845 3927.3350 41.9501
152.4960 105.8933 72.1039 3950.3848 3928.2876 42.1699
153.4749 105.9096 72.3087 3951.3848 3929.2400 42.3875
154.4523 105.9257 72.5205 3952.3848 3930.1926 42.6030
155.4283 105.9416 72.7386 3953.3850 3931.1455 42.8165
156.4030 105.9575 72.9626 3954.3850 3932.0984 43.0281
157.3765 105.9733 73.1918 3955.3853 3933.0520 43.2377
158.3488 105.9890 73.4261 3956.3853 3934.0061 43.4453
159.3199 106.0048 73.6652 3957.3853 3934.9609 43.6511
160.2897 106.0205 73.9091 3958.3855 3935.9167 43.8551
161.2584 106.0362 74.1579 3959.3855 3936.8735 44.0573
162.2257 106.0519 74.4117 3960.3857 3937.8318 44.2576
163.1917 106.0675 74.6707 3961.3857 3938.7915 44.4563
164.1562 106.0830 74.9352 3962.3857 3939.7532 44.6532
165.1190 106.0985 75.2057 3963.3860 3940.7163 44.8484
166.0801 106.1138 75.4825 3964.3860 3941.6804 45.0420
167.0391 106.1291 75.7660 3965.3862 3942.6455 45.2340
167.9961 106.1442 76.0563 3966.3862 3943.6106 45.4243
168.9510 106.1593 76.3534 3967.3862 3944.5754 45.6131
169.9038 106.1742 76.6571 3968.3865 3945.5403 45.8004
170.8547 106.1893 76.9670 3969.3865 3946.5049 45.9861
171.8036 106.2044 77.2827 3970.3867 3947.4685 46.1703
172.7507 106.2196 77.6039 3971.3867 3948.4319 46.3531
173.6960 106.2348 77.9305 3972.3867 3949.3950 46.5344
174.6394 106.2500 78.2626 3973.3870 3950.3577 46.7142
175.5808 106.2651 78.6002 3974.3870 3951.3198 46.8927
176.5201 106.2802 78.9437 3975.3872 3952.2820 47.0698
177.4572 106.2953 79.2930 3976.3872 3953.2437 47.2455
178.3921 106.3104 79.6483 3977.3872 3954.2053 47.4199
179.3246 106.3252 80.0095 3978.3875 3955.1665 47.5929
180.2548 106.3399 80.3768 3979.3875 3956.1279 47.7647
181.1826 106.3544 80.7501 3980.3877 3957.0896 47.9351
182.1078 106.3690 81.1297 3981.3877 3958.0513 48.1043
183.0305 106.3837 81.5154 3982.3877 3959.0139 48.2723
183.9505 106.3983 81.9075 3983.3879 3959.9778 48.4390
184.8679 106.4126 82.3057 3984.3879 3960.9441 48.6045
185.7826 106.4267 82.7102 3985.3882 3961.9138 48.7689
186.6945 106.4404 83.1208 3986.3882 3962.8877 48.9320
187.6038 106.4538 83.5372 3987.3882 3963.8677 49.0940
188.5105 106.4668 83.9593 3988.3884 3964.8530 49.2548
189.4148 106.4795 84.3866 3989.3884 3965.8442 49.4145
190.3169 106.4919 84.8184 3990.3887 3966.8403 49.5731
191.2171 106.5039 85.2541 3991.3887 3967.8386 49.7306
192.1158 106.5155 85.6929 3992.3887 3968.8394 49.8870
193.0133 106.5268 86.1342 3993.3889 3969.8406 50.0423
193.9100 106.5377 86.5771 3994.3889 3970.8423 50.1966
194.8062 106.5483 87.0212 3995.3892 3971.8442 50.3498
195.7020 106.5585 87.4657 3996.3892 3972.8457 50.5020
196.5978 106.5684 87.9103 3997.3892 3973.8469 50.6532
197.4936 106.5780 88.3547 3998.3894 3974.8479 50.8034
198.3897 106.5873 88.7988 3999.3894 3975.8486 50.9526
199.2859 106.5963 89.2425 4000.3896 3976.8491 51.1008
200.1823 106.6050 89.6859 4001.3896 3977.8499 51.2480
201.0788 106.6136 90.1291 4002.3896 3978.8503 51.3943
201.9755 106.6220 90.5719 4003.3899 3979.8508 51.5396
202.8723 106.6302 91.0145 4004.3899 3980.8511 51.6840
203.7694 106.6383 91.4565 4005.3901 3981.8516 51.8275
204.6667 106.6464 91.8980 4006.3901 3982.8521 51.9701
205.5643 106.6545 92.3389 4007.3901 3983.8525 52.1117
206.4622 106.6625 92.7792 4008.3904 3984.8530 52.2525
207.3603 106.6705 93.2190 4009.3904 3985.8535 52.3924
208.2586 106.6785 93.6586 4010.3906 3986.8540 52.5314
209.1569 106.6864 94.0981 4011.3906 3987.8545 52.6696
210.0551 106.6941 94.5379 4012.3906 3988.8550 52.8069
210.9530 106.7017 94.9782 4013.3909 3989.8555 52.9434
211.8505 106.7090 95.4194 4014.3909 3990.8557 53.0791
212.7475 106.7161 95.8616 4015.3911 3991.8562 53.2139
213.6440 106.7228 96.3048 4016.3911 3992.8567 53.3479
214.5400 106.7292 96.7492 4017.3911 3993.8572 53.4811
215.4354 106.7353 97.1947 4018.3914 3994.8577 53.6135
216.3302 106.7409 97.6413 4019.3914 3995.8582 53.7452
217.2245 106.7462 98.0890 4020.3916 3996.8586 53.8760
218.1183 106.7510 98.5377 4021.3916 3997.8591 54.0061
219.0116 106.7555 98.9874 4022.3916 3998.8596 54.1354
219.9044 106.7597 99.4380 4023.3918 3999.8601 54.2640
220.7968 106.7635 99.8896 4024.3918 4000.8604 54.3918
221.6889 106.7671 100.3418 4025.3921 4001.8608 54.5189
222.5807 106.7703 100.7946 4026.3921 4002.8613 54.6453
223.4723 106.7733 101.2477 4027.3921 4003.8618 54.7709
224.3637 106.7760 101.7010 4028.3923 4004.8623 54.8959
225.2551 106.7785 102.1544 4029.3923 4005.8625 55.0201
226.1465 106.7807 102.6076 4030.3926 4006.8628 55.1436
227.0380 106.7828 103.0607 4031.3926 4007.8633 55.2664
227.9297 106.7846 103.5135 4032.3926 4008.8638 55.3886
228.8216 106.7863 103.9663 4033.3928 4009.8643 55.5100
229.7135 106.7879 104.4188 4034.3928 4010.8647 55.6308
230.6055 106.7894 104.8712 4035.3931 4011.8650 55.7509
231.4974 106.7911 105.3235 4036.3931 4012.8655 55.8704
232.3893 106.7928 105.7758 4037.3931 4013.8657 55.9892
233.2813 106.7948 106.2280 4038.3933 4014.8662 56.1074
234.1732 106.7969 106.6803 4039.3933 4015.8665 56.2249
235.0652 106.7992 107.1326 4040.3936 4016.8667 56.3418
235.9571 106.8017 107.5849 4041.3936 4017.8672 56.4581
236.8490 106.8044 108.0372 4042.3936 4018.8674 56.5737
237.7409 106.8070 108.4895 4043.3938 4019.8679 56.6887
238.6328 106.8097 108.9418 4044.3938 4020.8682 56.8031
239.5247 106.8123 109.3941 4045.3940 4021.8684 56.9169
240.4167 106.8146 109.8464 4046.3940 4022.8689 57.0302
241.3088 106.8165 110.2987 4047.3940 4023.8694 57.1428
242.2008 106.8181 110.7510 4048.3943 4024.8699 57.2548
243.0927 106.8192 111.2031 4049.3943 4025.8701 57.3662
243.9847 106.8198 111.6552 4050.3945 4026.8704 57.4771
244.8768 106.8199 112.1073 4051.3945 4027.8708 57.5874
245.7689 106.8196 112.5593 4052.3945 4028.8711 57.6971
246.6610 106.8188 113.0112 4053.3948 4029.8716 57.8063
247.5533 106.8176 113.4630 4054.3948 4030.8718 57.5964
248.4455 106.8160 113.9147 4055.3950 4031.8721 57.2342
249.3379 106.8141 114.3663 4056.3950 4032.8726 56.8703
250.2303 106.8118 114.8177 4057.3950 4033.8728 56.5047
251.1228 106.8092 115.2690 4058.3953 4034.8733 56.1374
252.0154 106.8063 115.7203 4059.3953 4035.8738 55.7683
252.9079 106.8030 116.1715 4060.3955 4036.8743 55.3973
253.8005 106.7994 116.6226 4061.3955 4037.8752 55.0246
254.6932 106.7957 117.0737 4062.3955 4038.8762 54.6500
255.5858 106.7918 117.5249 4063.3958 4039.8774 54.2735
256.4783 106.7878 117.9762 4064.3958 4040.8789 53.8950
257.3707 106.7839 118.4276 4065.3960 4041.8804 53.5146
258.2631 106.7800 118.8791 4066.3960 4042.8813 53.1321
259.1554 106.7763 119.3308 4067.3960 4043.8816 52.7476
260.0477 106.7726 119.7827 4068.3962 4044.8801 52.3610
260.9397 106.7691 120.2350 4069.3962 4045.8755 51.9723
261.8314 106.7656 120.6878 4070.3965 4046.8672 51.5813
262.7227 106.7622 121.1414 4071.3965 4047.8528 51.1882
263.6132 106.7588 121.5965 4072.3965 4048.8330 50.7927
264.5028 106.7555 122.0535 4073.3967 4049.8081 50.3950
265.3909 106.7523 122.5133 4074.3967 4050.7786 49.9948
266.2771 106.7491 122.9767 4075.3970 4051.7468 49.5922
267.1609 106.7461 123.4447 4076.3970 4052.7124 49.1871
268.0420 106.7431 123.9178 4077.3970 4053.6777 48.7795
268.9200 106.7404 124.3966 4078.3972 4054.6423 48.3693
269.7951 106.7376 124.8808 4079.3972 4055.6069 47.9564
270.6673 106.7343 125.3702 4080.3975 4056.5720 47.5408
271.5369 106.7303 125.8642 4081.3975 4057.5374 47.1224
272.4043 106.7253 126.3621 4082.3975 4058.5034 46.7011
273.2698 106.7193 126.8631 4083.3977 4059.4700 46.2769
274.1336 106.7125 127.3669 4084.3977 4060.4375 45.8497
274.9960 106.7053 127.8733 4085.3979 4061.4055 45.4202
275.8569 106.6978 128.3823 4086.3979 4062.3740 44.9898
276.7159 106.6902 128.8944 4087.3979 4063.3428 44.5584
277.5727 106.6827 129.4104 4088.3982 4064.3113 44.1262
278.4266 106.6754 129.9310 4089.3982 4065.2783 43.6930
279.2769 106.6684 130.4575 4090.3984 4066.2441 43.2589
280.1230 106.6618 130.9907 4091.3984 4067.2065 42.8238
280.9644 106.6554 131.5313 4092.3984 4068.1653 42.3876
281.8008 106.6493 132.0798 4093.3987 4069.1199 42.2607
282.6319 106.6434 132.6361 4094.3987 4070.0698 42.1665
283.4577 106.6376 133.2003 4095.3987 4071.0168 42.3842
284.2782 106.6318 133.7722 4096.3989 4071.9609 42.5997
285.0934 106.6258 134.3517 4097.3989 4072.9028 42.6108
285.9033 106.6197 134.9385 4098.3989 4073.8433 42.1742
286.7079 106.6133 135.5325 4099.3994 4074.7825 41.7365
287.5073 106.6064 136.1335 4100.3994 4075.7212 41.2977
288.3014 106.5991 136.7414 4101.3994 4076.6597 40.8579
289.0902 106.5912 137.3561 4102.3994 4077.5979 40.4169
289.8737 106.5829 137.9777 4103.3994 4078.5364 39.9748
290.6517 106.5740 138.6063 4104.3999 4079.4749 39.5315
291.4239 106.5646 139.2419 4105.3999 4080.4138 39.0870
292.1900 106.5549 139.8849 4106.3999 4081.3538 38.6413
292.9496 106.5448 140.5354 4107.3999 4082.2939 38.1943
293.7022 106.5344 141.1939 4108.3999 4083.2351 37.7460
294.4475 106.5240 141.8608 4109.4004 4084.1775 37.2963
295.1851 106.5135 142.5364 4110.4004 4085.1206 37.0321
295.9146 106.5031 143.2206 4111.4004 4086.0649 36.8170
296.6360 106.4928 143.9134 4112.4004 4087.0100 37.0930
297.3492 106.4827 144.6145 4113.4004 4087.9548 37.3655
298.0545 106.4728 145.3237 4114.4009 4088.8997 37.6348
298.7520 106.4632 146.0404 4115.4009 4089.8445 37.9008
299.4418 106.4537 146.7643 4116.4009 4090.7886 38.1636
300.1243 106.4443 147.4952 4117.4009 4091.7314 38.4234
300.7996 106.4350 148.2328 4118.4009 4092.6736 38.6802
301.4679 106.4258 148.9767 4119.4014 4093.6150 38.9340
302.1295 106.4165 149.7268 4120.4014 4094.5554 39.1850
302.7848 106.4072 150.4823 4121.4014 4095.4956 39.4332
303.4344 106.3977 151.2426 4122.4014 4096.4355 39.6787
304.0789 106.3882 152.0072 4123.4014 4097.3750 39.9215
304.7183 106.3786 152.7761 4124.4019 4098.3145 39.9014
305.3525 106.3688 153.5494 4125.4019 4099.2544 39.4579
305.9810 106.3589 154.3275 4126.4019 4100.1948 39.0132
306.6028 106.3487 155.1109 4127.4019 4101.1357 38.5673
307.2170 106.3383 155.9002 4128.4019 4102.0776 38.1200
307.8228 106.3276 156.6960 4129.4023 4103.0200 37.6715
308.4196 106.3165 157.4984 4130.4023 4103.9639 37.2216
309.0070 106.3049 158.3076 4131.4023 4104.9087 37.4926
309.5851 106.2930 159.1237 4132.4023 4105.8555 37.4296
310.1538 106.2805 159.9462 4133.4023 4106.8032 36.9790
310.7134 106.2674 160.7751 4134.4028 4107.7520 36.5270
311.2638 106.2537 161.6102 4135.4028 4108.7017 36.0735
311.8051 106.2394 162.4511 4136.4028 4109.6514 35.6186
312.3372 106.2244 163.2978 4137.4028 4110.6006 35.1621
312.8602 106.2089 164.1501 4138.4028 4111.5498 34.7041
313.3741 106.1930 165.0080 4139.4033 4112.4985 34.2444
313.8788 106.1767 165.8715 4140.4033 4113.4463 33.7831
314.3742 106.1602 166.7403 4141.4033 4114.3936 33.3200
314.8599 106.1437 167.6145 4142.4033 4115.3403 32.8552
315.3359 106.1271 168.4940 4143.4033 4116.2866 32.3885
315.8017 106.1105 169.3789 4144.4038 4117.2329 31.9199
316.2570 106.0941 170.2693 4145.4038 4118.1792 31.4494
316.7015 106.0776 171.1651 4146.4038 4119.1250 30.9768
317.1347 106.0613 172.0664 4147.4038 4120.0708 30.5022
317.5564 106.0450 172.9731 4148.4038 4121.0146 30.0253
317.9665 106.0288 173.8852 4149.4043 4121.9575 29.5462
318.3648 106.0126 174.8026 4150.4043 4122.8975 29.0648
318.7514 105.9965 175.7250 4151.4043 4123.8325 28.5809
319.1263 105.9804 176.6522 4152.4043 4124.7642 28.0945
319.4895 105.9643 177.5839 4153.4043 4125.6895 27.6054
319.8412 105.9481 178.5202 4154.4048 4126.6104 27.1136
320.1814 105.9318 179.4607 4155.4048 4127.5278 26.6190
320.5101 105.9154 180.4052 4156.4048 4128.4409 26.1213
320.8274 105.8988 181.3536 4157.4048 4129.3521 25.6206
321.1330 105.8821 182.3057 4158.4048 4130.2622 25.1165
321.4269 105.8652 183.2617 4159.4053 4131.1709 24.6091
321.7084 105.8481 184.2213 4160.4053 4132.0801 24.0980
321.9770 105.8309 185.1846 4161.4053 4132.9897 23.5832
322.2314 105.8135 186.1517 4162.4053 4133.9009 23.0644
322.4703 105.7961 187.1227 4163.4053 4134.8140 22.5414
322.6915 105.7785 188.0979 4164.4058 4135.7271 22.0140
322.8925 105.7607 189.0775 4165.4058 4136.6401 21.4820
323.0708 105.7427 190.0615 4166.4058 4137.5532 20.9449
323.2236 105.7245 191.0498 4167.4058 4138.4653 20.4026
323.3486 105.7061 192.0420 4168.4058 4139.3696 19.8547
323.4439 105.6872 193.0374 4169.4062 4140.2681 19.3858
323.5083 105.6681 194.0354 4170.4062 4141.1577 19.2410
323.5411 105.6485 195.0349 4171.4062 4142.0366 19.0954
323.5418 105.6286 196.0349 4172.4062 4142.9087 19.0930
323.5105 105.6085 197.0344 4173.4062 4143.7759 19.0797
323.4471 105.5881 198.0324 4174.4067 4144.6372 19.1584
323.3519 105.5676 199.0278 4175.4067 4145.4971 19.2650
323.2254 105.5471 200.0198 4176.4067 4146.3584 19.4833
323.0683 105.5268 201.0073 4177.4067 4147.2217 19.8769
322.8819 105.5067 201.9898 4178.4067 4148.0859 20.3943
322.6677 105.4870 202.9665 4179.4072 4148.9565 20.8988
322.4282 105.4680 203.9374 4180.4072 4149.8354 21.3913
322.1660 105.4497 204.9025 4181.4072 4150.7197 21.8726
321.8838 105.4324 205.8620 4182.4072 4151.6113 22.3435
321.5846 105.4159 206.8163 4183.4072 4152.5112 22.8046
321.2707 105.4004 207.7658 4184.4077 4153.4126 23.2564
320.9436 105.3858 208.7109 4185.4077 4154.3145 23.6995
320.6040 105.3719 209.6515 4186.4077 4155.2163 24.1345
320.2516 105.3585 210.5874 4187.4077 4156.1182 24.5616
319.8854 105.3453 211.5182 4188.4077 4157.0161 24.9814
319.5042 105.3319 212.4429 4189.4077 4157.9106 25.3942
319.1067 105.3183 213.3607 4190.4082 4158.8032 25.8003
318.6924 105.3042 214.2710 4191.4082 4159.6953 26.2000
318.2610 105.2895 215.1734 4192.4082 4160.5884 26.5937
317.8133 105.2743 216.0678 4193.4082 4161.4829 26.9816
317.3503 105.2584 216.9543 4194.4082 4162.3789 27.3639
316.8732 105.2421 217.8332 4195.4087 4163.2822 27.7409
316.3830 105.2255 218.7049 4196.4087 4164.1924 28.1128
315.8804 105.2086 219.5695 4197.4087 4165.1094 28.4797
315.3654 105.1916 220.4268 4198.4087 4166.0337 28.8420
314.8376 105.1745 221.2764 4199.4087 4166.9629 29.1997
314.2963 105.1574 222.1174 4200.4092 4167.8955 28.8320
313.7404 105.1403 222.9489 4201.4092 4168.8315 28.3469
313.1695 105.1231 223.7701 4202.4092 4169.7681 27.8592
312.5831 105.1057 224.5802 4203.4092 4170.7056 27.7856
311.9811 105.0882 225.3790 4204.4092 4171.6436 27.9207
311.3642 105.0702 226.1660 4205.4097 4172.5815 28.2902
310.7330 105.0519 226.9417 4206.4097 4173.5200 28.6549
310.0888 105.0331 227.7067 4207.4097 4174.4590 29.0149
309.4331 105.0140 228.4619 4208.4097 4175.3989 29.3705
308.7675 104.9945 229.2084 4209.4097 4176.3398 29.7217
308.0937 104.9748 229.9473 4210.4102 4177.2817 30.0688
307.4127 104.9548 230.6796 4211.4102 4178.2251 30.4120
306.7255 104.9344 231.4061 4212.4102 4179.1699 30.7512
306.0327 104.9138 232.1273 4213.4102 4180.1167 31.0867
305.3347 104.8926 232.8434 4214.4102 4181.0645 31.4185
304.6315 104.8709 233.5545 4215.4106 4182.0117 31.7469
303.9232 104.8486 234.2606 4216.4106 4182.9595 32.0718
303.2098 104.8256 234.9617 4217.4106 4183.9077 32.3935
302.4915 104.8023 235.6575 4218.4106 4184.8545 32.7119
301.7683 104.7790 236.3481 4219.4106 4185.8003 33.0272
301.0400 104.7558 237.0335 4220.4111 4186.7456 33.3395
300.3068 104.7331 237.7135 4221.4111 4187.6899 33.6489
299.5684 104.7106 238.3878 4222.4111 4188.6333 33.9554
298.8248 104.6885 239.0564 4223.4111 4189.5762 34.2592
298.0757 104.6667 239.7191 4224.4111 4190.5186 34.5602
297.3211 104.6453 240.3755 4225.4116 4191.4609 34.8586
296.5609 104.6244 241.0255 4226.4116 4192.4033 35.1544
295.7949 104.6041 241.6688 4227.4116 4193.3457 35.4477
295.0233 104.5843 242.3051 4228.4116 4194.2881 35.7386
294.2459 104.5648 242.9343 4229.4116 4195.2319 36.0271
293.4628 104.5456 243.5563 4230.4121 4196.1763 36.3131
292.6739 104.5264 244.1711 4231.4121 4197.1226 36.5955
291.8793 104.5072 244.7784 4232.4121 4198.0713 36.8742
291.0791 104.4879 245.3784 4233.4121 4199.0234 37.1495
290.2734 104.4686 245.9709 4234.4121 4199.9795 37.4214
289.4622 104.4492 246.5558 4235.4126 4200.9395 37.6899
288.6457 104.4296 247.1332 4236.4126 4201.9033 37.9553
287.8238 104.4101 247.7029 4237.4126 4202.8696 38.2175
286.9967 104.3905 248.2649 4238.4126 4203.8379 38.4766
286.1646 104.3708 248.8194 4239.4126 4204.8071 38.7328
285.3274 104.3510 249.3665 4240.4131 4205.7769 38.9860
284.4856 104.3311 249.9066 4241.4131 4206.7466 39.2364
283.6395 104.3111 250.4399 4242.4131 4207.7158 39.4841
282.7895 104.2910 250.9670 4243.4131 4208.6851 39.7290
281.9362 104.2708 251.4886 4244.4131 4209.6538 39.9713
281.0800 104.2507 252.0054 4245.4136 4210.6216 40.2110
280.2215 104.2305 252.5184 4246.4136 4211.5894 40.4482
279.3613 104.2104 253.0285 4247.4136 4212.5566 40.6829
278.5000 104.1905 253.5366 4248.4136 4213.5239 40.9152
277.6379 104.1706 254.0436 4249.4136 4214.4917 41.1452
276.7755 104.1510 254.5502 4250.4141 4215.4600 41.3728
275.9131 104.1315 255.0570 4251.4141 4216.4287 41.5981
275.0511 104.1123 255.5643 4252.4141 4217.3999 41.8213
274.1898 104.0933 256.0727 4253.4141 4218.3735 42.0422
273.3293 104.0746 256.5822 4254.4141 4219.3511 42.2611
272.4695 104.0561 257.0931 4255.4146 4220.3335 42.4778
271.6107 104.0378 257.6056 4256.4146 4221.3208 42.6925
270.7527 104.0196 258.1196 4257.4146 4222.3130 42.9052
269.8955 104.0014 258.6351 4258.4146 4223.3076 43.1159
269.0393 103.9831 259.1518 4259.4146 4224.3047 43.3247
268.1839 103.9645 259.6697 4260.4150 4225.3032 43.5316
267.3290 103.9458 260.1886 4261.4150 4226.3018 43.7366
266.4745 103.9268 260.7081 4262.4150 4227.3013 43.9398
265.6203 103.9076 261.2281 4263.4150 4228.3003 44.1412
264.7661 103.8884 261.7480 4264.4150 4229.2988 44.3409
263.9116 103.8693 262.2676 4265.4155 4230.2979 44.5388
263.0564 103.8503 262.7863 4266.4155 4231.2964 44.7350
262.2002 103.8317 263.3035 4267.4155 4232.2949 44.9296
261.3428 103.8135 263.8183 4268.4155 4233.2935 45.1225
260.4837 103.7957 264.3304 4269.4155 4234.2915 45.3138
259.6227 103.7785 264.8391 4270.4160 4235.2900 45.5035
258.7596 103.7618 265.3442 4271.4160 4236.2886 45.6916
257.8942 103.7457 265.8456 4272.4160 4237.2871 45.8782
257.0267 103.7300 266.3432 4273.4160 4238.2856 46.0633
256.1571 103.7148 266.8370 4274.4160 4239.2847 46.2469
255.2856 103.6999 267.3275 4275.4165 4240.2832 46.4290
254.4124 103.6851 267.8152 4276.4165 4241.2822 46.6097
253.5378 103.6704 268.3006 4277.4165 4242.2808 46.7890
252.6624 103.6558 268.7844 4278.4165 4243.2798 46.9669
251.7865 103.6410 269.2671 4279.4165 4244.2788 47.1434
250.9102 103.6262 269.7494 4280.4170 4245.2773 47.3185
250.0339 103.6113 270.2314 4281.4170 4246.2764 47.4924
249.1575 103.5962 270.7133 4282.4170 4247.2754 47.6649
248.2811 103.5811 271.1953 4283.4170 4248.2744 47.8361
247.4048 103.5659 271.6775 4284.4170 4249.2729 48.0060
246.5285 103.5508 272.1597 4285.4175 4250.2720 48.1747
245.6522 103.5358 272.6419 4286.4175 4251.2710 48.3421
244.7759 103.5210 273.1241 4287.4175 4252.2695 48.5084
243.8996 103.5063 273.6063 4288.4175 4253.2686 48.6734
243.0233 103.4919 274.0884 4289.4175 4254.2676 48.8372
242.1469 103.4777 274.5705 4290.4180 4255.2661 48.9999
241.2706 103.4638 275.0525 4291.4180 4256.2651 49.1614
240.3942 103.4501 275.5342 4292.4180 4257.2642 49.3217
239.5179 103.4367 276.0159 4293.4180 4258.2632 49.4809
238.6415 103.4236 276.4975 4294.4180 4259.2622 49.6391
237.7650 103.4108 276.9789 4295.4185 4260.2612 49.7961
236.8885 103.3982 277.4603 4296.4185 4261.2607 49.9521
236.0118 103.3859 277.9416 4297.4185 4262.2607 50.1069
235.1350 103.3739 278.4229 4298.4185 4263.2607 50.2608
234.2582 103.3622 278.9041 4299.4185 4264.2607 50.4136
233.3814 103.3507 279.3851 4300.4189 4265.2612 50.5653
232.5047 103.3395 279.8661 4301.4189 4266.2612 50.7161
231.6280 103.3287 280.3471 4302.4189 4267.2612 50.8659
230.7512 103.3181 280.8281 4303.4189 4268.2612 51.0146
229.8745 103.3077 281.3091 4304.4189 4269.2612 51.1624
228.9977 103.2976 281.7901 4305.4194 4270.2617 51.3093
228.1210 103.2876 282.2711 4306.4194 4271.2617 51.4551
227.2441 103.2778 282.7520 4307.4194 4272.2617 51.6001
226.3672 103.2681 283.2328 4308.4194 4273.2617 51.7441
225.4902 103.2584 283.7134 4309.4194 4274.2617 51.8872
224.6131 103.2489 284.1940 4310.4199 4275.2622 52.0294
223.7359 103.2394 284.6744 4311.4199 4276.2622 52.1707
222.8587 103.2301 285.1547 4312.4199 4277.2622 52.3111
221.9814 103.2208 285.6347 4313.4199 4278.2622 52.4506
221.1039 103.2117 286.1146 4314.4199 4279.2622 52.5893
220.2264 103.2027 286.5942 4315.4204 4280.2627 52.7271
219.3488 103.1938 287.0737 4316.4204 4281.2627 52.8641
218.4711 103.1850 287.5530 4317.4204 4282.2627 53.0002
217.5932 103.1764 288.0320 4318.4204 4283.2627 53.1355
216.7153 103.1678 288.5108 4319.4204 4284.2627 53.2700
215.8371 103.1594 288.9895 4320.4209 4285.2632 53.4037
214.9589 103.1512 289.4679 4321.4209 4286.2632 53.5366
214.0806 103.1431 289.9461 4322.4209 4287.2632 53.6687
213.2021 103.1352 290.4240 4323.4209 4288.2632 53.8000
212.3235 103.1274 290.9017 4324.4209 4289.2632 53.9305
211.4447 103.1198 291.3792 4325.4214 4290.2637 54.0603
210.5659 103.1124 291.8564 4326.4214 4291.2637 54.1893
209.6869 103.1051 292.3333 4327.4214 4292.2637 54.3175
208.8077 103.0980 292.8100 4328.4214 4293.2637 54.4451
207.9284 103.0909 293.2864 4329.4214 4294.2637 54.5718
207.0490 103.0840 293.7626 4330.4219 4295.2642 54.6979
206.1694 103.0771 294.2386 4331.4219 4296.2642 54.8232
205.2898 103.0704 294.7144 4332.4219 4297.2642 54.9479
204.4100 103.0638 295.1900 4333.4219 4298.2642 55.0718
203.5301 103.0573 295.6654 4334.4219 4299.2642 55.1950
202.6501 103.0510 296.1407 4335.4224 4300.2646 55.3176
201.7700 103.0448 296.6157 4336.4224 4301.2646 55.4394
200.8899 103.0389 297.0906 4337.4224 4302.2646 55.5606
200.0096 103.0331 297.5653 4338.4224 4303.2646 55.6811
199.1293 103.0275 298.0399 4339.4224 4304.2646 55.8010
198.2490 103.0221 298.5143 4340.4229 4305.2651 55.9202
197.3685 103.0170 298.9887 4341.4229 4306.2651 56.0387
196.4880 103.0121 299.4629 4342.4229 4307.2651 56.1566
195.6075 103.0075 299.9370 4343.4229 4308.2651 56.2738
194.7269 103.0032 300.4111 4344.4229 4309.2651 56.3905
193.8462 102.9991 300.8851 4345.4233 4310.2656 56.5065
192.9654 102.9953 301.3591 4346.4233 4311.2656 56.6219
192.0846 102.9916 301.8329 4347.4233 4312.2656 56.7366
191.2040 102.9882 302.3066 4348.4233 4313.2656 56.8508
190.3233 102.9850 302.7803 4349.4233 4314.2651 56.9643
189.4425 102.9819 303.2538 4350.4238 4315.2651 57.0773
188.5617 102.9790 303.7274 4351.4238 4316.2651 57.1897
187.6809 102.9762 304.2010 4352.4238 4317.2646 57.3014
186.8001 102.9736 304.6745 4353.4238 4318.2646 57.4127
185.9193 102.9713 305.1481 4354.4238 4319.2646 57.5233
185.0385 102.9691 305.6216 4355.4243 4320.2642 57.6333
184.1577 102.9672 306.0952 4356.4243 4321.2642 57.7428
183.2769 102.9654 306.5689 4357.4243 4322.2642 57.8518
182.3962 102.9639 307.0426 4358.4243 4323.2642 57.9601
181.5155 102.9626 307.5164 4359.4243 4324.2637 58.0680
180.6349 102.9615 307.9903 4360.4248 4325.2637 58.1752
179.7543 102.9606 308.4643 4361.4248 4326.2637 58.2820
178.8737 102.9599 308.9383 4362.4248 4327.2632 58.3882
177.9931 102.9594 309.4123 4363.4248 4328.2632 58.4938
177.1126 102.9591 309.8863 4364.4248 4329.2632 58.5990
176.2320 102.9588 310.3603 4365.4253 4330.2627 58.7036
175.3515 102.9587 310.8343 4366.4253 4331.2627 58.8077
174.4709 102.9586 311.3082 4367.4253 4332.2627 58.9113
173.5902 102.9585 311.7821 4368.4253 4333.2627 59.0144
172.7095 102.9583 312.2559 4369.4253 4334.2622 59.1170
171.8288 102.9580 312.7296 4370.4258 4335.2622 59.2190
170.9481 102.9578 313.2032 4371.4258 4336.2622 59.3206
170.0672 102.9577 313.6768 4372.4258 4337.2617 59.4217
169.1864 102.9577 314.1503 4373.4258 4338.2617 59.5223
168.3055 102.9578 314.6238 4374.4258 4339.2617 59.6224
167.4246 102.9581 315.0972 4375.4263 4340.2612 59.7220
166.5437 102.9585 315.5706 4376.4263 4341.2612 59.8212
165.6628 102.9591 316.0440 4377.4263 4342.2612 59.9199
164.7819 102.9600 316.5173 4378.4263 4343.2612 60.0181
163.9010 102.9611 316.9907 4379.4263 4344.2607 60.1158
163.0202 102.9627 317.4642 4380.4268 4345.2607 60.2131
162.1394 102.9650 317.9378 4381.4268 4346.2607 60.3100
161.2587 102.9680 318.4115 4382.4268 4347.2603 60.4063
160.3781 102.9719 318.8856 4383.4268 4348.2603 60.5023
159.4978 102.9768 319.3600 4384.4268 4349.2603 60.5977
158.6177 102.9821 319.8348 4385.4272 4350.2598 60.6928
157.7378 102.9875 320.3100 4386.4272 4351.2598 60.7874
156.8581 102.9922 320.7856 4387.4272 4352.2598 60.8815
155.9786 102.9962 321.2616 4388.4272 4353.2598 60.9753
155.0993 102.9995 321.7379 4389.4272 4354.2593 61.0686
154.2202 103.0025 322.2146 4390.4277 4355.2593 61.1614
153.3412 103.0056 322.6915 4391.4277 4356.2593 61.2539
152.4623 103.0087 323.1685 4392.4277 4357.2588 61.3459
151.5834 103.0120 323.6456 4393.4277 4358.2588 61.4375
150.7045 103.0154 324.1226 4394.4277 4359.2588 61.5287
149.8254 103.0189 324.5994 4395.4282 4360.2588 61.6195
148.9460 103.0226 325.0759 4396.4282 4361.2588 61.7098
148.0663 103.0263 325.5520 4397.4282 4362.2588 61.7998
147.1864 103.0301 326.0274 4398.4282 4363.2588 61.8894
146.3062 103.0339 326.5023 4399.4282 4364.2588 61.9785
145.4257 103.0378 326.9766 4400.4287 4365.2593 62.0673
144.5449 103.0417 327.4505 4401.4287 4366.2593 62.1557
143.6640 103.0457 327.9240 4402.4287 4367.2593 62.2437
142.7829 103.0498 328.3972 4403.4287 4368.2593 62.3313
141.9018 103.0539 328.8704 4404.4287 4369.2593 62.4185
141.0207 103.0583 329.3436 4405.4292 4370.2598 62.5053
140.1397 103.0628 329.8168 4406.4292 4371.2598 62.5918
139.2587 103.0677 330.2901 4407.4292 4372.2598 62.6779
138.3778 103.0731 330.7637 4408.4292 4373.2598 62.7636
137.4971 103.0789 331.2374 4409.4292 4374.2598 62.8489
136.6164 103.0851 331.7114 4410.4297 4375.2603 62.9339
135.7359 103.0915 332.1856 4411.4297 4376.2603 63.0185
134.8555 103.0977 332.6600 4412.4297 4377.2603 63.1027
133.9751 103.1030 333.1345 4413.4297 4378.2603 63.1866
133.0947 103.1069 333.6089 4414.4297 4379.2603 63.2701
132.2141 103.1089 334.0831 4415.4302 4380.2607 63.3533
131.3333 103.1092 334.5569 4416.4302 4381.2607 63.4361
130.4523 103.1080 335.0301 4417.4302 4382.2607 63.5185
129.5709 103.1059 335.5027 4418.4302 4383.2607 63.6006
128.6892 103.1033 335.9747 4419.4302 4384.2607 63.6824
127.8073 103.1007 336.4463 4420.4307 4385.2612 63.7638
126.9251 103.0984 336.9174 4421.4307 4386.2612 63.8449
126.0428 103.0968 337.3884 4422.4307 4387.2612 63.9256
125.1605 103.0956 337.8592 4423.4307 4388.2612 64.0060
124.2781 103.0946 338.3301 4424.4307 4389.2612 64.0861
123.3958 103.0937 338.8010 4425.4312 4390.2617 64.1658
122.5135 103.0928 339.2720 4426.4312 4391.2617 64.2452
121.6313 103.0918 339.7430 4427.4312 4392.2617 64.3243
120.7490 103.0907 340.2140 4428.4312 4393.2617 64.4030
119.8667 103.0895 340.6849 4429.4312 4394.2617 64.4814
118.9844 103.0881 341.1559 4430.4316 4395.2622 64.5595
118.1021 103.0867 341.6267 4431.4316 4396.2622 64.6373
117.2198 103.0853 342.0976 4432.4316 4397.2622 64.7148
116.3375 103.0838 342.5687 4433.4316 4398.2622 64.7919
115.4555 103.0823 343.0400 4434.4316 4399.2622 64.8688
114.5737 103.0807 343.5120 4435.4321 4400.2627 64.9453
113.6924 103.0792 343.9848 4436.4321 4401.2627 65.0215
112.8116 103.0776 344.4586 4437.4321 4402.2627 65.0974
111.9315 103.0759 344.9337 4438.4321 4403.2627 65.1730
111.0522 103.0741 345.4101 4439.4321 4404.2627 65.2483
110.1735 103.0721 345.8877 4440.4326 4405.2632 65.3233
109.2954 103.0700 346.3663 4441.4326 4406.2632 65.3980
108.4177 103.0676 346.8457 4442.4326 4407.2632 65.4724
107.5403 103.0649 347.3256 4443.4326 4408.2632 65.5465
106.6631 103.0620 347.8058 4444.4326 4409.2632 65.6203
105.7860 103.0588 348.2862 4445.4331 4410.2637 65.6938
104.9089 103.0553 348.7665 4446.4331 4411.2637 65.7670
104.0317 103.0515 349.2468 4447.4331 4412.2637 65.8400
103.1545 103.0475 349.7269 4448.4331 4413.2637 65.9126
102.2772 103.0433 350.2069 4449.4331 4414.2637 65.9850
101.3998 103.0388 350.6869 4450.4336 4415.2642 66.0571
100.5224 103.0341 351.1667 4451.4336 4416.2642 66.1289
99.6449 103.0293 351.6465 4452.4336 4417.2642 66.2004
98.7674 103.0242 352.1261 4453.4336 4418.2642 66.2716
97.8898 103.0190 352.6058 4454.4336 4419.2642 66.3426
97.0123 103.0136 353.0854 4455.4341 4420.2646 66.4133
96.1347 103.0079 353.5649 4456.4341 4421.2646 66.4837
95.2571 103.0021 354.0445 4457.4341 4422.2646 66.5538
94.3795 102.9960 354.5239 4458.4341 4423.2646 66.6237
93.5019 102.9896 355.0034 4459.4341 4424.2646 66.6933
92.6242 102.9829 355.4827 4460.4346 4425.2651 66.7626
91.7464 102.9759 355.9620 4461.4346 4426.2651 66.8317
90.8687 102.9685 356.4412 4462.4346 4427.2651 66.9005
89.9909 102.9607 356.9204 4463.4346 4428.2651 66.9690
89.1132 102.9526 357.3996 4464.4346 4429.2651 67.0373
88.2354 102.9441 357.8788 4465.4351 4430.2656 67.1053
87.3577 102.9352 358.3580 4466.4351 4431.2656 67.1731
86.4799 102.9261 358.8372 4467.4351 4432.2656 67.2406
85.6022 102.9167 359.3166 4468.4351 4433.2656 67.3079
84.7246 102.9071 359.7960 4469.4351 4434.2656 67.3749
83.8470 102.8974 360.2755 4470.4355 4435.2661 67.4416
82.9694 102.8876 360.7551 4471.4355 4436.2661 67.5081
82.0919 102.8779 361.2348 4472.4355 4437.2661 67.5744
81.2144 102.8681 361.7145 4473.4355 4438.2661 67.6404
80.3369 102.8585 362.1944 4474.4355 4439.2661 67.7061
79.4595 102.8488 362.6743 4475.4360 4440.2666 67.7716
78.5822 102.8392 363.1543 4476.4360 4441.2666 67.8369
77.7049 102.8296 363.6343 4477.4360 4442.2666 67.9019
76.8276 102.8199 364.1144 4478.4360 4443.2666 67.9667
75.9504 102.8100 364.5946 4479.4360 4444.2666 68.0313
75.0733 102.8000 365.0749 4480.4365 4445.2671 68.0956
74.1962 102.7897 365.5552 4481.4365 4446.2671 68.1596
73.3191 102.7792 366.0358 4482.4365 4447.2671 68.2235
72.4421 102.7683 366.5164 4483.4365 4448.2671 68.2871
71.5652 102.7571 366.9972 4484.4365 4449.2671 68.3504
70.6884 102.7455 367.4781 4485.4370 4450.2676 68.4136
69.8117 102.7337 367.9592 4486.4370 4451.2676 68.4765
68.9350 102.7215 368.4404 4487.4370 4452.2676 68.5392
68.0584 102.7090 368.9218 4488.4370 4453.2676 68.6016
67.1819 102.6962 369.4033 4489.4370 4454.2676 68.6638
66.3055 102.6832 369.8850 4490.4375 4455.2681 68.7259
65.4291 102.6699 370.3668 4491.4375 4456.2681 68.7876
64.5528 102.6564 370.8487 4492.4375 4457.2681 68.8492
63.6766 102.6427 371.3308 4493.4375 4458.2681 68.9105
62.8005 102.6288 371.8130 4494.4375 4459.2681 68.9716
61.9244 102.6148 372.2953 4495.4380 4460.2686 69.0325
61.0485 102.6005 372.7777 4496.4380 4461.2686 69.0932
60.1726 102.5860 373.2603 4497.4380 4462.2686 69.1536
59.2966 102.5714 373.7430 4498.4380 4463.2690 69.2139
58.4206 102.5564 374.2258 4499.4380 4464.2690 69.2739
57.5447 102.5413 374.7086 4500.4385 4465.2695 69.3337
56.6688 102.5259 375.1913 4501.4385 4466.2700 69.3933
55.7929 102.5102 375.6741 4502.4385 4467.2705 69.4527
54.9170 102.4942 376.1569 4503.4385 4468.2705 69.5119
54.0411 102.4780 376.6396 4504.4385 4469.2710 69.5709
53.1652 102.4614 377.1223 4505.4390 4470.2715 69.6296
52.2893 102.4446 377.6050 4506.4390 4471.2715 69.6882
51.4133 102.4276 378.0876 4507.4390 4472.2720 69.7465
50.5374 102.4104 378.5703 4508.4390 4473.2725 69.8047
49.6614 102.3930 379.0529 4509.4390 4474.2725 69.8626
48.7854 102.3755 379.5354 4510.4395 4475.2729 69.9204
47.9094 102.3580 380.0179 4511.4395 4476.2734 69.9779
47.0334 102.3403 380.5005 4512.4395 4477.2739 70.0352
46.1573 102.3227 380.9829 4513.4395 4478.2739 70.0924
45.2813 102.3050 381.4653 4514.4395 4479.2744 70.1493
44.4052 102.2874 381.9477 4515.4399 4480.2749 70.2060
43.5290 102.2696 382.4301 4516.4399 4481.2749 70.2626
42.6528 102.2518 382.9124 4517.4399 4482.2754 70.3189
41.7767 102.2339 383.3947 4518.4399 4483.2759 70.3751
40.9005 102.2158 383.8770 4519.4399 4484.2759 70.4311
40.0243 102.1975 384.3592 4520.4404 4485.2764 70.4868
39.1481 102.1789 384.8414 4521.4404 4486.2769 70.5424
38.2719 102.1600 385.3235 4522.4404 4487.2773 70.5978
37.3956 102.1407 385.8056 4523.4404 4488.2773 70.6530
36.5194 102.1211 386.2876 4524.4404 4489.2778 70.7080
35.6431 102.1011 386.7697 4525.4409 4490.2783 70.7628
34.7668 102.0807 387.2516 4526.4409 4491.2783 70.8175
33.8905 102.0600 387.7336 4527.4409 4492.2788 70.8719
33.0141 102.0390 388.2155 4528.4409 4493.2793 70.9262
32.1378 102.0177 388.6973 4529.4409 4494.2793 70.9803
31.2614 101.9962 389.1791 4530.4414 4495.2798 71.0341
30.3850 101.9745 389.6609 4531.4414 4496.2803 71.0879
29.5085 101.9527 390.1426 4532.4414 4497.2808 71.1414
28.6320 101.9308 390.6243 4533.4414 4498.2808 71.1947
27.7555 101.9088 391.1059 4534.4414 4499.2812 71.2479
26.8790 101.8867 391.5876 4535.4419 4500.2817 71.3009
26.0024 101.8645 392.0691 4536.4419 4501.2817 71.3537
25.1259 101.8422 392.5507 4537.4419 4502.2822 71.4064
24.2493 101.8199 393.0322 4538.4419 4503.2827 71.4588
23.3727 101.7973 393.5136 4539.4419 4504.2827 71.5111
22.4961 101.7746 393.9951 4540.4424 4505.2832 71.5632
21.6195 101.7517 394.4765 4541.4424 4506.2837 71.6152
20.7428 101.7286 394.9579 4542.4424 4507.2842 71.6669
19.8662 101.7053 395.4393 4543.4424 4508.2842 71.7185
18.9895 101.6818 395.9207 4544.4424 4509.2847 71.7700
18.1128 101.6580 396.4020 4545.4429 4510.2852 71.8212
17.2362 101.6340 396.8832 4546.4429 4511.2852 71.8723
16.3595 101.6098 397.3645 4547.4429 4512.2856 71.9232
15.4827 101.5854 397.8458 4548.4429 4513.2861 71.9740
14.6059 101.5608 398.3271 4549.4429 4514.2871 72.0245
13.7291 101.5359 398.8082 4550.4434 4515.2876 72.0749
12.8523 101.5109 399.2894 4551.4434 4516.2881 72.1252
11.9755 101.4857 399.7704 4552.4434 4517.2886 72.1753
11.0987 101.4603 400.2515 4553.4434 4518.2891 72.2252
10.2219 101.4347 400.7325 4554.4434 4519.2900 72.2750
9.3451 101.4088 401.2135 4555.4434 4520.2905 72.3245
8.4682 101.3828 401.6944 4556.4438 4521.2910 72.3740
7.5914 101.3566 402.1753 4557.4438 4522.2915 72.4232
6.7145 101.3303 402.6562 4558.4438 4523.2920 72.4724
5.8376 101.3038 403.1371 4559.4438 4524.2930 72.5213
4.9607 101.2771 403.6180 4560.4438 4525.2935 72.5701
4.0838 101.2504 404.0988 4561.4443 4526.2939 72.6187
3.2069 101.2236 404.5797 4562.4443 4527.2944 72.6672
2.3300 101.1967 405.0606 4563.4443 4528.2949 72.7155
1.4531 101.1697 405.5415 4564.4443 4529.2959 72.7637
0.5762 101.1427 406.0224 4565.4443 4530.2964 72.8117
-0.3007 101.1156 406.5034 4566.4448 4531.2969 72.8596
-1.1776 101.0883 406.9843 4567.4448 4532.2974 72.9072
-2.0544 101.0609 407.4653 4568.4448 4533.2979 72.9548
-2.9312 101.0333 407.9464 4569.4448 4534.2988 73.0022
-3.8080 101.0055 408.4274 4570.4448 4535.2993 73.0494
-4.6848 100.9774 408.9085 4571.4453 4536.2998 73.0965
-5.5616 100.9490 409.3897 4572.4453 4537.3003 73.1435
-6.4384 100.9203 409.8708 4573.4453 4538.3008 73.1903
-7.3151 100.8913 410.3521 4574.4453 4539.3018 73.2369
-8.1918 100.8620 410.8333 4575.4453 4540.3022 73.2834
-9.0685 100.8323 411.3147 4576.4458 4541.3027 73.3297
-9.9452 100.8024 411.7961 4577.4458 4542.3032 73.3759
-10.8218 100.7721 412.2775 4578.4458 4543.3037 73.4220
-11.6984 100.7416 412.7590 4579.4458 4544.3047 73.4679
-12.5750 100.7107 413.2405 4580.4458 4545.3052 73.5137
-13.4515 100.6796 413.7222 4581.4463 4546.3057 73.5593
-14.3279 100.6482 414.2039 4582.4463 4547.3062 73.6048
-15.2043 100.6166 414.6857 4583.4463 4548.3066 73.6501
-16.0807 100.5846 415.1676 4584.4463 4549.3076 73.6953
-16.9570 100.5524 415.6495 4585.4463 4550.3081 73.7403
-17.8333 100.5199 416.1315 4586.4468 4551.3086 73.7852
-18.7095 100.4872 416.6136 4587.4468 4552.3091 73.8300
-19.5857 100.4543 417.0958 4588.4468 4553.3096 73.8746
-20.4619 100.4212 417.5780 4589.4468 4554.3105 73.9191
