VERSION 0.7
FIELDS x y z arclength speed lapdistance
SIZE 4 4 4 4 4 4
TYPE F F F F F F
COUNT 1 1 1 1 1 1
WIDTH 863
HEIGHT 1
VIEWPOINT 0.000 0.000 0.000 1.000 0.000 0.000 0.000
POINTS 863
DATA ascii
325.3864 106.3851 -488.7768 1437.2758 71.3752 1454.5967
326.8623 106.4116 -488.5086 1438.7760 70.5948 1456.0933
328.3381 106.4371 -488.2394 1440.2764 69.8085 1457.5897
329.8136 106.4613 -487.9689 1441.7766 69.0160 1459.0864
331.2888 106.4845 -487.6968 1443.2769 68.2171 1460.5833
332.7635 106.5069 -487.4225 1444.7772 67.4118 1462.0834
334.2378 106.5296 -487.1451 1446.2775 66.5996 1463.5835
335.7112 106.5534 -486.8640 1447.7777 65.7805 1465.0834
337.1841 106.5786 -486.5792 1449.2781 64.9542 1466.5840
338.6560 106.6056 -486.2904 1450.7783 64.1204 1468.0844
340.1271 106.6342 -485.9973 1452.2786 63.2788 1469.5842
341.5971 106.6642 -485.6985 1453.7789 62.4293 1471.0846
343.0656 106.6953 -485.3927 1455.2792 61.5714 1472.5847
344.5323 106.7264 -485.0782 1456.7794 60.7049 1474.0850
345.9968 106.7572 -484.7543 1458.2798 59.8294 1475.5851
347.4592 106.7870 -484.4204 1459.7800 58.9446 1477.0852
348.9191 106.8162 -484.0760 1461.2804 58.0500 1478.5848
350.3763 106.8450 -483.7200 1462.7806 57.1453 1480.0839
351.8303 106.8732 -483.3510 1464.2809 56.2301 1481.5830
353.2805 106.9007 -482.9675 1465.7812 55.3037 1483.0808
354.7264 106.9275 -482.5685 1467.2815 54.3658 1484.5775
356.1678 106.9534 -482.1533 1468.7817 53.4158 1486.0731
357.6044 106.9783 -481.7216 1470.2821 52.4530 1487.5675
359.0358 107.0024 -481.2727 1471.7823 51.4768 1489.0605
360.4612 107.0256 -480.8051 1473.2826 50.4865 1490.5509
361.8798 107.0481 -480.3171 1474.7830 49.4814 1492.0386
363.2908 107.0698 -479.8078 1476.2832 48.4605 1493.5234
364.6938 107.0907 -479.2769 1477.7834 47.4230 1495.0045
366.0884 107.1110 -478.7242 1479.2838 46.3677 1496.4816
367.4737 107.1306 -478.1487 1480.7841 45.2937 1497.9491
368.8486 107.1492 -477.5487 1482.2844 44.2090 1499.4119
370.2119 107.1667 -476.9226 1483.7847 43.1183 1500.8695
371.5620 107.1833 -476.2687 1485.2849 42.0211 1502.3209
372.8978 107.1989 -475.5858 1486.7853 40.9170 1503.7656
374.2177 107.2138 -474.8728 1488.2855 39.8057 1505.2025
375.5205 107.2277 -474.1288 1489.7858 38.6867 1506.6304
376.8046 107.2405 -473.3531 1491.2861 37.5595 1508.0472
378.0685 107.2522 -472.5449 1492.7864 36.4234 1509.4535
379.3095 107.2638 -471.7019 1494.2866 35.2778 1510.8479
380.5233 107.2780 -470.8203 1495.7870 34.2931 1512.2258
381.7068 107.2972 -469.8987 1497.2872 34.8297 1513.5817
382.8594 107.3204 -468.9387 1498.7875 34.3622 1514.9210
383.9803 107.3470 -467.9419 1500.2878 35.1077 1516.2384
385.0693 107.3763 -466.9103 1501.7881 35.8376 1517.6453
386.1274 107.4062 -465.8473 1503.2885 36.5526 1519.1932
387.1550 107.4351 -464.7546 1504.7887 37.2470 1520.8364
388.1510 107.4627 -463.6329 1506.2889 37.3017 1522.5944
389.1141 107.4884 -462.4828 1507.7893 37.3549 1524.4904
390.0432 107.5110 -461.3051 1509.2896 36.2172 1526.5604
390.9359 107.5309 -460.0995 1510.7898 35.6507 1528.8416
391.7894 107.5491 -458.8659 1512.2902 35.0297 1531.3855
392.6038 107.5646 -457.6060 1513.7904 34.9239 1534.2316
393.3782 107.5770 -456.3211 1515.2906 33.7649 1536.8094
394.1097 107.5870 -455.0114 1516.7910 34.4526 1539.4766
394.7972 107.5945 -453.6780 1518.2913 33.2891 1542.2616
395.4388 107.5993 -452.3220 1519.7915 32.1139 1545.1987
396.0314 107.6030 -450.9437 1521.2919 32.2894 1547.9269
396.5732 107.6059 -449.5448 1522.7921 33.0824 1550.4264
397.0638 107.6078 -448.1269 1524.2925 32.8421 1552.7825
397.5024 107.6086 -446.6922 1525.7927 32.7960 1555.0222
397.8889 107.6080 -445.2426 1527.2930 33.1338 1557.1677
398.2245 107.6051 -443.7805 1528.7933 33.9068 1559.2360
398.5103 107.5993 -442.3077 1530.2936 34.1486 1561.1797
398.7467 107.5908 -440.8263 1531.7938 34.7675 1562.8538
398.9343 107.5803 -439.3379 1533.2942 35.5044 1564.5084
399.0749 107.5674 -437.8445 1534.7944 36.1079 1566.1456
399.1702 107.5516 -436.3475 1536.2947 36.2396 1567.7656
399.2207 107.5333 -434.8481 1537.7950 36.0551 1569.3721
399.2261 107.5131 -433.3481 1539.2953 36.7652 1570.9694
399.1869 107.4917 -431.8485 1540.7955 36.8464 1572.5566
399.1028 107.4715 -430.3509 1542.2959 37.5317 1574.1377
398.9746 107.4548 -428.8563 1543.7961 38.1963 1575.7163
398.8051 107.4416 -427.3657 1545.2965 38.8416 1577.2917
398.5982 107.4308 -425.8799 1546.7968 39.4687 1578.8654
398.3557 107.4214 -424.3994 1548.2970 40.0788 1580.4386
398.0789 107.4124 -422.9250 1549.7974 40.6726 1582.0132
397.7677 107.4031 -421.4574 1551.2976 41.2512 1583.5851
397.4221 107.3930 -419.9975 1552.7979 41.8154 1585.1235
397.0422 107.3809 -418.5461 1554.2982 42.1207 1586.6367
396.6281 107.3657 -417.1042 1555.7985 41.0173 1588.1267
396.1786 107.3474 -415.6730 1557.2987 39.9067 1589.5970
395.6925 107.3265 -414.2538 1558.7991 38.7884 1591.0504
395.1681 107.3048 -412.8483 1560.2993 37.9454 1592.4893
394.6051 107.2838 -411.4579 1561.7996 38.5979 1593.9169
394.0045 107.2638 -410.0832 1563.2999 39.2318 1595.3340
393.3684 107.2445 -408.7247 1564.8002 39.8482 1596.7429
392.6987 107.2251 -407.3824 1566.3005 40.4482 1598.1440
391.9973 107.2052 -406.0563 1567.8008 41.0325 1599.5383
391.2657 107.1847 -404.7467 1569.3010 41.6021 1600.9287
390.5049 107.1635 -403.4537 1570.8014 42.1576 1602.3143
389.7160 107.1417 -402.1778 1572.3016 42.6999 1603.6986
388.9001 107.1191 -400.9190 1573.8019 43.2296 1605.0819
388.0584 107.0952 -399.6773 1575.3022 43.7471 1606.4650
387.1920 107.0698 -398.4528 1576.8025 44.2532 1607.8787
386.3019 107.0430 -397.2454 1578.3027 44.7483 1609.3280
385.3895 107.0142 -396.0548 1579.8031 45.2329 1610.7859
384.4548 106.9839 -394.8817 1581.3033 45.7073 1612.2531
383.4979 106.9526 -393.7267 1582.8037 46.1722 1613.7291
382.5195 106.9209 -392.5898 1584.3040 46.6277 1615.2125
381.5208 106.8893 -391.4708 1585.8042 47.0743 1616.7036
380.5030 106.8585 -390.3689 1587.3046 47.5123 1618.2003
379.4677 106.8288 -389.2834 1588.8048 47.9421 1619.7019
378.4162 106.8004 -388.2136 1590.3051 48.3639 1621.2083
377.3491 106.7732 -387.1593 1591.8054 48.7780 1622.7185
376.2670 106.7472 -386.1204 1593.3057 49.1847 1624.2314
375.1706 106.7225 -385.0965 1594.8059 49.5843 1625.7480
374.0611 106.6993 -384.0868 1596.3063 49.9769 1627.2667
372.9391 106.6772 -383.0910 1597.8065 50.3629 1628.7870
371.8052 106.6570 -382.1087 1599.3068 50.7423 1630.3092
370.6599 106.6387 -381.1399 1600.8071 51.1155 1631.8324
369.5033 106.6224 -380.1844 1602.3074 51.4826 1633.3561
368.3363 106.6084 -379.2417 1603.8077 51.8438 1634.8745
367.1602 106.5965 -378.3103 1605.3080 52.1993 1636.3719
365.9769 106.5858 -377.3881 1606.8082 52.5492 1637.8688
364.7878 106.5755 -376.4733 1608.3086 52.8937 1639.3661
363.5938 106.5656 -375.5648 1609.8088 53.2329 1640.8624
362.3954 106.5571 -374.6624 1611.3091 53.5671 1642.3590
361.1920 106.5521 -373.7663 1612.8094 53.8963 1643.8556
359.9842 106.5513 -372.8766 1614.3097 54.2207 1645.3510
358.7723 106.5523 -371.9921 1615.8099 54.5403 1646.8467
357.5576 106.5532 -371.1115 1617.3103 54.8554 1648.3420
356.3410 106.5529 -370.2334 1618.8105 55.1660 1649.8370
355.1231 106.5509 -369.3572 1620.3108 55.4723 1651.3323
353.9040 106.5479 -368.4828 1621.8112 55.7743 1652.8271
352.6834 106.5451 -367.6104 1623.3114 56.0722 1654.3220
351.4612 106.5426 -366.7402 1624.8118 56.3661 1655.8165
350.2375 106.5397 -365.8724 1626.3120 56.6560 1657.3113
349.0123 106.5355 -365.0064 1627.8123 56.9421 1658.8057
347.7862 106.5311 -364.1418 1629.3126 57.2244 1660.3003
346.5595 106.5285 -363.2780 1630.8129 57.5030 1661.7960
345.3326 106.5288 -362.4146 1632.3131 57.7780 1663.3038
344.1055 106.5308 -361.5513 1633.8135 58.0495 1664.8110
342.8782 106.5317 -360.6882 1635.3137 58.3176 1666.3177
341.6507 106.5293 -359.8255 1636.8140 58.5823 1667.8243
340.4226 106.5228 -358.9638 1638.3143 58.8438 1669.3308
339.1940 106.5131 -358.1028 1639.8146 59.1020 1670.8365
337.9648 106.5020 -357.2426 1641.3148 59.3571 1672.3424
336.7351 106.4908 -356.3831 1642.8152 59.6090 1673.8481
335.5050 106.4792 -355.5242 1644.3154 59.8580 1675.3531
334.2747 106.4658 -354.6658 1645.8158 60.1040 1676.8580
333.0440 106.4498 -353.8078 1647.3160 60.3471 1678.3632
331.8134 106.4312 -352.9498 1648.8163 60.5873 1679.8676
330.5831 106.4103 -352.0915 1650.3167 60.8248 1681.3719
329.3531 106.3871 -351.2327 1651.8169 61.0595 1682.8762
328.1237 106.3619 -350.3731 1653.3171 61.2915 1684.3799
326.8950 106.3349 -349.5127 1654.8175 61.5209 1685.8989
325.6671 106.3064 -348.6511 1656.3177 61.7477 1687.4279
324.4401 106.2769 -347.7883 1657.8180 61.9720 1688.9558
323.2138 106.2467 -346.9245 1659.3184 62.1938 1690.4821
321.9885 106.2160 -346.0593 1660.8186 62.4131 1692.0081
320.7641 106.1844 -345.1928 1662.3188 62.6301 1693.5328
319.5409 106.1517 -344.3249 1663.8192 62.8446 1695.0566
318.3187 106.1176 -343.4555 1665.3195 63.0569 1696.5797
317.0977 106.0822 -342.5846 1666.8198 63.2669 1698.1022
315.8777 106.0458 -341.7123 1668.3201 63.4746 1699.6237
314.6588 106.0087 -340.8383 1669.8203 63.6802 1701.1442
313.4415 105.9714 -339.9620 1671.3207 63.8836 1702.6644
312.2260 105.9342 -339.0833 1672.8209 64.0848 1704.1840
311.0129 105.8976 -338.2013 1674.3212 64.2840 1705.7029
309.8024 105.8620 -337.3158 1675.8215 64.4811 1707.2217
308.5948 105.8275 -336.4262 1677.3218 64.6762 1708.7407
307.3905 105.7944 -335.5323 1678.8220 64.8693 1710.2314
306.1893 105.7624 -334.6337 1680.3224 65.0605 1711.7212
304.9917 105.7315 -333.7305 1681.8226 65.2497 1713.2115
303.7978 105.7020 -332.8224 1683.3229 65.4370 1714.7026
302.6074 105.6738 -331.9096 1684.8232 65.6225 1716.1940
301.4207 105.6473 -330.9921 1686.3235 65.8061 1717.6863
300.2376 105.6223 -330.0698 1687.8239 65.9879 1719.1788
299.0583 105.5989 -329.1428 1689.3241 66.1680 1720.6721
297.8828 105.5769 -328.2108 1690.8243 66.3463 1722.1663
296.7114 105.5561 -327.2736 1692.3247 66.5228 1723.6603
295.5445 105.5363 -326.3307 1693.8250 66.6977 1725.1559
294.3822 105.5177 -325.3823 1695.3252 66.8708 1726.6515
293.2246 105.4998 -324.4281 1696.8256 67.0424 1728.1477
292.0717 105.4822 -323.4683 1698.3258 67.2123 1729.6445
290.9235 105.4648 -322.5028 1699.8260 67.3806 1731.1416
289.7799 105.4471 -321.5318 1701.3264 67.5473 1732.6399
288.6411 105.4289 -320.5552 1702.8267 67.7124 1734.1398
287.5073 105.4104 -319.5729 1704.3269 67.8760 1735.6399
286.3786 105.3914 -318.5847 1705.8273 68.0381 1737.1401
285.2553 105.3721 -317.5903 1707.3275 68.1988 1738.6412
284.1379 105.3526 -316.5893 1708.8279 68.3579 1740.1422
283.0265 105.3329 -315.5818 1710.3281 68.5156 1741.6436
281.9213 105.3134 -314.5673 1711.8284 68.6718 1743.1449
280.8225 105.2938 -313.5461 1713.3287 68.8267 1744.6466
279.7303 105.2745 -312.5178 1714.8290 68.9801 1746.1486
278.6447 105.2555 -311.4824 1716.3292 69.1322 1747.6504
277.5660 105.2368 -310.4399 1717.8296 69.2829 1749.1525
276.4943 105.2183 -309.3902 1719.3298 69.4323 1750.6545
275.4295 105.2001 -308.3334 1720.8301 69.5803 1752.1566
274.3717 105.1820 -307.2696 1722.3304 69.7270 1753.6584
273.3209 105.1639 -306.1989 1723.8307 69.8725 1755.1604
272.2771 105.1459 -305.1216 1725.3309 70.0167 1756.6616
271.2401 105.1279 -304.0376 1726.8313 70.1596 1758.1631
270.2099 105.1097 -302.9471 1728.3315 70.3013 1759.6641
269.1869 105.0916 -301.8498 1729.8319 70.4418 1761.1650
268.1709 105.0733 -300.7460 1731.3322 70.5810 1762.6654
267.1624 105.0551 -299.6354 1732.8324 70.7191 1764.1653
266.1609 105.0368 -298.5186 1734.3328 70.8560 1765.6648
265.1666 105.0183 -297.3952 1735.8330 70.9917 1767.1638
264.1796 104.9994 -296.2655 1737.3333 71.1263 1768.6617
263.1997 104.9804 -295.1295 1738.8336 71.2598 1770.1600
262.2271 104.9613 -293.9873 1740.3339 71.3921 1771.6570
261.2620 104.9419 -292.8389 1741.8341 71.5233 1773.1537
260.3042 104.9222 -291.6842 1743.3345 71.6534 1774.6492
259.3538 104.9022 -290.5235 1744.8347 71.7825 1776.1440
258.4107 104.8818 -289.3568 1746.3351 71.9104 1777.6383
257.4749 104.8609 -288.1842 1747.8353 72.0374 1779.1313
256.5465 104.8397 -287.0058 1749.3356 72.1632 1780.6273
255.6257 104.8181 -285.8216 1750.8359 72.2881 1782.1482
254.7120 104.7962 -284.6318 1752.3362 72.4119 1783.6713
253.8058 104.7745 -283.4364 1753.8364 72.5347 1785.1963
252.9070 104.7530 -282.2354 1755.3368 72.6565 1786.7233
252.0153 104.7317 -281.0291 1756.8370 72.7774 1788.2528
251.1307 104.7109 -279.8176 1758.3373 72.8972 1789.7847
250.2530 104.6906 -278.6009 1759.8376 73.0161 1791.3197
249.3824 104.6706 -277.3792 1761.3379 73.1341 1792.8572
248.5189 104.6509 -276.1525 1762.8381 73.2511 1794.3983
247.6621 104.6314 -274.9211 1764.3385 73.3672 1795.9423
246.8119 104.6118 -273.6850 1765.8387 73.4823 1797.4906
245.9678 104.5923 -272.4449 1767.3391 73.5966 1799.0424
245.1293 104.5727 -271.2009 1768.8394 73.7099 1800.5984
244.2962 104.5531 -269.9532 1770.3396 73.8224 1802.1547
243.4689 104.5338 -268.7018 1771.8400 73.9340 1803.7075
242.6472 104.5150 -267.4467 1773.3402 74.0447 1805.2596
241.8313 104.4972 -266.1877 1774.8405 74.1545 1806.8132
241.0212 104.4808 -264.9250 1776.3408 74.2635 1808.3666
240.2171 104.4658 -263.6586 1777.8411 74.3717 1809.9213
239.4187 104.4524 -262.3884 1779.3413 74.4790 1811.4763
238.6261 104.4401 -261.1146 1780.8417 74.5855 1813.0331
237.8395 104.4289 -259.8371 1782.3419 74.6911 1814.5901
237.0587 104.4185 -258.5561 1783.8422 74.7960 1816.1498
236.2838 104.4088 -257.2714 1785.3425 74.9001 1817.7100
235.5148 104.4003 -255.9832 1786.8428 75.0033 1819.2722
234.7514 104.3936 -254.6917 1788.3431 75.1058 1820.8364
233.9938 104.3890 -253.3967 1789.8434 75.2076 1822.4088
233.2416 104.3860 -252.0987 1791.3436 75.3085 1824.0017
232.4943 104.3829 -250.7978 1792.8440 75.4087 1825.5924
231.7514 104.3776 -249.4943 1794.3442 75.5081 1827.1803
231.0127 104.3695 -248.1884 1795.8445 75.6068 1828.7661
230.2778 104.3587 -246.8805 1797.3448 75.7048 1830.3491
229.5466 104.3467 -245.5706 1798.8451 75.8020 1831.9298
228.8184 104.3340 -244.2589 1800.3453 75.4556 1833.5090
228.0926 104.3209 -242.9458 1801.8457 74.7044 1835.0864
227.3685 104.3078 -241.6320 1803.3459 73.9480 1836.6617
226.6450 104.2948 -240.3178 1804.8462 73.1864 1838.2355
225.9207 104.2812 -239.0040 1806.3466 72.4194 1839.8065
225.1947 104.2653 -237.6911 1807.8468 71.6468 1841.3761
224.4660 104.2458 -236.3797 1809.3472 70.8684 1842.9259
223.7343 104.2229 -235.0702 1810.8474 70.0842 1844.4208
222.9986 104.1982 -233.7629 1812.3477 69.2938 1845.9150
222.2578 104.1740 -232.4586 1813.8480 68.4972 1847.4076
221.5101 104.1513 -231.1580 1815.3483 67.6942 1848.8992
220.7543 104.1302 -229.8622 1816.8485 66.8844 1850.3885
219.9892 104.1092 -228.5718 1818.3489 66.0678 1851.8751
219.2138 104.0872 -227.2876 1819.8491 65.2440 1853.3599
218.4274 104.0635 -226.0102 1821.3494 64.4128 1854.8411
217.6288 104.0384 -224.7404 1822.8497 63.5740 1856.3199
216.8166 104.0125 -223.4792 1824.3500 62.7273 1857.7942
215.9899 103.9862 -222.2276 1825.8502 61.8724 1859.2644
215.1478 103.9594 -220.9861 1827.3506 61.0089 1860.7290
214.2899 103.9319 -219.7557 1828.8508 60.7381 1862.1895
213.4161 103.9033 -218.5365 1830.3512 59.8713 1863.6232
212.5262 103.8733 -217.3290 1831.8514 59.0378 1865.0525
211.6200 103.8420 -216.1337 1833.3517 58.1443 1866.4851
210.6972 103.8097 -214.9514 1834.8521 57.2407 1867.9229
209.7574 103.7765 -213.7824 1836.3523 56.3266 1869.3655
208.8004 103.7427 -212.6274 1837.8525 55.4014 1870.8145
207.8261 103.7082 -211.4871 1839.3529 55.1359 1872.2695
206.8342 103.6732 -210.3621 1840.8531 54.1958 1873.7328
205.8247 103.6379 -209.2528 1842.3534 53.2435 1875.2039
204.7973 103.6027 -208.1600 1843.8538 52.2784 1876.6846
203.7520 103.5677 -207.0845 1845.3540 51.7789 1878.1750
202.6886 103.5335 -206.0267 1846.8542 50.7931 1879.6771
201.6070 103.5004 -204.9875 1848.3546 51.1654 1881.1910
200.5076 103.4686 -203.9671 1849.8549 51.5116 1882.7213
199.3910 103.4381 -202.9656 1851.3552 51.5164 1884.2902
198.2576 103.4087 -201.9831 1852.8555 51.8770 1885.8593
197.1083 103.3802 -201.0191 1854.3557 52.2320 1887.4313
195.9438 103.3522 -200.0737 1855.8561 52.5814 1889.0074
194.7645 103.3245 -199.1466 1857.3563 52.9254 1890.5898
193.5710 103.2970 -198.2380 1858.8566 53.2642 1892.1794
192.3634 103.2700 -197.3480 1860.3569 53.5979 1893.7792
191.1422 103.2433 -196.4769 1861.8572 53.9266 1895.3893
189.9075 103.2174 -195.6252 1863.3574 54.2505 1897.0123
188.6595 103.1926 -194.7930 1864.8578 53.8048 1898.6508
187.3983 103.1694 -193.9808 1866.3580 53.8424 1900.3055
186.1242 103.1491 -193.1889 1867.8583 54.1676 1901.9788
184.8379 103.1322 -192.4169 1869.3586 54.4880 1903.6699
183.5399 103.1177 -191.6646 1870.8589 54.8038 1905.3562
182.2307 103.1043 -190.9323 1872.3593 54.3414 1907.0359
180.9105 103.0905 -190.2198 1873.8595 53.3910 1908.7104
179.5798 103.0749 -189.5271 1875.3597 52.4279 1910.3826
178.2393 103.0562 -188.8537 1876.8601 51.4514 1912.0529
176.8895 103.0337 -188.1992 1878.3604 50.4607 1913.7242
175.5304 103.0071 -187.5643 1879.8606 49.4552 1915.3978
174.1620 102.9774 -186.9501 1881.3610 48.4339 1917.0750
172.7837 102.9463 -186.3583 1882.8612 47.3959 1918.7583
171.3949 102.9165 -185.7914 1884.3615 46.3402 1920.4497
169.9952 102.8909 -185.2520 1885.8618 45.2656 1922.1516
168.5846 102.8717 -184.7418 1887.3621 44.9990 1923.8618
167.1635 102.8596 -184.2609 1888.8624 45.4783 1925.5568
165.7330 102.8534 -183.8087 1890.3627 45.9477 1927.2365
164.2941 102.8516 -183.3839 1891.8629 46.4077 1928.9033
162.8476 102.8525 -182.9854 1893.3633 46.8586 1930.5588
161.3948 102.8538 -182.6113 1894.8635 47.3008 1932.2056
159.9365 102.8527 -182.2589 1896.3638 47.7345 1933.8448
158.4736 102.8465 -181.9259 1897.8641 48.1602 1935.4772
157.0065 102.8348 -181.6122 1899.3644 48.5780 1937.1044
155.5351 102.8186 -181.3197 1900.8646 48.9883 1938.7289
154.0593 102.8000 -181.0507 1902.3650 49.3913 1940.3524
152.5791 102.7804 -180.8069 1903.8652 49.7872 1941.9775
151.0949 102.7603 -180.5886 1905.3655 50.1764 1943.5422
149.6074 102.7393 -180.3947 1906.8658 50.5590 1945.0645
148.1169 102.7174 -180.2247 1908.3661 50.9352 1946.5833
146.6240 102.6943 -180.0779 1909.8665 51.3052 1948.0985
145.1290 102.6705 -179.9536 1911.3667 51.6692 1949.6113
143.6324 102.6462 -179.8515 1912.8669 52.0274 1951.1218
142.1344 102.6217 -179.7700 1914.3673 52.3800 1952.6299
140.6356 102.5971 -179.7078 1915.8676 52.7271 1954.1355
139.1362 102.5726 -179.6629 1917.3678 53.0689 1955.6388
137.6365 102.5479 -179.6342 1918.8682 53.4055 1957.1400
136.1365 102.5226 -179.6205 1920.3684 53.7371 1958.6396
134.6364 102.4965 -179.6208 1921.8687 54.0638 1960.1372
133.1365 102.4696 -179.6339 1923.3690 54.3858 1961.6334
131.6366 102.4417 -179.6589 1924.8693 54.7031 1963.1248
130.1370 102.4129 -179.6951 1926.3695 55.0158 1964.6094
128.6377 102.3833 -179.7423 1927.8699 55.3242 1966.0955
127.1388 102.3527 -179.8006 1929.3701 55.6283 1967.5828
125.6404 102.3211 -179.8694 1930.8705 55.9282 1969.0715
124.1426 102.2886 -179.9470 1932.3707 56.2240 1970.5615
122.6450 102.2552 -180.0308 1933.8710 56.5158 1972.0521
121.1476 102.2208 -180.1182 1935.3713 56.8037 1973.5431
119.6505 102.1854 -180.2078 1936.8716 57.0878 1975.0338
118.1534 102.1487 -180.2991 1938.3718 57.3682 1976.5249
116.6565 102.1106 -180.3919 1939.8722 57.6450 1978.0164
115.1596 102.0715 -180.4848 1941.3724 57.9182 1979.5077
113.6626 102.0314 -180.5763 1942.8727 58.1879 1980.9988
112.1653 101.9906 -180.6637 1944.3730 58.4543 1982.4895
110.6679 101.9491 -180.7445 1945.8733 58.7173 1983.9937
109.1699 101.9068 -180.8168 1947.3735 58.9771 1985.5005
107.6715 101.8639 -180.8792 1948.8739 59.2337 1987.0089
106.1727 101.8204 -180.9311 1950.3741 59.4871 1988.5178
104.6736 101.7761 -180.9716 1951.8745 59.7375 1990.0288
103.1744 101.7311 -180.9999 1953.3748 59.9850 1991.5406
101.6748 101.6852 -181.0146 1954.8750 60.2294 1993.0547
100.1753 101.6383 -181.0152 1956.3754 60.4711 1994.5696
98.6759 101.5903 -181.0014 1957.8756 60.7099 1996.0865
97.1767 101.5412 -180.9733 1959.3759 60.9459 1997.6056
95.6778 101.4910 -180.9311 1960.8762 61.1792 1999.1263
94.1795 101.4399 -180.8741 1962.3765 61.4099 2000.6500
92.6818 101.3879 -180.8020 1963.8767 61.6380 2002.1720
91.1850 101.3349 -180.7143 1965.3771 61.8635 2003.7682
89.6892 101.2808 -180.6107 1966.8773 62.0864 2005.3894
88.1948 101.2253 -180.4907 1968.3776 62.3070 2007.0078
86.7018 101.1686 -180.3542 1969.8779 62.5251 2008.6252
85.2105 101.1107 -180.2009 1971.3782 62.7408 2010.2422
83.7210 101.0520 -180.0304 1972.8785 62.0774 2011.8602
82.2338 100.9925 -179.8422 1974.3788 61.2160 2013.4806
80.7490 100.9330 -179.6354 1975.8790 60.3459 2015.1041
79.2670 100.8740 -179.4093 1977.3794 59.4666 2016.7323
77.7882 100.8162 -179.1633 1978.8796 58.5778 2018.3660
76.3128 100.7599 -178.8971 1980.3799 58.8393 2020.0078
74.8411 100.7047 -178.6111 1981.8802 59.0976 2021.6581
73.3732 100.6501 -178.3056 1983.3805 59.3527 2023.3054
71.9095 100.5953 -177.9813 1984.8807 59.6047 2024.9237
70.4499 100.5395 -177.6382 1986.3811 59.8537 2026.5356
68.9950 100.4827 -177.2765 1987.8813 60.0998 2028.1405
67.5449 100.4245 -176.8960 1989.3816 60.3429 2029.7394
66.1001 100.3654 -176.4965 1990.8820 60.0441 2031.3335
64.6607 100.3054 -176.0779 1992.3822 59.1616 2032.9232
63.2270 100.2453 -175.6397 1993.8826 59.0446 2034.5099
61.7996 100.1854 -175.1817 1995.3828 58.1991 2036.0948
60.3788 100.1264 -174.7039 1996.8831 57.2962 2037.6791
58.9648 100.0685 -174.2059 1998.3834 57.5738 2039.2628
57.5579 100.0114 -173.6882 1999.8837 57.8480 2040.8480
56.1582 99.9548 -173.1509 2001.3839 58.1186 2042.4349
54.7661 99.8984 -172.5945 2002.8843 58.3858 2044.0397
53.3818 99.8418 -172.0191 2004.3845 58.6497 2045.6322
52.0054 99.7848 -171.4250 2005.8848 58.9103 2047.2078
50.6371 99.7276 -170.8124 2007.3851 59.1677 2048.7693
49.2770 99.6700 -170.1818 2008.8854 59.4220 2050.3176
47.9253 99.6121 -169.5334 2010.3856 59.6732 2051.8538
46.5824 99.5538 -168.8671 2011.8860 59.3213 2053.3796
45.2487 99.4952 -168.1827 2013.3862 58.4309 2054.8970
43.9246 99.4367 -167.4797 2014.8866 57.8185 2056.4065
42.6107 99.3789 -166.7579 2016.3868 58.0895 2057.9099
41.3069 99.3218 -166.0177 2017.8871 58.3571 2059.4092
40.0133 99.2651 -165.2599 2019.3875 58.6213 2060.9041
38.7299 99.2085 -164.4850 2020.8877 58.8823 2062.3965
37.4567 99.1516 -163.6934 2022.3879 59.1400 2063.8655
36.1941 99.0946 -162.8850 2023.8883 59.3946 2065.3271
34.9424 99.0380 -162.0598 2025.3885 59.6461 2066.7878
33.7019 98.9823 -161.2180 2026.8888 59.8947 2068.2466
32.4723 98.9275 -160.3601 2028.3892 60.1402 2069.7039
31.2535 98.8727 -159.4868 2029.8894 60.3829 2071.1604
30.0458 98.8178 -158.5984 2031.3896 60.6227 2072.6152
28.8493 98.7624 -157.6951 2032.8900 60.8597 2074.0688
27.6642 98.7072 -156.7767 2034.3903 61.0941 2075.5215
26.4903 98.6520 -155.8441 2035.8906 61.3257 2076.9746
25.3271 98.5960 -154.8983 2037.3909 61.5547 2078.4265
24.1741 98.5383 -153.9402 2038.8911 61.7811 2079.8779
23.0309 98.4780 -152.9704 2040.3915 62.0050 2081.3286
21.8979 98.4150 -151.9890 2041.8917 62.2265 2082.7820
20.7759 98.3497 -150.9952 2043.3920 62.4454 2084.2576
19.6655 98.2825 -149.9886 2044.8923 62.6620 2085.7390
18.5673 98.2140 -148.9686 2046.3926 62.8763 2087.2229
17.4814 98.1446 -147.9358 2047.8928 63.0882 2088.7104
16.4075 98.0744 -146.8905 2049.3931 63.2978 2090.2004
15.3450 98.0025 -145.8336 2050.8936 63.5053 2091.6921
14.2941 97.9286 -144.7655 2052.3938 63.7105 2093.1863
13.2553 97.8530 -143.6859 2053.8940 63.9136 2094.6809
12.2288 97.7766 -142.5945 2055.3943 64.1145 2096.1785
11.2149 97.7000 -141.4914 2056.8945 64.3134 2097.6772
10.2131 97.6235 -140.3773 2058.3948 64.5102 2099.1775
9.2228 97.5467 -139.2529 2059.8953 64.7050 2100.6787
8.2436 97.4698 -138.1189 2061.3955 64.8978 2102.1804
7.2744 97.3920 -136.9763 2062.8958 65.0887 2103.6804
6.3147 97.3126 -135.8258 2064.3960 65.2776 2105.1799
5.3639 97.2311 -134.6681 2065.8962 65.4647 2106.6792
4.4221 97.1475 -133.5033 2067.3967 65.6498 2108.1785
3.4895 97.0629 -132.3314 2068.8970 65.8332 2109.6775
2.5658 96.9778 -131.1521 2070.3972 66.0148 2111.1772
1.6514 96.8926 -129.9657 2071.8975 66.1945 2112.6765
0.7461 96.8075 -128.7725 2073.3977 66.3726 2114.1755
-0.1503 96.7217 -127.5726 2074.8979 66.5489 2115.6743
-1.0384 96.6348 -126.3665 2076.3984 66.7235 2117.1729
-1.9183 96.5465 -125.1546 2077.8987 66.8964 2118.6709
-2.7901 96.4574 -123.9369 2079.3989 67.0677 2120.1685
-3.6541 96.3682 -122.7136 2080.8992 67.2373 2121.6655
-4.5099 96.2798 -121.4846 2082.3994 67.4054 2123.1624
-5.3578 96.1927 -120.2501 2083.8999 67.5719 2124.6582
-6.1979 96.1067 -119.0102 2085.4001 67.7368 2126.1543
-7.0305 96.0213 -117.7650 2086.9004 67.9002 2127.6492
-7.8558 95.9361 -116.5150 2088.4006 68.0621 2129.1438
-8.6740 95.8512 -115.2604 2089.9009 68.2224 2130.6370
-9.4854 95.7667 -114.0012 2091.4011 68.3814 2132.1301
-10.2900 95.6827 -112.7379 2092.9016 68.5388 2133.6221
-11.0882 95.5993 -111.4703 2094.4019 68.6949 2135.1140
-11.8798 95.5165 -110.1985 2095.9021 68.8495 2136.6045
-12.6647 95.4345 -108.9225 2097.4023 69.0027 2138.0945
-13.4430 95.3534 -107.6423 2098.9026 69.1546 2139.5842
-14.2143 95.2734 -106.3579 2100.4028 69.3051 2141.0723
-14.9786 95.1948 -105.0692 2101.9033 69.4543 2142.5596
-15.7361 95.1177 -103.7765 2103.4036 69.6021 2144.0459
-16.4874 95.0420 -102.4801 2104.9038 69.7487 2145.5305
-17.2330 94.9678 -101.1802 2106.4041 69.8940 2147.0149
-17.9738 94.8949 -99.8777 2107.9043 70.0380 2148.4980
-18.7102 94.8232 -98.5726 2109.4048 70.1807 2149.9807
-19.4427 94.7530 -97.2652 2110.9050 70.3222 2151.4631
-20.1714 94.6844 -95.9557 2112.4053 70.4625 2152.9443
-20.8970 94.6176 -94.6442 2113.9055 70.6016 2154.4255
-21.6199 94.5526 -93.3313 2115.4058 70.7395 2155.9055
-22.3408 94.4890 -92.0172 2116.9060 70.8762 2157.3857
-23.0604 94.4266 -90.7022 2118.4065 71.0118 2158.8662
-23.7789 94.3650 -89.3866 2119.9067 71.1462 2160.3462
-24.4967 94.3041 -88.0704 2121.4070 71.2794 2161.8259
-25.2137 94.2440 -86.7539 2122.9072 71.4116 2163.3057
-25.9304 94.1848 -85.4373 2124.4075 71.5427 2164.7854
-26.6473 94.1267 -84.1207 2125.9080 71.6726 2166.2646
-27.3653 94.0699 -82.8047 2127.4082 71.8015 2167.7446
-28.0848 94.0145 -81.4894 2128.9084 71.9293 2169.2251
-28.8062 93.9604 -80.1750 2130.4087 72.0561 2170.7058
-29.5299 93.9074 -78.8617 2131.9089 72.1818 2172.1868
-30.2559 93.8553 -77.5499 2133.4092 72.3065 2173.6689
-30.9848 93.8038 -76.2395 2134.9097 72.4302 2175.1509
-31.7169 93.7529 -74.9310 2136.4099 72.5528 2176.6331
-32.4525 93.7026 -73.6245 2137.9102 72.6745 2178.1169
-33.1920 93.6533 -72.3201 2139.4104 72.7952 2179.6008
-33.9356 93.6050 -71.0178 2140.9106 72.9149 2181.0862
-34.6832 93.5573 -69.7180 2142.4109 73.0337 2182.5715
-35.4350 93.5101 -68.4204 2143.9114 73.1515 2184.0559
-36.1908 93.4632 -67.1253 2145.4116 73.2684 2185.5408
-36.9508 93.4167 -65.8326 2146.9119 73.3420 2187.0254
-37.7152 93.3706 -64.5426 2148.4121 72.5761 2188.5107
-38.4840 93.3253 -63.2550 2149.9124 71.8046 2189.9961
-39.2573 93.2807 -61.9703 2151.4128 71.0275 2191.4824
-40.0354 93.2368 -60.6882 2152.9131 70.2444 2192.9692
-40.8181 93.1941 -59.4090 2154.4133 69.4554 2194.4558
-41.6054 93.1527 -58.1326 2155.9136 68.6600 2195.9438
-42.3969 93.1122 -56.8587 2157.4138 67.8583 2197.4314
-43.1925 93.0724 -55.5874 2158.9141 67.0499 2198.9194
-43.9920 93.0329 -54.3186 2160.4146 66.2347 2200.4080
-44.7953 92.9935 -53.0522 2161.9148 65.4124 2201.8967
-45.6027 92.9543 -51.7882 2163.4150 64.5828 2203.3857
-46.4144 92.9156 -50.5272 2164.9153 63.7455 2204.8748
-47.2309 92.8773 -49.2690 2166.4155 62.9004 2206.3650
-48.0521 92.8395 -48.0142 2167.9160 62.0472 2207.8547
-48.8783 92.8018 -46.7622 2169.4163 61.1855 2209.3457
-49.7087 92.7642 -45.5135 2170.9165 60.3150 2210.8362
-50.5437 92.7270 -44.2677 2172.4167 59.4354 2212.3269
-51.3833 92.6901 -43.0249 2173.9170 58.5463 2213.8186
-52.2276 92.6540 -41.7851 2175.4172 57.6473 2215.3103
-53.0765 92.6187 -40.5486 2176.9177 56.7379 2216.8027
-53.9302 92.5841 -39.3153 2178.4180 55.8178 2218.2947
-54.7894 92.5500 -38.0860 2179.9182 54.8864 2219.7900
-55.6552 92.5167 -36.8611 2181.4185 53.9431 2221.2871
-56.5276 92.4841 -35.6411 2182.9187 52.9874 2222.7847
-57.4071 92.4525 -34.4260 2184.4189 52.0188 2224.2830
-58.2934 92.4218 -33.2160 2185.9194 51.0364 2225.7815
-59.1875 92.3916 -32.0117 2187.4197 50.0396 2227.2805
-60.0919 92.3619 -30.8151 2188.9199 49.0275 2228.7803
-61.0094 92.3327 -29.6285 2190.4202 47.9993 2230.2805
-61.9422 92.3036 -28.4540 2191.9204 46.9540 2231.7808
-62.8923 92.2746 -27.2932 2193.4209 45.8905 2233.2812
-63.8600 92.2455 -26.1474 2194.9211 44.8091 2234.7810
-64.8461 92.2164 -25.0169 2196.4214 43.7217 2236.2810
-65.8510 92.1877 -23.9035 2197.9216 42.6282 2237.7793
-66.8759 92.1594 -22.8082 2199.4219 41.5279 2239.2756
-67.9216 92.1316 -21.7328 2200.9221 40.4207 2240.7700
-68.9883 92.1038 -20.6784 2202.4226 39.3060 2242.2610
-70.0762 92.0758 -19.6457 2203.9229 38.1834 2243.7483
-71.1858 92.0475 -18.6361 2205.4231 37.0523 2245.2312
-72.3183 92.0189 -17.6528 2206.9233 35.9120 2246.7085
-73.4764 91.9901 -16.6993 2208.4236 34.7620 2248.1777
-74.6612 91.9614 -15.7798 2209.9241 33.6015 2249.6375
-75.8741 91.9328 -14.8972 2211.4243 32.4296 2251.0706
-77.1152 91.9040 -14.0548 2212.9246 31.2453 2252.4172
-78.3852 91.8747 -13.2573 2214.4248 30.0475 2253.7651
-79.6858 91.8447 -12.5105 2215.9250 28.8350 2255.1140
-81.0178 91.8138 -11.8205 2217.4253 27.6062 2256.4666
-82.3801 91.7825 -11.1935 2218.9258 27.6732 2257.8213
-83.7715 91.7511 -10.6330 2220.4260 28.1426 2259.1804
-85.1880 91.7194 -10.1409 2221.9263 27.2625 2260.5466
-86.6268 91.6883 -9.7184 2223.4265 27.9820 2261.9216
-88.0848 91.6578 -9.3663 2224.9268 27.5592 2263.3071
-89.5581 91.6270 -9.0860 2226.4272 26.3117 2264.7083
-91.0443 91.5963 -8.8825 2227.9275 26.0786 2266.1226
-92.5389 91.5653 -8.7593 2229.4277 25.3282 2267.7153
-94.0380 91.5334 -8.7189 2230.9280 24.0431 2269.4973
-95.5372 91.5026 -8.7660 2232.4282 23.8526 2271.3232
-97.0309 91.4739 -8.9015 2233.9285 24.1290 2273.2332
-98.5140 91.4485 -9.1245 2235.4290 23.7317 2275.2693
-99.9819 91.4282 -9.4331 2236.9292 24.8034 2277.4861
-101.4304 91.4133 -9.8228 2238.4294 25.8302 2279.9829
-102.8560 91.4037 -10.2904 2239.9297 25.4134 2282.5007
-104.2546 91.3995 -10.8325 2241.4299 26.2278 2284.9172
-105.6241 91.4007 -11.4450 2242.9302 27.2004 2287.2898
-106.9616 91.4052 -12.1243 2244.4307 26.5464 2289.6624
-108.2625 91.4144 -12.8717 2245.9309 27.0489 2291.7209
-109.5225 91.4297 -13.6854 2247.4312 27.2785 2293.4521
-110.7405 91.4496 -14.5612 2248.9314 26.9915 2295.1282
-111.9140 91.4718 -15.4953 2250.4316 27.2973 2296.7588
-113.0401 91.4958 -16.4859 2251.9321 27.8387 2298.3577
-114.1164 91.5205 -17.5303 2253.4324 27.5982 2299.9326
-115.1407 91.5450 -18.6260 2254.9326 27.2610 2301.4900
-116.1103 91.5693 -19.7704 2256.4329 28.1976 2303.0425
-117.0248 91.5929 -20.9595 2257.9331 28.1957 2304.5920
-117.8827 91.6159 -22.1898 2259.4333 28.8715 2306.1484
-118.6840 91.6385 -23.4579 2260.9338 29.2153 2307.6567
-119.4297 91.6606 -24.7591 2262.4341 30.0905 2309.1035
-120.1214 91.6824 -26.0902 2263.9343 30.9406 2310.5417
-120.7599 91.7038 -27.4477 2265.4346 30.7333 2311.9731
-121.3464 91.7242 -28.8284 2266.9348 31.5659 2313.3977
-121.8819 91.7434 -30.2297 2268.4353 32.3768 2314.8174
-122.3681 91.7616 -31.6488 2269.9355 33.1677 2316.2334
-122.8071 91.7789 -33.0833 2271.4358 33.9398 2317.6475
-123.2007 91.7956 -34.5306 2272.9360 34.6946 2319.0601
-123.5520 91.8123 -35.9890 2274.4363 35.4331 2320.4734
-123.8662 91.8302 -37.4557 2275.9365 36.1563 2321.8877
-124.1476 91.8502 -38.9291 2277.4370 36.8631 2323.3120
-124.3950 91.8719 -40.4088 2278.9373 37.5479 2324.7578
-124.6027 91.8958 -41.8944 2280.4375 37.4069 2326.2014
-124.7670 91.9226 -43.3853 2281.9377 38.0752 2327.6445
-124.8915 91.9510 -44.8801 2283.4380 38.7240 2329.0854
-124.9806 91.9805 -46.3774 2284.9382 39.3544 2330.5237
-125.0362 92.0111 -47.8763 2286.4387 39.9675 2331.9607
-125.0605 92.0418 -49.3762 2287.9390 40.5643 2333.3967
-125.0546 92.0717 -50.8763 2289.4392 41.1456 2334.8308
-125.0185 92.1012 -52.3759 2290.9395 41.7124 2336.2646
-124.9530 92.1300 -53.8744 2292.4397 42.2653 2337.6975
-124.8604 92.1583 -55.3714 2293.9402 42.8051 2339.1299
-124.7438 92.1862 -56.8669 2295.4404 43.3323 2340.5632
-124.6060 92.2142 -58.3604 2296.9407 43.8476 2341.9956
-124.4500 92.2425 -59.8522 2298.4409 44.3514 2343.4529
-124.2788 92.2713 -61.3426 2299.9412 44.8444 2344.9524
-124.0948 92.3007 -62.8313 2301.4414 45.3270 2346.4529
-123.8998 92.3309 -64.3186 2302.9419 45.7995 2347.9531
-123.6939 92.3616 -65.8044 2304.4421 46.2625 2349.4548
-123.4771 92.3928 -67.2887 2305.9424 46.7162 2350.9563
-123.2504 92.4247 -68.7713 2307.4426 47.1611 2352.4575
-123.0154 92.4568 -70.2529 2308.9429 47.5975 2353.9590
-122.7737 92.4895 -71.7332 2310.4434 48.0257 2355.4604
-122.5261 92.5224 -73.2127 2311.9436 48.4459 2356.9624
-122.2732 92.5557 -74.6912 2313.4438 48.8586 2358.4636
-122.0155 92.5894 -76.1688 2314.9441 49.2639 2359.9648
-121.7536 92.6233 -77.6458 2316.4443 49.6621 2361.4663
-121.4880 92.6576 -79.1221 2317.9446 50.0534 2362.9678
-121.2200 92.6922 -80.5978 2319.4451 50.4380 2364.4685
-120.9495 92.7273 -82.0729 2320.9453 50.8162 2365.9697
-120.6763 92.7626 -83.5476 2322.4456 51.1882 2367.4705
-120.3999 92.7983 -85.0219 2323.9458 51.5541 2368.9714
-120.1199 92.8344 -86.4953 2325.4460 51.9141 2370.4722
-119.8364 92.8707 -87.9683 2326.9463 52.2685 2371.9727
-119.5493 92.9071 -89.4404 2328.4468 52.6173 2373.4731
-119.2588 92.9437 -90.9116 2329.9470 52.9608 2374.9731
-118.9650 92.9802 -92.3823 2331.4473 53.2991 2376.4734
-118.6684 93.0169 -93.8525 2332.9475 53.6322 2377.9734
-118.3691 93.0536 -95.3223 2334.4478 53.9605 2379.4734
-118.0675 93.0906 -96.7913 2335.9482 54.2839 2380.9734
-117.7635 93.1283 -98.2602 2337.4485 54.6026 2382.4729
-117.4576 93.1668 -99.7286 2338.9487 54.9169 2383.9724
-117.1496 93.2068 -101.1965 2340.4490 55.2266 2385.4717
-116.8396 93.2485 -102.6637 2341.9492 55.5320 2386.9709
-116.5275 93.2921 -104.1305 2343.4495 55.8332 2388.4697
-116.2134 93.3371 -105.5970 2344.9500 56.1303 2389.9688
-115.8973 93.3831 -107.0629 2346.4502 56.4234 2391.4673
-115.5793 93.4297 -108.5284 2347.9504 56.7126 2392.9656
-115.2591 93.4767 -109.9934 2349.4507 56.9979 2394.4639
-114.9370 93.5238 -111.4581 2350.9509 57.2794 2395.9622
-114.6129 93.5709 -112.9221 2352.4514 57.5573 2397.4602
-114.2865 93.6178 -114.3856 2353.9517 57.8317 2398.9578
-113.9578 93.6651 -115.8489 2355.4519 58.1025 2400.4558
-113.6269 93.7128 -117.3114 2356.9521 58.3699 2401.9531
-113.2940 93.7612 -118.7734 2358.4524 58.6340 2403.4500
-112.9592 93.8102 -120.2350 2359.9526 58.8948 2404.9468
-112.6227 93.8599 -121.6962 2361.4531 59.1524 2406.4436
-112.2848 93.9100 -123.1571 2362.9534 59.4069 2407.9397
-111.9457 93.9606 -124.6176 2364.4536 59.6582 2409.4358
-111.6057 94.0117 -126.0781 2365.9539 59.9066 2410.9319
-111.2648 94.0629 -127.5384 2367.4541 60.1520 2412.4280
-110.9236 94.1141 -128.9985 2368.9546 60.3945 2413.9236
-110.5817 94.1650 -130.4585 2370.4548 60.6342 2415.4199
-110.2394 94.2152 -131.9185 2371.9551 60.8711 2416.9158
-109.8966 94.2650 -133.3781 2373.4553 61.1053 2418.4116
-109.5532 94.3141 -134.8378 2374.9556 61.3368 2419.9075
-109.2090 94.3626 -136.2973 2376.4558 61.5657 2421.4031
-108.8642 94.4107 -137.7565 2377.9563 61.7920 2422.8989
-108.5187 94.4584 -139.2156 2379.4565 62.0158 2424.3945
-108.1721 94.5054 -140.6746 2380.9568 62.2371 2425.8901
-107.8247 94.5519 -142.1332 2382.4570 62.4560 2427.3857
-107.4763 94.5976 -143.5919 2383.9573 62.6724 2428.8816
-107.1271 94.6427 -145.0502 2385.4575 62.8866 2430.3772
-106.7770 94.6873 -146.5084 2386.9580 63.0984 2431.8728
-106.4261 94.7315 -147.9665 2388.4583 63.3079 2433.3682
-106.0745 94.7756 -149.4244 2389.9585 63.5152 2434.8638
-105.7222 94.8198 -150.8821 2391.4587 63.7204 2436.3591
-105.3693 94.8641 -152.3396 2392.9590 63.9233 2437.8545
-105.0156 94.9086 -153.7969 2394.4595 64.1242 2439.3501
-104.6616 94.9531 -155.2542 2395.9597 64.3229 2440.8450
-104.3070 94.9976 -156.7113 2397.4600 64.5197 2442.3401
-103.9520 95.0417 -158.1684 2398.9602 64.7144 2443.8350
-103.5968 95.0852 -159.6254 2400.4604 64.9071 2445.3301
-103.2411 95.1282 -161.0823 2401.9607 65.0979 2446.8250
-102.8853 95.1703 -162.5392 2403.4612 65.2867 2448.3198
-102.5291 95.2117 -163.9961 2404.9614 65.4737 2449.8147
-102.1728 95.2525 -165.4529 2406.4617 65.6588 2451.3098
-101.8163 95.2925 -166.9096 2407.9619 65.8420 2452.8047
-101.4595 95.3321 -168.3663 2409.4622 66.0235 2454.2996
-101.1025 95.3713 -169.8228 2410.9626 66.2032 2455.7944
-100.7450 95.4100 -171.2794 2412.4629 66.3811 2457.2893
-100.3873 95.4481 -172.7359 2413.9631 66.5573 2458.7844
-100.0294 95.4856 -174.1922 2415.4634 66.7319 2460.2793
-99.6713 95.5224 -175.6486 2416.9636 66.9047 2461.7742
-99.3129 95.5586 -177.1050 2418.4639 67.0759 2463.2690
-98.9545 95.5942 -178.5614 2419.9644 67.2455 2464.7642
-98.5962 95.6294 -180.0180 2421.4646 67.4135 2466.2593
-98.2379 95.6640 -181.4744 2422.9648 67.5799 2467.7544
-97.8799 95.6982 -182.9309 2424.4651 67.7447 2469.2493
-97.5221 95.7322 -184.3875 2425.9653 67.9080 2470.7444
-97.1644 95.7659 -185.8443 2427.4656 68.0698 2472.2397
-96.8068 95.7992 -187.3010 2428.9661 68.2302 2473.7349
-96.4494 95.8320 -188.7576 2430.4663 68.3890 2475.2300
-96.0920 95.8641 -190.2142 2431.9666 68.5464 2476.7251
-95.7348 95.8956 -191.6712 2433.4668 68.7024 2478.2197
-95.3778 95.9265 -193.1281 2434.9670 68.8569 2479.7151
-95.0212 95.9567 -194.5852 2436.4675 69.0101 2481.2102
-94.6651 95.9863 -196.0422 2437.9678 69.1619 2482.7051
-94.3095 96.0153 -197.4995 2439.4680 69.3124 2484.2002
-93.9546 96.0437 -198.9569 2440.9683 69.4615 2485.6948
-93.6006 96.0716 -200.4145 2442.4685 69.6093 2487.1904
-93.2474 96.0989 -201.8723 2443.9688 69.7558 2488.6858
-92.8953 96.1256 -203.3303 2445.4692 69.9010 2490.1809
-92.5439 96.1521 -204.7885 2446.9695 70.0449 2491.6763
-92.1935 96.1784 -206.2471 2448.4697 70.1876 2493.1716
-91.8441 96.2045 -207.7060 2449.9700 70.3290 2494.6672
-91.4958 96.2304 -209.1650 2451.4702 70.4693 2496.1628
-91.1487 96.2558 -210.6243 2452.9707 70.6083 2497.6587
-90.8029 96.2812 -212.0839 2454.4709 70.7461 2499.1545
-90.4584 96.3066 -213.5439 2455.9712 70.8828 2500.6506
-90.1156 96.3322 -215.0044 2457.4714 71.0183 2502.1470
-89.7744 96.3577 -216.4651 2458.9717 71.1526 2503.6426
-89.4352 96.3830 -217.9261 2460.4719 71.2859 2505.1394
-89.0980 96.4072 -219.3878 2461.9724 71.4180 2506.6355
-88.7631 96.4300 -220.8500 2463.4727 71.5490 2508.1323
-88.4304 96.4513 -222.3129 2464.9729 71.6789 2509.6292
-88.1003 96.4709 -223.7761 2466.4731 71.8077 2511.1262
-87.7727 96.4890 -225.2402 2467.9734 71.9355 2512.6230
-87.4477 96.5058 -226.7048 2469.4736 72.0622 2514.1208
-87.1254 96.5214 -228.1700 2470.9741 72.1879 2515.6182
-86.8059 96.5357 -229.6358 2472.4744 72.3125 2517.1162
-86.4894 96.5490 -231.1022 2473.9746 72.4361 2518.6143
-86.1755 96.5609 -232.5693 2475.4749 72.5587 2520.1125
-85.8644 96.5713 -234.0371 2476.9751 72.6804 2521.6106
-85.5559 96.5806 -235.5053 2478.4756 72.8010 2523.1091
-85.2498 96.5886 -236.9740 2479.9758 72.9207 2524.6074
-84.9459 96.5956 -238.4430 2481.4761 73.0394 2526.1062
-84.6441 96.6022 -239.9126 2482.9763 73.1572 2527.6045
-84.3446 96.6093 -241.3828 2484.4766 73.2740 2529.1038
-84.0480 96.6176 -242.8535 2485.9768 73.3899 2530.6023
-83.7542 96.6271 -244.3248 2487.4773 73.5049 2532.1016
-83.4639 96.6375 -245.7965 2488.9775 73.6189 2533.6006
-83.1773 96.6480 -247.2692 2490.4778 73.7321 2535.1001
-82.8950 96.6580 -248.7426 2491.9780 73.8444 2536.5996
-82.6174 96.6670 -250.2170 2493.4783 73.9558 2538.0991
-82.3450 96.6750 -251.6922 2494.9788 74.0663 2539.5994
-82.0775 96.6821 -253.1683 2496.4790 74.1760 2541.1003
-81.8149 96.6885 -254.6454 2497.9792 74.2848 2542.6023
-81.5566 96.6942 -256.1234 2499.4795 74.3928 2544.1035
-81.3021 96.6992 -257.6019 2500.9797 74.5000 2545.6050
-81.0507 96.7034 -259.0810 2502.4800 74.6063 2547.1064
-80.8021 96.7061 -260.5607 2503.9805 74.7118 2548.6089
-80.5561 96.7068 -262.0406 2505.4807 74.8165 2550.1101
-80.3129 96.7054 -263.5210 2506.9810 74.9204 2551.6118
-80.0729 96.7021 -265.0020 2508.4812 75.0236 2553.1138
-79.8369 96.6975 -266.4836 2509.9814 75.1259 2554.6152
-79.6054 96.6920 -267.9659 2511.4817 75.2275 2556.1169
-79.3790 96.6864 -269.4491 2512.9822 75.3283 2557.6189
-79.1581 96.6812 -270.9330 2514.4824 75.4283 2559.1201
-78.9431 96.6764 -272.4178 2515.9827 75.5276 2560.6218
-78.7339 96.6723 -273.9035 2517.4829 75.6261 2562.1230
-78.5309 96.6683 -275.3900 2518.9832 75.7240 2563.6243
-78.3346 96.6640 -276.8774 2520.4836 75.8210 2565.1252
-78.1449 96.6591 -278.3657 2521.9839 75.9174 2566.6265
-77.9620 96.6531 -279.8548 2523.4841 76.0131 2568.1270
-77.7864 96.6459 -281.3448 2524.9844 76.1080 2569.6270
-77.6178 96.6374 -282.8354 2526.4846 76.2023 2571.1262
-77.4564 96.6279 -284.3271 2527.9849 76.2958 2572.6257
-77.3022 96.6174 -285.8194 2529.4854 76.3887 2574.1250
-77.1550 96.6059 -287.3124 2530.9856 76.4809 2575.6228
-77.0147 96.5936 -288.8061 2532.4858 76.5724 2577.1211
-76.8813 96.5804 -290.3003 2533.9861 76.6632 2578.6187
-76.7546 96.5665 -291.7951 2535.4863 76.7534 2580.1152
-76.6350 96.5517 -293.2906 2536.9868 76.8430 2581.6113
-76.5227 96.5362 -294.7865 2538.4871 76.9319 2583.1064
-76.4181 96.5200 -296.2830 2539.9873 77.0201 2584.6013
-76.3219 96.5027 -297.7800 2541.4875 77.1077 2586.0942
-76.2344 96.4845 -299.2777 2542.9878 77.1947 2587.5874
-76.1564 96.4650 -300.7759 2544.4880 77.2811 2589.0791
-76.0880 96.4443 -302.2744 2545.9885 77.3668 2590.5698
-76.0298 96.4221 -303.7733 2547.4888 77.4520 2592.0583
-75.9816 96.3989 -305.2726 2548.9890 77.5365 2593.5457
-75.9439 96.3747 -306.7722 2550.4893 77.6204 2595.0317
-75.9169 96.3497 -308.2720 2551.9895 77.7038 2596.5164
-75.9006 96.3241 -309.7719 2553.4900 77.7865 2597.9988
-75.8950 96.2980 -311.2720 2554.9902 77.8687 2599.4797
-75.9002 96.2713 -312.7722 2556.4905 77.9503 2600.9590
-75.9161 96.2442 -314.2721 2557.9907 78.0313 2602.4360
-75.9426 96.2164 -315.7720 2559.4910 78.1117 2603.9062
-75.9795 96.1882 -317.2716 2560.9912 78.1916 2605.3728
-76.0266 96.1592 -318.7709 2562.4917 78.2709 2606.8411
-76.0836 96.1295 -320.2698 2563.9919 78.3497 2608.3105
-76.1504 96.0988 -321.7684 2565.4922 78.4279 2609.7827
-76.2272 96.0671 -323.2665 2566.9924 78.5056 2611.2573
-76.3139 96.0345 -324.7639 2568.4927 78.5828 2612.7339
-76.4109 96.0011 -326.2608 2569.9929 78.6594 2614.2134
-76.5185 95.9672 -327.7570 2571.4934 78.7355 2615.6956
-76.6368 95.9329 -329.2521 2572.9937 78.8110 2617.1809
-76.7663 95.8986 -330.7466 2574.4939 78.8861 2618.6699
-76.9067 95.8642 -332.2399 2575.9941 78.9606 2620.1628
-77.0587 95.8297 -333.7320 2577.4944 79.0346 2621.6589
-77.2221 95.7953 -335.2230 2578.9949 79.1081 2623.1624
-77.3971 95.7609 -336.7126 2580.4951 78.9950 2624.6963
-77.5839 95.7265 -338.2008 2581.9954 78.3274 2626.2334
-77.7823 95.6919 -339.6877 2583.4956 77.5948 2627.7703
-77.9924 95.6570 -341.1728 2584.9958 77.4728 2629.3079
-78.2142 95.6218 -342.6562 2586.4961 76.7348 2630.8469
-78.4477 95.5863 -344.1377 2587.9966 75.9921 2632.3877
-78.6929 95.5501 -345.6174 2589.4968 75.2444 2633.9314
-78.9499 95.5133 -347.0949 2590.9971 74.4917 2635.4775
-79.2188 95.4760 -348.5705 2592.4973 73.7339 2637.0276
-79.4999 95.4388 -350.0437 2593.9976 72.9708 2638.5830
-79.7934 95.4025 -351.5145 2595.4980 72.2022 2640.1421
-80.0998 95.3673 -352.9828 2596.9983 71.4280 2641.7080
-80.4191 95.3334 -354.4483 2598.4985 70.6480 2643.2803
-80.7516 95.3004 -355.9108 2599.9988 69.8620 2644.8540
-81.0974 95.2675 -357.3704 2601.4990 69.0700 2646.4197
-81.4562 95.2340 -358.8268 2602.9993 68.2715 2647.9805
-81.8284 95.1998 -360.2798 2604.4998 67.4666 2649.5352
-82.2138 95.1641 -361.7293 2606.0000 66.6549 2651.0850
-82.6125 95.1269 -363.1753 2607.5002 65.8363 2652.6311
-83.0248 95.0882 -364.6173 2609.0005 65.0105 2654.1741
-83.4512 95.0482 -366.0551 2610.5007 64.1772 2655.7146
-83.8925 95.0076 -367.4885 2612.0010 63.3362 2657.2532
-84.3498 94.9670 -368.9168 2613.5015 62.4872 2658.7920
-84.8241 94.9273 -370.3397 2615.0017 61.6299 2660.3313
-85.3159 94.8889 -371.7565 2616.5020 60.7639 2661.8716
-85.8260 94.8517 -373.1670 2618.0022 60.8946 2663.4128
-86.3543 94.8157 -374.5708 2619.5024 60.9054 2664.9436
-86.9004 94.7807 -375.9675 2621.0029 61.1392 2666.4636
-87.4640 94.7464 -377.3575 2622.5032 61.3704 2667.9756
-88.0445 94.7125 -378.7406 2624.0034 60.9039 2669.4788
-88.6413 94.6784 -380.1167 2625.5037 60.0305 2670.9746
-89.2549 94.6443 -381.4853 2627.0039 59.1478 2672.4634
-89.8861 94.6105 -382.8461 2628.5042 58.2555 2673.9473
-90.5358 94.5772 -384.1980 2630.0046 58.5210 2675.4260
-91.2039 94.5445 -385.5410 2631.5049 58.7832 2676.9016
-91.8900 94.5118 -386.8749 2633.0051 59.0422 2678.3738
-92.5930 94.4787 -388.1998 2634.5054 58.1642 2679.8442
-93.3132 94.4445 -389.5155 2636.0056 57.2609 2681.3123
-94.0510 94.4094 -390.8213 2637.5061 56.3470 2682.7803
-94.8072 94.3737 -392.1164 2639.0063 55.4221 2684.2410
-95.5828 94.3376 -393.4002 2640.5066 54.4856 2685.6956
-96.3784 94.3013 -394.6718 2642.0068 53.5738 2687.1448
-97.1941 94.2650 -395.9306 2643.5071 52.6131 2688.5901
-98.0297 94.2290 -397.1759 2645.0073 51.6392 2690.0312
-98.8860 94.1937 -398.4074 2646.5078 50.6513 2691.4700
-99.7632 94.1595 -399.6238 2648.0081 49.6487 2692.9062
-100.6620 94.1265 -400.8246 2649.5083 48.6305 2694.3408
-101.5829 94.0948 -402.0085 2651.0085 48.1447 2695.7751
-102.5262 94.0645 -403.1748 2652.5088 47.3978 2697.2087
-103.4918 94.0347 -404.3226 2654.0090 46.3422 2698.6436
-104.4799 94.0055 -405.4510 2655.5095 46.7943 2700.0789
-105.4901 93.9761 -406.5599 2657.0098 47.2377 2701.5161
-106.5208 93.9459 -407.6495 2658.5100 47.6727 2702.9548
-107.5714 93.9145 -408.7201 2660.0103 46.6584 2704.4353
-108.6420 93.8823 -409.7706 2661.5105 45.5896 2705.9277
-109.7331 93.8497 -410.8000 2663.0110 44.5066 2707.4233
-110.8444 93.8169 -411.8074 2664.5112 43.4176 2708.9209
-111.9758 93.7835 -412.7921 2666.0115 42.3222 2710.4204
-113.1277 93.7492 -413.7527 2667.5117 41.2201 2711.9202
-114.3004 93.7140 -414.6877 2669.0120 40.1108 2713.4202
-115.4941 93.6781 -415.5956 2670.5122 38.9939 2714.9202
-116.7081 93.6416 -416.4763 2672.0127 37.8690 2716.4182
-117.9413 93.6047 -417.3301 2673.5129 36.7354 2717.9146
-119.1935 93.5673 -418.1556 2675.0132 35.5925 2719.4082
-120.4660 93.5298 -418.9491 2676.5134 34.4397 2720.8975
-121.7600 93.4920 -419.7070 2678.0137 33.2760 2722.3811
-123.0770 93.4538 -420.4247 2679.5142 32.1008 2723.8572
-124.4180 93.4150 -421.0961 2681.0144 30.9129 2725.3235
-125.7844 93.3753 -421.7144 2682.5146 30.1667 2726.7761
-127.1754 93.3347 -422.2744 2684.0149 29.3367 2728.2104
-128.5896 93.2932 -422.7731 2685.5151 28.1148 2729.6250
-130.0247 93.2513 -423.2072 2687.0154 27.9814 2731.0149
-131.4789 93.2085 -423.5733 2688.5159 27.0328 2732.3770
-132.9498 93.1643 -423.8661 2690.0161 25.7770 2733.7070
-134.4337 93.1181 -424.0800 2691.5164 25.4546 2734.9958
-135.9271 93.0686 -424.2114 2693.0166 24.3612 2736.3013
-137.4254 93.0157 -424.2570 2694.5168 23.2922 2737.6709
-138.9240 92.9607 -424.2129 2696.0173 23.3728 2739.1206
-140.4169 92.9045 -424.0780 2697.5176 22.0485 2740.6768
-141.8987 92.8478 -423.8504 2699.0178 21.3135 2742.3833
-143.3616 92.7951 -423.5232 2700.5181 19.9394 2744.2849
-144.7966 92.7520 -423.0889 2702.0183 19.5167 2747.0295
-146.1948 92.7222 -422.5463 2703.5186 19.8654 2751.1707
-147.5495 92.7097 -421.9023 2705.0190 21.1360 2755.8884
-148.8598 92.7135 -421.1720 2706.5193 22.3338 2759.4607
-150.1254 92.7270 -420.3669 2708.0195 23.4701 2762.2993
-151.3450 92.7454 -419.4933 2709.5198 24.5533 2763.9355
-152.5170 92.7631 -418.5569 2711.0200 25.2248 2765.3203
-153.6364 92.7781 -417.5582 2712.5203 23.9378 2766.6963
-154.6963 92.7908 -416.4967 2714.0208 23.7534 2768.0669
-155.6924 92.8022 -415.3751 2715.5210 24.8241 2769.4355
-156.6243 92.8132 -414.1992 2717.0212 25.8502 2770.8030
-157.4949 92.8228 -412.9772 2718.5215 26.8366 2772.1655
-158.3074 92.8312 -411.7165 2720.0217 27.7876 2773.5249
-159.0668 92.8389 -410.4229 2721.5222 28.7069 2774.8840
-159.7760 92.8447 -409.1012 2723.0225 29.5972 2776.2861
-160.4325 92.8490 -407.7523 2724.5227 30.4613 2777.7141
-161.0361 92.8523 -406.3789 2726.0229 31.3012 2779.1636
-161.5926 92.8544 -404.9859 2727.5232 32.1189 2780.6270
-162.1071 92.8559 -403.5765 2729.0234 32.9160 2782.1023
-162.5846 92.8576 -402.1541 2730.5239 33.6940 2783.5886
